# .PCD v.7 - Point Cloud Data file format
VERSION .7
FIELDS x y z
SIZE 4 4 4
TYPE f f f
COUNT 1 1 1
WIDTH 789
HEIGHT 1
VIEWPOINT 0 0 0 1 0 0 0
POINTS 789
DATA ascii
0.1587833397727966 -0.0649638442991727 0.06840313794322017
0.15820021260881628 -0.06500399122358387 0.0688617723319751
0.15877517526425064 -0.06538766948559112 0.06899682626038299
0.15788998856019468 -0.0645852043852422 0.06849464129533409
0.15699542296297042 -0.06421234417921978 0.06861869727300027
0.15748720700223445 -0.06477193381198107 0.06903532944724856
0.15586741279652921 -0.06379826668064034 0.06869994134316054
0.1548557760278438 -0.06323046370588034 0.0684695129520894
0.1541031053533505 -0.0633785039773078 0.0689150467562192
0.15479779493980222 -0.06370680705683579 0.06908540084892155
0.15374037622141282 -0.0628912170278107 0.06847963858600718
0.1529466313863058 -0.06291353574876384 0.06891616975295523
0.15334406845475343 -0.06331061038631429 0.06911720037067307
0.15291463686264864 -0.06249397529589895 0.06853487221083897
0.15232178995750004 -0.06212241582826529 0.06863157107610818
0.1523743803028307 -0.06266380114750875 0.06905094023135107
0.1517980926327333 -0.061676358245133595 0.06876199956690256
0.15127068921082407 -0.06120525019501103 0.06897021112446047
0.15075364008741535 -0.06065409399560196 0.06919317565960803
0.15059021036180992 -0.060081249810108754 0.06912590246920405
0.15026221659232714 -0.05975204133469413 0.06926119564746844
0.15017394576610255 -0.06033969033276365 0.06955682308300784
0.1498977186677535 -0.05934044092559191 0.0693946561940525
0.14923802766571712 -0.05852354116625788 0.06939311390818144
0.14949306292770886 -0.05905036305802603 0.06954770285810555
0.14869234590914313 -0.05816379762243415 0.06951172241598853
0.14842978125747772 -0.05724796990131409 0.0689070105458216
0.14846244302756756 -0.057675675324001696 0.06928798076957696
0.14684203829280232 -0.056920000979099536 0.06858845524841105
0.14689392543338453 -0.057354873009965196 0.06905075893758522
0.14746190787162444 -0.05732962289097968 0.0691207135556093
0.14798359095350774 -0.05741285241013196 0.06924565434899832
0.14629375957930152 -0.05645933621970373 0.0681460737782812
0.14629232132253847 -0.05695161041223675 0.06858409710042238
0.1459023665305541 -0.055791081426536056 0.0678218208614313
0.14581181648690933 -0.05638540757139641 0.06825835244939098
0.14574296181672153 -0.054583765140210065 0.06752908384949691
0.14532328841767916 -0.05528349646023716 0.06794974861519963
0.1455475285084706 -0.05558162367633336 0.06791519662700735
0.14634360679214778 -0.05334664974873772 0.06739338008869757
0.14568401151388594 -0.05426155304087366 0.06764083265639625
0.14750566523888264 -0.05146150120708008 0.06732518548562047
0.14653417349858314 -0.05276945491433067 0.06763472978534385
0.14792748560961633 -0.050530496224985746 0.06754172663924159
0.14847505244197542 -0.04954245879061368 0.06768100330966564
0.1493413485621973 -0.047998954677577386 0.06778407104278827
0.14885043683463656 -0.048813707468564366 0.06780753367063377
0.14955974132786104 -0.0474513315791889 0.06817689485425064
0.17352175484598473 -0.07956553808378233 0.06994535564389687
0.17314356746805332 -0.0790425553847663 0.06957066937268648
0.17266980388520373 -0.07851087369198115 0.06960820419662878
0.17307527833832986 -0.07916088587006229 0.07027760515510634
0.1720051384736814 -0.0777853306425151 0.06963176207819666
0.17121809544522215 -0.07697794307358062 0.06972688322243999
0.17049969349409086 -0.07614432493775 0.06982881856392459
0.1698406494835065 -0.07535128685934722 0.06997721510136759
0.16891597673457717 -0.07371910904540221 0.06946714460246793
0.16925228223283087 -0.07461156830715938 0.07015003672658524
0.16835594830179418 -0.07294121361744878 0.06958848165904244
0.16773837439424943 -0.07214345201763818 0.06970969949478052
0.1671130461938662 -0.07136768611617278 0.06983203329548905
0.16646660452664225 -0.07066024438221694 0.06997124193355257
0.16532462371523612 -0.06945770841926549 0.06961482761357693
0.16583646780193997 -0.07010374045403094 0.07015679510727164
0.16395348342156688 -0.06846524505544574 0.06934562586404244
0.16448745140707166 -0.06903208831540428 0.06992028122602875
0.16316267229036782 -0.0680164269756107 0.0695131657758706
0.16172934678531017 -0.0671412301257912 0.06944340385761552
0.16252626986082394 -0.06767817202210599 0.06964419629096504
0.1609149785813625 -0.06656607901387031 0.06924568380279392
0.1601564856002749 -0.06623602311212919 0.0693417815908534
0.16071814119872313 -0.06678004806378955 0.06984800017173472
0.15924276146753039 -0.06582998505065665 0.06938461387468174
0.15810909143526838 -0.06526714412970805 0.0693663833371974
0.1586567373371609 -0.06555015825552409 0.06940308610035607
0.1565052678200864 -0.0645241703865251 0.0693140526778278
0.157342130964877 -0.06500838973018215 0.06950997532413805
0.15541519188281963 -0.06417128422362048 0.0693899447943127
0.15395193489795297 -0.06376069539861269 0.06943159067525277
0.1546876015773374 -0.06402734086628498 0.06951504643366092
0.15261825585069166 -0.06316627726938975 0.0693738646724458
0.1530731393620905 -0.06363965424019284 0.06962747752767226
0.15178903245699907 -0.06231187123504859 0.06920296568338423
0.1519484862566638 -0.06291427231331162 0.06956441970787093
0.1511997609696833 -0.061910599748908765 0.06935363778623846
0.1506592143180331 -0.06143724618730051 0.06954715980645679
0.1501478889691773 -0.06097935858052631 0.06979302786699064
0.1496193955079846 -0.05994367505969937 0.0698106773854121
0.14966316259674617 -0.06057847300287539 0.07003083955104678
0.14937922683317156 -0.05946249869056117 0.06980214510995607
0.14891807299450766 -0.0591980599547909 0.06992719227608354
0.1489294844617664 -0.05977716020082244 0.07015776274936597
0.14835187770984165 -0.05877541241584778 0.069980189147692
0.14814119548363475 -0.0581684352327235 0.06979757262294506
0.14793674051064212 -0.05779024047791632 0.06962919918055974
0.146276157888957 -0.0575000269461193 0.06911211271923792
0.1465574395974658 -0.057750157511712086 0.06937579244830488
0.14693061617396092 -0.057773846803996026 0.06947790258697148
0.14748211549994314 -0.057725217161017736 0.06959223409883276
0.1457659860721431 -0.05702823720143297 0.06873454817778216
0.14592494513236906 -0.05734150769119866 0.06894178283576359
0.145381836925972 -0.05630353269131648 0.06843705344264553
0.14543398397115168 -0.056808810815761744 0.06871222796828817
0.14526133644136616 -0.05490342415083665 0.06794867218402084
0.14494937635084593 -0.05555264738244423 0.06846889240017731
0.14509344715162098 -0.05595389180563295 0.0684148442833644
0.14563249392105276 -0.05395827333603496 0.06790026918521408
0.14532199596576112 -0.054547470137685586 0.06793989762222824
0.14673689172148255 -0.05209306199178954 0.0680028334777586
0.1458696311125557 -0.05333340065222114 0.06807678209933204
0.1475096609620465 -0.050763513447032775 0.0682027261305159
0.14833461012487612 -0.0495665523804119 0.06810291431341285
0.1487340396019852 -0.04881998407658996 0.06821496250741765
0.14795808451165637 -0.049944307503273416 0.06855265704125724
0.14919886227005458 -0.04795214956147241 0.06837743356525326
0.1494726264573089 -0.0474258523569543 0.06864331873854618
0.1738307119312496 -0.08015797829772814 0.0708990845619247
0.17354813832889596 -0.07986057700418632 0.07100146157235838
0.17248804008026566 -0.07850666667030375 0.0704287577252594
0.17301386859452267 -0.0792441867634248 0.07118440501265832
0.1717802564536529 -0.0778041134806867 0.0705275387866787
0.17098301515167222 -0.0770423622414034 0.0706268977938521
0.17027217754076812 -0.07624929308395255 0.07073371033296999
0.16962914413240707 -0.07547588477299995 0.07084392771773701
0.1687037162224767 -0.0738680538272374 0.07032456551147953
0.16907774325394404 -0.07475503966796503 0.07097993923499621
0.16811510903810467 -0.07306132586662958 0.07047265599618613
0.16750101019206112 -0.07222092262572631 0.07056722344447916
0.16684996728572543 -0.07144165292631527 0.07064642409003542
0.16622250279408962 -0.07076459016780447 0.07068767450478215
0.1651206812364945 -0.06971805893738697 0.07056289213664742
0.16571179042185827 -0.07030774135222978 0.07076670432434681
0.1635323231373974 -0.0685112814002007 0.07019398080360471
0.16421190441023786 -0.0691787485187238 0.07081068698928905
0.16283058937267575 -0.06802331966788114 0.07003115517193186
0.1621943095454304 -0.0677082462989321 0.0701617663062284
0.16274400833996747 -0.06819077856175612 0.07063998393716298
0.1613639006214811 -0.06733006685875716 0.07032788589540903
0.1596474741495422 -0.06638584377143177 0.07009366491431941
0.16048320745307737 -0.0669944458598084 0.07058930152699663
0.15859590446949995 -0.06574527825015929 0.0698905891853372
0.15809194263908372 -0.06575859121178518 0.07034790233470777
0.1587705348430504 -0.06619423539305648 0.07059512045824576
0.15773542403814222 -0.06538993519162722 0.06991980292266343
0.15682090364544554 -0.06507674332650834 0.0699322483008396
0.157325020383569 -0.06554154268505843 0.07042207687592648
0.1557133376528152 -0.06467776294397586 0.06994990286273867
0.15498319424268653 -0.06432105795812147 0.06977106123036952
0.15430287393103514 -0.06420907266795721 0.06985855679485303
0.15480443153387002 -0.06457554617894447 0.07016666165729105
0.15355289028314328 -0.06402456197616047 0.06994103666580481
0.1523134725465161 -0.06354015400329262 0.06993066415203053
0.15293245628771418 -0.06389591663522112 0.07005092586812894
0.15129699019020634 -0.0625659187059473 0.06973877785103343
0.15157012707871725 -0.06316414708303306 0.07007958746595376
0.1507079488842776 -0.062116874693521826 0.06992515442042907
0.1501498479499427 -0.061616793013420566 0.07012954853047429
0.1496445601601868 -0.06110901258069799 0.07029402875968843
0.14902860637425952 -0.06036144489127935 0.07033428264608803
0.1493461263504904 -0.060749789567761586 0.070348248137024
0.1480871954147013 -0.05964786064852948 0.07039543116767023
0.14852399885190276 -0.06006155523027221 0.07043956255238218
0.1475506737105069 -0.05915688966397272 0.07032666752799158
0.14688817005198138 -0.059495998934345116 0.07047859825771345
0.1473716886861542 -0.05959839492397125 0.07052919524322201
0.1469340859570782 -0.05881322723189691 0.070190851825206
0.14613080430997188 -0.0592682975630222 0.07027591574854751
0.1464971731656644 -0.05937978798099383 0.0704003101570141
0.14771362127019588 -0.05860178891655787 0.07009670648321747
0.14623282657612666 -0.058371770216312915 0.06978406502699491
0.14535907192722017 -0.0588840417851499 0.07001596740881189
0.14563854103579282 -0.05923783817812965 0.0701965763756929
0.14702209835355162 -0.058148375901419955 0.06983444678485895
0.1475561599808963 -0.0581665995348983 0.06992352045795204
0.14556308680862268 -0.057885352554689504 0.06938819377002232
0.14514489326114827 -0.057959861721203966 0.06952320711152235
0.14505910305562075 -0.05858345939615366 0.06989240292771028
0.14531756266171944 -0.05737573549188058 0.06912649357925657
0.14515425761626674 -0.05700266276198174 0.068955424659204
0.14505482146039278 -0.05764215757745939 0.0693956026909359
0.14501253758474747 -0.05661698905509922 0.06884948600123061
0.14502871047223956 -0.054814554889696054 0.06829824525114092
0.14487634246167383 -0.05473864112960176 0.06869248211569488
0.1447696487907054 -0.05538176718698324 0.06889713397930908
0.14474618447714266 -0.05595861581737704 0.06895826781905498
0.14487274230589797 -0.056255525591538645 0.06884723254433088
0.1452645173798086 -0.05413205746507729 0.0683803423767627
0.14568498413909303 -0.05330208769927634 0.06849922550581292
0.14508865695971535 -0.05416162241187692 0.06884149805390356
0.14638609473885172 -0.052227426138942726 0.06864778959190063
0.1470138608611921 -0.051196617072875206 0.06888860255565156
0.14848573927769196 -0.0490227811286514 0.06876705729229804
0.1476414561105338 -0.050190952082719675 0.06914517938183048
0.14898925745356567 -0.04806818778769632 0.06898243005184913
0.14930038590225328 -0.047378027258389376 0.0692902271030318
0.17394421950240813 -0.08050556786935603 0.07187719335858937
0.17350360923133962 -0.0800190299873178 0.07198815538306498
0.1723551568660168 -0.07855550733330664 0.07132551393700967
0.1728846002256385 -0.07932632819003302 0.07212918367697665
0.1715777040147767 -0.07783388933638433 0.07143507502144505
0.17076506687201778 -0.0770625244333693 0.07153408888576089
0.17006247147128403 -0.07626902295185604 0.07161942766880058
0.16945243025994045 -0.07553014183490099 0.07162707666358188
0.16857030526946287 -0.07409492660703335 0.07130264625031196
0.169018728514491 -0.07494016590773822 0.07164999489476108
0.1678972556177329 -0.07315376712017262 0.07134674224854627
0.16724157614692098 -0.07229743736870192 0.07140022085608275
0.16648697903355555 -0.07145557598733561 0.07144258012448508
0.1659505261958289 -0.07074428133495211 0.07118227787937256
0.16546617989056983 -0.0703264441247572 0.07131119218162173
0.1659186430727225 -0.07097009542364113 0.07179058715815687
0.16478521221291725 -0.0698112518057018 0.07145194715984952
0.16338014845467408 -0.06874976970534386 0.07113167392699166
0.16401348913225094 -0.06933581844570287 0.07165070591457788
0.1619210181128594 -0.06783809683612499 0.07088893484860595
0.1625305530643271 -0.06837010536303453 0.07144489851567644
0.16108598018065187 -0.06747685330139062 0.07104750352422139
0.15967263575675789 -0.06678140101727617 0.07104376406246453
0.1604494414348305 -0.06719695265507789 0.07119805152201722
0.1579368401455343 -0.06597102372769922 0.0708660858527204
0.15867269459025743 -0.06646672989767709 0.07130743330804214
0.15631882215522067 -0.06525344621950849 0.07049685242248582
0.15701944453842823 -0.06571080942190725 0.0710311722971941
0.1552996325827627 -0.06496008669784618 0.07052700140434362
0.15400146908235607 -0.0644876494868306 0.0704147297527867
0.15465856035252742 -0.06476576543391394 0.0705028354777753
0.15325249226088758 -0.06416830577831216 0.07031697050386339
0.15262664710030702 -0.06406923962226259 0.07048112826773459
0.15327431525507576 -0.0644035109184112 0.07063632253610636
0.15187905849139358 -0.0636865371122857 0.07046951081491952
0.15094093886649682 -0.06283988921524057 0.07035287082143499
0.1513681236899779 -0.06336897822382538 0.07051634342525048
0.15029468705961652 -0.062266909540760494 0.07050195945197882
0.14960131328812734 -0.06167061620983727 0.07069969828347573
0.14899887500779577 -0.06096235806202271 0.07065419153628304
0.14839462033238388 -0.060974578909382016 0.07094180559861918
0.14888614013413454 -0.061366808841887825 0.07101311848536436
0.14811910685154636 -0.06044731669283925 0.07071636239505245
0.14722801693705165 -0.06061715715331533 0.07092774439960209
0.1477347486184749 -0.06089485329031068 0.07101872016985569
0.14700964660457724 -0.06009814370534662 0.07069229214270618
0.14614403173529383 -0.06034026997847723 0.07075357666099667
0.14638014203233063 -0.06069132163682211 0.07094672334750998
0.14614777895425793 -0.05987692305115317 0.0705635989743012
0.14550389956512402 -0.06025010755880187 0.07061711577358813
0.14580255012732182 -0.06029751754382863 0.07068997085351224
0.14556725069330145 -0.059791244979713096 0.07043432805799714
0.14509325925726835 -0.05974439459102392 0.0703712657448223
0.14516403602398656 -0.060175894739134095 0.07055042759002722
0.14489727262128843 -0.05937317462125778 0.07029103400923686
0.14494971753321784 -0.05828985643341037 0.06984848487709425
0.14481475944284486 -0.05899896143821332 0.07023433786652239
0.14498851885633118 -0.057257992672907806 0.06929471461694224
0.14497899116644825 -0.057904690679839874 0.06974170188311514
0.14492250872285992 -0.0568434877632921 0.0692507592747802
0.14482585488758726 -0.05483995099915396 0.06914631288200432
0.14480897115178024 -0.05540652263167535 0.06945391091199123
0.14477692926988928 -0.05595936113483901 0.06933498453554032
0.14484075479239988 -0.05642873436041521 0.06927786076246162
0.1455506894426332 -0.05333202000719873 0.0690146307713906
0.14509312598003724 -0.05414976275605808 0.0693427409270734
0.14609473534701897 -0.05237976287254948 0.0692361729843158
0.14681005212072828 -0.05133789683338068 0.06950111333283396
0.1482540398896021 -0.049132632574101574 0.06938113044337346
0.14746175905147307 -0.050264459533160784 0.06977764757661564
0.14879831175486583 -0.04811163135122382 0.06955495856879665
0.14933464712689457 -0.047076542454959645 0.06968942789455845
0.14912103736480187 -0.04742425732888694 0.06971539403359968
0.17422078566322402 -0.08108776534410933 0.07280411489900199
0.173971976904952 -0.08078569833743551 0.07286400204781306
0.1734091239930783 -0.0801399101072472 0.07297099620465883
0.17215444047911974 -0.07858565406687419 0.0722543181292096
0.17270859742221928 -0.07938232237246665 0.0730853400013362
0.17138155061103047 -0.07783932154495388 0.07236606344736453
0.17058502004072645 -0.07705943013234877 0.07246488707320804
0.1698238107792863 -0.07619649268486309 0.07253321948188127
0.169253960903295 -0.07543683222721273 0.07216323017273014
0.1688423775866311 -0.07484477611824497 0.07217833361310642
0.16924206711564146 -0.07556950372846465 0.07285402659684291
0.16829226418644738 -0.07405284200027037 0.07216041720342377
0.16764749508134125 -0.07320472724500666 0.07219151413817318
0.16697668978653088 -0.07238146839669748 0.07221977670273731
0.16635930281388311 -0.0716901157852397 0.0722698452116532
0.16534404987563558 -0.07056848178454224 0.07217463294263225
0.16591574581654145 -0.07124418063559851 0.07240812522394065
0.16454011294925716 -0.06991929521789661 0.07222062844380321
0.16327062940032808 -0.06898929028308837 0.07205240065496377
0.16394873873631494 -0.06950105102793985 0.07229250591263699
0.16160563539735762 -0.06795612165339708 0.07172043169976453
0.16237180001565835 -0.0685603617648903 0.07225578602351551
0.1608325642393062 -0.06752589137890898 0.07156617709439965
0.16022575461459743 -0.06726590451109056 0.07169663189161417
0.16085415286028984 -0.06772148197282855 0.07214554843369118
0.15942123620482568 -0.0669452102854452 0.07182216955156825
0.15779289610698344 -0.06616695365289903 0.07153259064520572
0.15854509921429452 -0.06662551863333949 0.07199915891723838
0.15584100277947602 -0.06543044415464534 0.07116897709906371
0.1568702390436823 -0.06593378442525269 0.07172240331875596
0.15464866320015141 -0.06494921082760775 0.07092450188414955
0.1542095345440227 -0.06497491838806876 0.07137079378662269
0.15496702079112257 -0.06528840326767578 0.07159834369052226
0.1537457396829126 -0.0646983386551991 0.07096496393919507
0.15295619587866793 -0.064466909141115 0.07100636611895794
0.15353130613958063 -0.06480680364007238 0.07146119877590401
0.15215512117709107 -0.06409234211984867 0.07102931278767055
0.1515629870051104 -0.06369745871031632 0.07081805215640442
0.15110585908816362 -0.06336967631265476 0.07085859254102643
0.15152051218821588 -0.06381167827933051 0.0712524276788371
0.15058843130907043 -0.06288378964987999 0.07091613576607116
0.15000280085315587 -0.06236355072485069 0.07104265643938805
0.14938165205075346 -0.06189311247391076 0.07117958466763818
0.14820752243395058 -0.06120452177984372 0.07113110987676115
0.14869795233024127 -0.061547288617940024 0.0712880484052219
0.14700025831678268 -0.06092120779252728 0.07109802502198788
0.14753406916113018 -0.061128874532178724 0.0711753828337133
0.1456240382493148 -0.060597898454812296 0.07082591570439817
0.1451952870513602 -0.06084193252076508 0.07091915323312477
0.14564471694850634 -0.06099366569735571 0.07106370196355227
0.14633891597195747 -0.06103701070837532 0.07112839023820061
0.14513379162837925 -0.0605389051535321 0.07074380395136691
0.14486301163758752 -0.06036388952154591 0.07064813735391275
0.1448680614489533 -0.060784241331914644 0.07088054864420669
0.14471054021445776 -0.060066054122254714 0.07056749000708125
0.14468532880868376 -0.059701561416019525 0.07054595076961884
0.1449094064443288 -0.05859409659813158 0.07017351616891154
0.14476324415683534 -0.05928393641241678 0.07052182583224534
0.14504512848204437 -0.05744759725586336 0.06966887202907772
0.14514087502432338 -0.058103745715585346 0.0700903156399138
0.14509114867374026 -0.05694962604356565 0.06963678490710569
0.14499938480090205 -0.05476564210700331 0.06965262897714025
0.1451615787744478 -0.05524564085596374 0.06994933961558257
0.14505296611171795 -0.05587245500426226 0.06979727033181116
0.14505335180071613 -0.05643387209922062 0.06968984801265778
0.14551826691186137 -0.05330189488710127 0.06956676668650501
0.14530018001171516 -0.054008153906369774 0.069894185522983
0.14609347182721583 -0.05233106080044696 0.06982272486875205
0.14674959600491416 -0.051283567028889136 0.07011903968913524
0.14825790966553587 -0.049015963920013596 0.07006727030569158
0.14745069769742897 -0.05019861824597396 0.07042805684275326
0.1487947434231231 -0.047987894457276616 0.06999364109729521
0.14906917636015768 -0.047448767269860706 0.07014535629088692
0.14867108414488112 -0.04815523535284276 0.07050827983236026
0.17429296175782538 -0.08149034158199517 0.07379665950642347
0.17390616421828023 -0.08095492786427212 0.07386201860492714
0.17324628442511167 -0.08021135709690325 0.07393828876137515
0.17198279134051853 -0.07860778974298546 0.07320559122989781
0.17253761903538548 -0.0794258982212744 0.07403636168925042
0.17122672646717293 -0.0778683051685816 0.07331778549888959
0.1704690538454481 -0.07710510378839455 0.07342867157187956
0.1697914306276467 -0.07637167702700835 0.07357694506462767
0.1687029384022522 -0.07487019144183177 0.07296074194840517
0.16917397267216622 -0.07566536464098166 0.07372887993300449
0.1680834607002445 -0.0740954583630902 0.07301461045788711
0.16742205365776794 -0.07325136583954356 0.07305862214122226
0.16672362295867962 -0.07240832023545808 0.07302549729576215
0.1661979501418485 -0.07174041012911771 0.07278812053385456
0.16575675087962158 -0.07135113783739612 0.07303209088123429
0.16627594485290817 -0.07200806617354608 0.07324605799250643
0.16493797243931937 -0.07054246487838207 0.07305463999694518
0.16427790775396114 -0.06988677438542742 0.07274615173428868
0.16368898351649988 -0.06949759512023945 0.0728005646751757
0.16423916969335647 -0.07007047632338718 0.07339403771678601
0.16294528342312267 -0.06906138301501466 0.07279069276067647
0.16161734899236457 -0.06827049136574127 0.07266310679336761
0.16232731375047943 -0.06872576020923224 0.07286650179141892
0.16010796408897404 -0.06740566920506948 0.07237903511953615
0.16077867943261206 -0.0678806909360937 0.07288154990173812
0.15924490993931956 -0.06707501357217084 0.07252763674844905
0.15774342443739914 -0.0663413903601556 0.07221320341473263
0.158450613045692 -0.06672833186937573 0.07265702129200236
0.15594204277036694 -0.06571529114219142 0.07198836275900514
0.15691168685748078 -0.06613844271490758 0.07244848859319725
0.15424560113043284 -0.06512027001103356 0.07186977289923722
0.15511939174560474 -0.06545233162068882 0.07228979841601624
0.15277738141805314 -0.06454132321128807 0.0715548243001372
0.15349446910469192 -0.06487825390427128 0.07202062743006105
0.15210773669707076 -0.06422069729163546 0.07168134857708951
0.15097394815014673 -0.06341007822998433 0.07136334349914006
0.15150514773982154 -0.06386827648168499 0.0718023429244048
0.15045112835455401 -0.06293093838844674 0.07143996442343872
0.14988292056333938 -0.062445266929008085 0.0715028127073595
0.14927309301639774 -0.06197852733672608 0.07156974170023693
0.14798338132396466 -0.061320239068974366 0.07130680218482122
0.14850102667315143 -0.06159864779617176 0.07162574745638899
0.1469005987367775 -0.06116683842625463 0.07124961033539502
0.14746132236714707 -0.06124161435199408 0.07127825055010732
0.1450742876004806 -0.06106147930865441 0.0710814381555419
0.14540021018105126 -0.061208955052448874 0.07123043602293885
0.14601970938804848 -0.06123559394391195 0.07126373108225133
0.14465399983095495 -0.06058584314382018 0.07087914923715283
0.14477708276152348 -0.060983673731157116 0.07112221989168463
0.1445865395987379 -0.06025733244770691 0.07087644956594283
0.14466652980444522 -0.059843040202224175 0.07082818880896657
0.1450964673551356 -0.05884648435605434 0.07052018518216666
0.14485248088565 -0.059466844101503054 0.07074970845933014
0.1453278848510558 -0.05752217928535126 0.07003732123226196
0.14549431155341083 -0.05812747785171472 0.0704521413106961
0.1454659669371052 -0.056916089413630244 0.07002907923182917
0.14538279620783479 -0.05453012831936728 0.07019090107476278
0.14568399040548502 -0.05494442238094163 0.07046990988214195
0.14557224522152826 -0.055627844481841895 0.07026685383898071
0.1455420662766699 -0.0562809848886604 0.07011533636037401
0.1457280162476378 -0.05309097455155921 0.07017643222009234
0.1457235873774321 -0.05368071133033681 0.07049092717842163
0.1462611901215129 -0.05209782757993446 0.07046425113192582
0.14687651788137465 -0.05108408988710873 0.07076089765270945
0.14810865986443575 -0.04910090143611367 0.07079776776561296
0.14757317991487168 -0.050012366732614624 0.07113485725756652
0.14900137099685576 -0.047593199809012984 0.07081081341240994
0.14867462460885203 -0.04813805946654096 0.07114697235226049
0.17446027159700078 -0.08205918421637733 0.07471266775785966
0.17425124549643572 -0.08171989561332903 0.07474838024059677
0.17373988038663787 -0.08102957591494275 0.07481197730325125
0.17307202874775976 -0.08023926724385974 0.07487490531754809
0.17184336300161565 -0.07867794390689116 0.07415961424285492
0.17242785979332537 -0.07947934388710559 0.07498080320047162
0.17108175862487934 -0.07794443645402861 0.07428524536851247
0.17038365738655048 -0.07719619402625284 0.07440826928774034
0.1697164352974034 -0.07647790926535714 0.07451197700184128
0.168581207135656 -0.07494362463021614 0.073835041052996
0.16909400353955267 -0.07577348672605075 0.07461820908632084
0.16792505501596638 -0.07416637057087061 0.07391751307861937
0.16719840736955774 -0.07328947928034239 0.0739869458149363
0.16658894456430487 -0.07250334217055884 0.07367036964354853
0.16614251321491885 -0.07202912181547881 0.07377844112945962
0.16664997462688572 -0.07277607018879684 0.07436447143431038
0.16556164622576558 -0.07139405736632556 0.07385802627671073
0.16488406853416784 -0.07078760875069022 0.07402156626983038
0.16340822477329814 -0.06955348413051701 0.07354496289834851
0.1641634985613094 -0.07025519988656403 0.07422200986972129
0.16267207790732302 -0.06904252601095502 0.07329424949574978
0.16209798066706818 -0.06870794275872788 0.0733834785962451
0.16270659941150378 -0.06919592952564288 0.07392536928280231
0.16138772075334712 -0.06833039713464954 0.07340477295553413
0.1600256353605154 -0.06756995681843359 0.0731968237563554
0.16077342630456806 -0.06802575683457297 0.07346649084855744
0.1590395980414 -0.06710816563367247 0.07316816823876686
0.157840403314148 -0.06652318696963781 0.07295038129056444
0.15844719897846604 -0.06681047968201075 0.07309672542645218
0.1561260823638659 -0.06591247713866348 0.07283074367105953
0.15707602222069084 -0.06628691527109967 0.07305207391588373
0.1543253285990834 -0.06519550790258538 0.0724996546754907
0.15520127388615393 -0.06554853770040121 0.07302236767982662
0.15280549835227394 -0.06456269950883002 0.07216486116680627
0.1535736720700156 -0.06490292217858841 0.07267007334601683
0.15216839604672075 -0.06424598640697281 0.0722899097179386
0.15097425443753398 -0.06343019304600019 0.07189386253513103
0.1516011565186265 -0.06385378288331785 0.07238317682308244
0.1504527319355444 -0.06295428047620903 0.0719391201965073
0.1499120212143973 -0.06244089530339332 0.07196430177395875
0.149330323182715 -0.06198104722020121 0.07195974461819972
0.1475171996168097 -0.06134380392532004 0.07146268389790648
0.147250638900476 -0.061333647660155116 0.07165308145556791
0.14801283292666173 -0.061424189921590634 0.07180003888581565
0.1488305454843331 -0.061650553230631094 0.07200244446099022
0.14669411536369167 -0.06128632720030141 0.07143510890171978
0.14606332633337327 -0.061319701265630806 0.07145444737725903
0.14664083035918832 -0.06125637262568216 0.07176513065355147
0.1451334727827932 -0.06122764438249673 0.07134672566713912
0.14558350273936704 -0.06130845684205681 0.07137069808036435
0.14467128355260336 -0.0607317911620026 0.07126936019370887
0.14484674843262593 -0.06109755315189832 0.07140615828024803
0.14475761858146324 -0.060222550973998465 0.071264905954616
0.1448622689396117 -0.059780696091678576 0.07101664493414242
0.14518595900755973 -0.059343538832260005 0.0709531976505778
0.14518893678645628 -0.05977150986207054 0.07134152658351564
0.1456234253163113 -0.05869720604032607 0.07090075791157652
0.14583073185877837 -0.05743227782579634 0.07043727351233313
0.14612621165663878 -0.05795466377517341 0.07087094418838326
0.14606430745662746 -0.05670187093981286 0.07050295605446477
0.1460284173829235 -0.054114310204878335 0.07087651284215327
0.14608740873626364 -0.05468264393695947 0.07085094503124824
0.14625820922422528 -0.055179394781584144 0.070813138416949
0.14619215690656062 -0.05595413134440616 0.07061168142501877
0.14614527581133654 -0.052652836750856 0.07090761706772872
0.14614387753472124 -0.05329071313969246 0.07104953189837339
0.14660102980303757 -0.051698526345148 0.071056661566359
0.14717312441086597 -0.05077731581562646 0.07144296678186705
0.1482824821825632 -0.04892553576329161 0.07150808449676753
0.14788117172340823 -0.049681688976512796 0.07184349071294682
0.14901056606758076 -0.04764600521166448 0.07132226274913872
0.14873733397182595 -0.04813243905890081 0.07179261201416545
0.17439501019795592 -0.082157426441829 0.07540635946012174
0.17410426253192704 -0.08174566014592669 0.0756035505854437
0.17355202342741582 -0.08102522882499044 0.07569333352942821
0.17296531758274397 -0.08026493151197722 0.07576411802099352
0.17174396595936905 -0.07879581181620039 0.07514070364248542
0.17237831587802696 -0.07960815756008782 0.07588956208277656
0.17099296810290593 -0.07806447618617875 0.07527937209062914
0.17027870447326077 -0.0772932646605618 0.07535056879252094
0.16960798827884901 -0.07655933336656859 0.07540006595012536
0.16848870965283375 -0.0750719367080253 0.07475705655694691
0.16905059991801133 -0.07589750232022689 0.07549782731470062
0.16782957479247682 -0.07430799707379554 0.07488650523078652
0.16721725556021458 -0.07359621073365151 0.07502000635978087
0.1661069487438148 -0.07220598888101107 0.07457096082344482
0.16665864371548764 -0.07300897813370337 0.07519161158323447
0.165515551598539 -0.07158430958799968 0.07474494208092432
0.16486017153338528 -0.07096444857709876 0.0748970828422093
0.16345507618009505 -0.06977402354717695 0.07446616908717206
0.16419024582366948 -0.07040776302633299 0.07508706884321673
0.16189943988558925 -0.06876413838221307 0.07411555781054044
0.16274287865620174 -0.06935830239897399 0.07473198112370538
0.1611621790619362 -0.06831579570073308 0.07388109510592013
0.16055984675771875 -0.06798485871712404 0.07395520586355345
0.1612316303725156 -0.06843494272574714 0.07448913764446453
0.15962586358029235 -0.06750154309905151 0.0739905831522546
0.15854285181742414 -0.06692231287309361 0.07359728441804182
0.1582246050797018 -0.06680402691964955 0.07407562714455845
0.1589287019931154 -0.06716811850297708 0.07441404632824601
0.15768403014315194 -0.06656686511533974 0.07354893225994481
0.15686414179069352 -0.0662476122890327 0.07354567608188894
0.15757679431126898 -0.06656335322733162 0.07414575499169417
0.15605345109474492 -0.06588767331373337 0.07361154740293134
0.154423465478335 -0.06523443887685315 0.07319221514557754
0.15526631032036228 -0.06557607419415298 0.07375493302637515
0.15292550380991357 -0.064579372495244 0.07282182459588331
0.15374808833036543 -0.06489694557109643 0.07336553380785982
0.15233555342496427 -0.06423449267067066 0.07291655188588995
0.15110155550912163 -0.0634037099142901 0.07243478764804875
0.15182073368960958 -0.06381188307542962 0.07297924275979747
0.15062104605018228 -0.06288689887577299 0.07242088361897261
0.15010223704708409 -0.06229173477542706 0.07242327172281483
0.14945854728179414 -0.06189547166481393 0.07223232865652164
0.14922911347149984 -0.06164149343399203 0.07233190526913524
0.14987075618325335 -0.06185348800377236 0.07258953220503651
0.14755768548173998 -0.06128078719608172 0.07201489118069584
0.14856340219362218 -0.06136150319993133 0.07228165751389619
0.14571907842135026 -0.061275404526776364 0.07166220094999111
0.14567604722939936 -0.06115972550735462 0.07199832247105892
0.14644027709464705 -0.06109484544388607 0.07219165821657163
0.14715037485900703 -0.06116137939603111 0.07220669019601379
0.1451949280960152 -0.06118135821573273 0.0716783778216332
0.1449600617320296 -0.06095924514139921 0.07171751375900871
0.1454072315981796 -0.06101214721517977 0.07210797898116701
0.14493922117395658 -0.06059753325811569 0.07172519280695702
0.14519428945987378 -0.06013554240161562 0.07177962428270702
0.14569180121266997 -0.059185777863475855 0.0713577748301771
0.14570291292390708 -0.0595954421654076 0.0718330871231288
0.14628349992893216 -0.058445940262576955 0.07139051259572922
0.1465013653324034 -0.057169382374837645 0.07094744922213134
0.14682523844131182 -0.05764638190842839 0.07141871210337072
0.1468510292834183 -0.05627069552219325 0.07112544734248574
0.14624991611222077 -0.05437898019244024 0.07106654760806384
0.14647988795697892 -0.05457499262629312 0.07117070742275643
0.14701746257125578 -0.0547805893761299 0.07140142992058465
0.14686632927285362 -0.05549169583305529 0.07115622238942287
0.1465067091765481 -0.05259238852415482 0.07143765876650296
0.1467780023342614 -0.05305335188720286 0.07165324032410046
0.14665199735180168 -0.053942980617353864 0.07143461113264261
0.14693605935251453 -0.05423000700770934 0.07154937171788146
0.1469848755241542 -0.05151555978347517 0.07173653106568117
0.14699252542867874 -0.05212238617678306 0.07189132111394914
0.1476524308803592 -0.0503258077589316 0.07207306891446387
0.14849588213808523 -0.048693258456132565 0.07224015220923885
0.14826466355177514 -0.049371410009855204 0.07255691172888595
0.14881732420083965 -0.048159561727682126 0.0724305362824528
0.1742355250289526 -0.08209608276316507 0.07598836966630843
0.17384697936194202 -0.08161260267827151 0.07632426995234647
0.17338066123490345 -0.08098253859154457 0.07652388777644663
0.17290918179577228 -0.08030652661794653 0.07656192228027742
0.17175463153215675 -0.07905062985878415 0.07625941811471218
0.17247231823744916 -0.07982295732574647 0.07664295786594659
0.17089568500528843 -0.07815158528364048 0.0762664234658285
0.17015123011970534 -0.07734740636791378 0.07625634660070395
0.1695337327756754 -0.0766268460722542 0.07620522508995585
0.16848860252784767 -0.0753109774702035 0.07580733613022687
0.16907948325547026 -0.07609139897902129 0.0761992281809741
0.16776457829387237 -0.07445748053811936 0.07584370257242923
0.16715932547158519 -0.07375572464237307 0.07584614339747861
0.16616887185753754 -0.07247890547387009 0.07554277299779277
0.16670375149848118 -0.07322551176896284 0.07587320097212011
0.16549236434247527 -0.07172803557463636 0.07562943625323813
0.1648514303684145 -0.0710695893257089 0.07575133953542902
0.16351798821813388 -0.06993096396769224 0.07532073302695484
0.16425338279892626 -0.07051096690015936 0.07593626887951563
0.16202068721201807 -0.0689586261678309 0.07500448705963088
0.16282751817723065 -0.06949260846885975 0.07557488567390729
0.16053644467911707 -0.06805284632390723 0.07470476366951206
0.1613321754352218 -0.06857008349276054 0.0752875888743451
0.15980347933976147 -0.06768105802647648 0.07493546944287782
0.15833894149029648 -0.06689449086729665 0.07469199628076122
0.15913825442221174 -0.06733343560389765 0.07521403272426569
0.15682613838562048 -0.06623744209187206 0.07423346751231824
0.1576523304041429 -0.06660652255709003 0.0748389639138169
0.15610567722485386 -0.06590993469474916 0.07436275658311074
0.1545727607089182 -0.06523561487177681 0.07392487734700465
0.1554160395115183 -0.06560001298989987 0.07450097769716535
0.1531300816461155 -0.0645801103457979 0.07348763068842455
0.15397732890776844 -0.06489949439840847 0.07410227787147537
0.15259138170467235 -0.06418596903489947 0.07356910623234483
0.1513617791356385 -0.06333167660133802 0.07298893537313271
0.1521340410808052 -0.06373814264633731 0.07360973815649595
0.15094822995613144 -0.0627672637922095 0.07299047136260679
0.15061360114222866 -0.062201293046749845 0.07303228072646152
0.149509141900218 -0.06143683528677148 0.0726846525910676
0.15030477738286313 -0.06167434663582934 0.07308698250966468
0.14801690752686 -0.06108973810050121 0.07249328721232456
0.14901428433153924 -0.061066755113020524 0.07280196787505697
0.1460901371755494 -0.060954197032854984 0.07248899399099655
0.14690946863303173 -0.06084229253471559 0.07281215234231626
0.14741731315149198 -0.06095221796802988 0.07265954859387465
0.14531051069280196 -0.060744457624454365 0.07220224089966248
0.14589654289021978 -0.06075877601694338 0.07264829411110202
0.1453829004783586 -0.060367778244179715 0.07227570993324871
0.14572907628995518 -0.05991294955158707 0.07234519822210381
0.14630896238418398 -0.05890810428575554 0.07193486118624155
0.14625309908748912 -0.0593186463805829 0.07248146903784168
0.147063579806998 -0.058045763493555905 0.07208348271817198
0.14730857563220215 -0.056758433503549074 0.0716014939602025
0.1474249439792417 -0.05730344488022276 0.07196404942711133
0.14744019260257124 -0.05613960351262982 0.07161795866685348
0.14734626956169772 -0.05511022403454011 0.07151829999204211
0.14754539882931605 -0.05550994403262306 0.07169336328135725
0.14708379524961762 -0.053343139516756295 0.07185969745663702
0.14725990151928148 -0.05361881729547658 0.0719137603125541
0.14750900655482174 -0.05406864165764221 0.07190815034120683
0.14783193396704455 -0.054595418012492326 0.07200010842377998
0.14748331268554493 -0.0513233520396021 0.07232887462295749
0.14757413147767665 -0.05187996371211678 0.07237779925872229
0.1477877749104257 -0.052618325113657174 0.07244411589451244
0.14786845146531982 -0.053346036788062504 0.07231492457259941
0.14802512131488316 -0.050236404690080484 0.07268114002201606
0.14822426833822466 -0.05068624589271965 0.07297883842108092
0.1488125479769668 -0.04851314744371289 0.07292713822989508
0.14880413730342623 -0.04901463263767952 0.07328396425492043
0.17356887045633085 -0.08142417999893715 0.07715292879554755
0.17325112821521613 -0.08095909147318511 0.07733222161591707
0.17282749030440828 -0.08032754275783892 0.07712196946693499
0.17242400313984174 -0.07993312353818866 0.0773703461115937
0.17298330780685808 -0.08064762451253316 0.07765249006465204
0.17161448311907374 -0.07904119779138433 0.07726937017702759
0.17078586445297933 -0.07818155226933952 0.07721379297012718
0.170011567999425 -0.07730710320413342 0.0771697465281014
0.1694045909332834 -0.07656514741760233 0.07675122061586763
0.16894172302635313 -0.07603193350201834 0.07675588686473232
0.1694774498148103 -0.07673941327652663 0.0774608808985147
0.1683184047441334 -0.07529769408698687 0.07674703293583589
0.16762529121978592 -0.07447255846733622 0.07677930175630275
0.1670334671245969 -0.07371758590328983 0.07640138485880912
0.16661322148471058 -0.0731831989121077 0.07642674284882513
0.1671157266346383 -0.07391174076664793 0.07709116740385373
0.1660850183798967 -0.07250577538414528 0.07643628937545012
0.16548031867209148 -0.07180514232994017 0.07649620032057058
0.16488892185276924 -0.07115255831616255 0.0765927084101593
0.16362564933948223 -0.07004586767619846 0.07618068982778786
0.16433712993985342 -0.07062269711853937 0.07675059622536852
0.16214261299918778 -0.06906388304151055 0.07585675150217566
0.16293564008677563 -0.06959424768924594 0.07645497808870473
0.16063922783153986 -0.06819480825580491 0.07553212487590377
0.16145943972007468 -0.06868438810041132 0.07613167113720729
0.15997170748196157 -0.0678034902510724 0.07578442144790178
0.15849084840763134 -0.0670047362966617 0.07543334801432047
0.15932699394718583 -0.06744307826920651 0.0760312988883318
0.15694623537041816 -0.06627236892886956 0.0749834208819844
0.15781939396283615 -0.06664421276132135 0.07561750881395968
0.15625367930105002 -0.06594595795145579 0.07510660706096194
0.1548318081265673 -0.06525226002173305 0.07470485621644665
0.15564461070598234 -0.06560074101180477 0.07524923291815223
0.15341704789318045 -0.06455932351551653 0.07421583583414301
0.1542779671945582 -0.06491906457028494 0.07487878760094809
0.1529319816770308 -0.0641423322596458 0.07429168799686671
0.1517459175416499 -0.06320186332704994 0.07360160890194482
0.15251669037411528 -0.06365100264309241 0.07430319162424016
0.1514180748312424 -0.062614240066079 0.07362799697805994
0.15114515717646512 -0.06197776377483757 0.07367071466436191
0.15004555788133572 -0.06115256912125609 0.07330489079369883
0.15070566932698903 -0.06148219069464109 0.07352755942137285
0.1486344959404939 -0.06071155875956635 0.07312131046083162
0.14937037355071386 -0.06082911616178441 0.07323478634457876
0.14684085056200427 -0.060563247701504494 0.07316554842895541
0.1473586827091609 -0.06058323247663509 0.07320012389512763
0.14778780535361505 -0.06066005323040868 0.07314577462794096
0.1458981569687257 -0.06039382181326215 0.0728390044775495
0.14639872842699905 -0.060456727725359004 0.0731466708624296
0.14589100543856565 -0.06006132189442 0.07277787259417091
0.14632079782845916 -0.05957589002078629 0.07299263560344307
0.14693316806898937 -0.05860073626352616 0.07263032290341746
0.14689134663588047 -0.05893655373747856 0.07319921185896391
0.14752938499829188 -0.057949403856472556 0.0728095765923729
0.14785177215308282 -0.05671265485658989 0.0722181784379957
0.1479239264193761 -0.05722841184607303 0.07266115618065147
0.1480116952982615 -0.05594802040972975 0.0721699562317316
0.14842556819970087 -0.05627811764658755 0.0728428885976274
0.14838109357942322 -0.0549331786203025 0.07243296731846549
0.14830486196094725 -0.053647203357430846 0.0724917730971778
0.14871200812303478 -0.054031595256326545 0.07274686424980752
0.14845841755931205 -0.05120034845045063 0.07316475009979904
0.14879570845549397 -0.051634850535186384 0.07345158961516975
0.14855409563753713 -0.052716073836596024 0.07294772668767535
0.14883253914298536 -0.04955003713782289 0.07354329283698444
0.14899486658763653 -0.05003758219229414 0.07379529444652706
0.14909188046611974 -0.048518887168853005 0.07352795987902616
0.14916529184111793 -0.048827835508838804 0.07383719406556605
0.17347214397352467 -0.08149571952053976 0.07800175405174833
0.17327838470604637 -0.08113615092180682 0.0780068080144697
0.17297626200919183 -0.08079705218766146 0.07831361104447906
0.17338091641010642 -0.0814485938614354 0.07846032224735769
0.17227337514144433 -0.07991252870536616 0.07827952381206138
0.1715277805820946 -0.07905601319582091 0.0782274615210977
0.17076184000451147 -0.07823120502704126 0.07817471172571908
0.17008615363295682 -0.07751096124794037 0.07820007067469596
0.16893481701581103 -0.07613166431064156 0.07761190420766137
0.16952878925465842 -0.07690779271671583 0.07833301094166153
0.16830598683121598 -0.07543416043230723 0.07771838323367364
0.16769206750790489 -0.0747157543524538 0.07780887781038837
0.16663985445378168 -0.07328889465932323 0.07723786381213517
0.1671710426456722 -0.07407162975671158 0.0779404473345264
0.16609146582621112 -0.07258767223791524 0.07732349807541583
0.16549386637285637 -0.07183940844688526 0.07735673528314171
0.16493405078721085 -0.07118640302719027 0.07735600497789243
0.16378919657831237 -0.0701970080186429 0.07712400139065671
0.16445562335738179 -0.07073940577198898 0.07738637899918054
0.16226423406445387 -0.06917465178550476 0.07673140714284535
0.1630655785578509 -0.06967916926497823 0.07733516863943722
0.16075895910827917 -0.06829810192096253 0.07638535644183074
0.1615796460600614 -0.06879799219268605 0.07700067130398433
0.16011885579210142 -0.0678945546707577 0.07663792861555231
0.1586745493930957 -0.06709313706531105 0.07626533233215678
0.159519356291527 -0.06755578981967313 0.07686726179912773
0.15712140296726135 -0.06629332274307445 0.0757807908377221
0.15801565192973402 -0.06670458461352008 0.0764976811971259
0.15640710490721738 -0.06595219589713777 0.07583378072883416
0.15520362899312873 -0.06529669633810724 0.0755990505279917
0.15589299170456725 -0.06566120974635814 0.0758906399956225
0.15377315238738362 -0.06453265083249411 0.07500097193590399
0.15458421024623176 -0.06493279162961411 0.0756688846340884
0.1533274811549915 -0.06408420426956483 0.07507816917077002
0.15217065369499702 -0.06307795227973875 0.07430626844500357
0.15293979388254283 -0.06355026813855237 0.07506783283055458
0.15192064772181502 -0.062492190612380906 0.07429702742041708
0.15176306841823375 -0.0619822600017455 0.07433087207539414
0.15074423373705337 -0.0612307702866516 0.07368498260595978
0.15128755519093784 -0.06146546920695931 0.0740690957795196
0.14937341447593896 -0.060634863924508293 0.0734345410889192
0.1499647940999688 -0.06071952054529668 0.07365515841364823
0.15081648907878858 -0.060954922128144726 0.07401784937499048
0.1474907699919847 -0.06039264650390133 0.07344014535794109
0.1479544994051406 -0.06037832253706621 0.07353425214137399
0.14868521219012962 -0.06037862475553416 0.07361436173699729
0.14960428215904742 -0.06041255445206465 0.07381104032547514
0.1465761250391716 -0.0601506814394361 0.07341350273478713
0.1471046943093818 -0.06015177051742852 0.073671411092586
0.14795125102722004 -0.06009504576735994 0.07395827336218966
0.14864517992833884 -0.06013998151882297 0.07397611201345133
0.1465650214361818 -0.059820118114277905 0.07341341464437386
0.14717389809522274 -0.059787948615749514 0.07399007550658039
0.14699309923730108 -0.05918005486098812 0.07371767216726863
0.1475137322614759 -0.05826452024873978 0.07336371505863644
0.14753147905981293 -0.058539598382406056 0.07396169585936997
0.14805988647347526 -0.05752830095100153 0.07346259250037258
0.14862630139530092 -0.05667385125190767 0.0735393775090085
0.148821913938406 -0.055281078023597184 0.07301176751402631
0.14915177898190832 -0.05569377193421034 0.07369070205141078
0.14910997786355087 -0.054304486143454796 0.0731708151583973
0.14911489075331058 -0.05312302072228075 0.07330508447676794
0.1491898298262437 -0.053708561585676405 0.07323926477652151
0.14918205644526814 -0.05052095605762336 0.07405420010907658
0.14933768406095338 -0.050975098683111696 0.07426138255902547
0.14930306397738727 -0.05192989658657039 0.07393047486969759
0.1493655561038991 -0.049160576850584024 0.0743429044685212
0.149571997804012 -0.049493023626971853 0.07472962449277755
0.17347506574287977 -0.08170295041719906 0.07858679682879371
0.1732500190568137 -0.08137032853180988 0.07880060365754919
0.17272531436077324 -0.08061845465930009 0.07905500602148803
0.17214937689255633 -0.07989005934939016 0.07921216824715159
0.17147607708062387 -0.07907222994837955 0.0791820295380047
0.17074992757314209 -0.0782850295443737 0.0791034557245751
0.17010472120009076 -0.07760892357037702 0.0790269693748008
0.16905334175878267 -0.0763901639709012 0.07869615160029793
0.16968372089775788 -0.07713526681398158 0.07907670362202397
0.16830835583615725 -0.07553978996330138 0.07869833594985173
0.16770910727750263 -0.0748052015601557 0.0786600337103953
0.16674132807451392 -0.07348954673998462 0.07824738214228781
0.16728104217204776 -0.07426417428935672 0.07865432775361038
0.16609663887890772 -0.07262403928393428 0.07823784334154309
0.165451281731307 -0.0717775246338809 0.07824805463448305
0.1648430347831847 -0.07110399064458132 0.07788035741215331
0.16435486892833917 -0.0706698310495704 0.07792061582716489
0.16497281927127708 -0.07124094627616649 0.07855915616933651
0.16375189026945247 -0.07016268973157846 0.07798942221163566
0.16241732607745893 -0.06930007966759888 0.07759829330151857
0.16316272746241361 -0.06975800003197667 0.07814617012977777
0.16091147762280916 -0.06839267956638909 0.07728261236386834
0.16175931458532908 -0.06891269979230384 0.07788562575035811
0.16026217910284785 -0.06799859602457287 0.07745598816621006
0.1589959459735649 -0.06724364488859357 0.07724464957647303
0.1597336398693188 -0.06769117740308551 0.07753149510979175
0.1572709429755343 -0.06629286700452809 0.07668492757117064
