# .PCD v.7 - Point Cloud Data file format
VERSION .7
FIELDS x y z
SIZE 4 4 4
TYPE f f f
COUNT 1 1 1
WIDTH 789
HEIGHT 1
VIEWPOINT 0 0 0 1 0 0 0
POINTS 789
DATA ascii
0.15957756950412794 -0.06192856357712142 0.06338672769401638
0.1586453339961167 -0.06031842172796241 0.0627756033902136
0.1586022999695529 -0.06096605178754754 0.06326765784845624
0.1579135613654488 -0.059947416312760585 0.06317721336072046
0.1574941237203211 -0.058844062218412437 0.06312826885085342
0.15726881877233553 -0.05959840146081646 0.06355598066743154
0.15699259712065713 -0.05839547132578619 0.06340365348823745
0.15652722323102497 -0.05786573630650098 0.06359466249059344
0.1561134097585103 -0.056594081453867164 0.06311152988289484
0.15590526155855855 -0.05740879313387131 0.06388570987265978
0.15498243968001973 -0.0554723914432578 0.06260641676402241
0.15484639893878563 -0.05582841765029702 0.06313698590830628
0.15520675529094372 -0.05626588928371989 0.06339263625173461
0.15380352142172007 -0.05500036285653674 0.06271846444836587
0.15385372873744999 -0.05539807618854567 0.06326029072032055
0.15437710451097938 -0.055612854581957825 0.06324308685838706
0.15287152993486783 -0.054360093335213966 0.06262373065031387
0.15284343966340147 -0.055037807523634207 0.06333325230011357
0.15242230333063964 -0.05338141147616357 0.062267809908514875
0.1521430394902929 -0.054127058143292585 0.06292180026690808
0.1519999646108896 -0.05304634607912233 0.06254271364055955
0.152051061669162 -0.05190538729982722 0.06243521696311717
0.15163229571169326 -0.052761220003082726 0.06289889482966221
0.15217003158041156 -0.05051499451132187 0.06240547815624522
0.15170299389190908 -0.05153463120580851 0.06283401258463595
0.15224590076119837 -0.04922785500621619 0.06241315195791443
0.15221539075840163 -0.049878169966213914 0.0625286431716193
0.15217845481727943 -0.0486874061518224 0.062481127366736
0.1727431794388682 -0.07470620770041381 0.06378572422767882
0.17245659850091893 -0.07421766133833445 0.06373591203024034
0.17196220882245952 -0.07273814392179678 0.06295156552403174
0.17216134631230237 -0.07342336926826735 0.06343421530533895
0.17140259151177314 -0.07203789252468296 0.06314441113451978
0.17176850750281755 -0.07281661567598087 0.06351259206499621
0.17064590839437008 -0.07134172623372541 0.06356303598394805
0.16955389787408037 -0.06987155396623584 0.06305470901755365
0.16995014203920056 -0.07055713598759442 0.0635212855739708
0.16882393879691407 -0.06924281484686129 0.0630756388356952
0.169078511394313 -0.0698601213222426 0.06385424308987808
0.1678494578756907 -0.0686067421118742 0.06354652355040062
0.16672804499361754 -0.0675255925860677 0.06334855366596572
0.1670058924025258 -0.06805043073662809 0.06391225896466628
0.1659449838678959 -0.0669917996793968 0.06367223911545189
0.16478865786198668 -0.06601812634520139 0.06349423618543298
0.16511095444364635 -0.0665135757887395 0.06404244368678702
0.16362078144269895 -0.06508436434454293 0.06340937052594618
0.1638970021027209 -0.06554859435291424 0.06395066809678507
0.16276711187775414 -0.06462152378090485 0.06380552977657954
0.16164223483448661 -0.06371103753183197 0.06369070495916579
0.16187510178153877 -0.06417402089068953 0.06423124436021246
0.16056238333026226 -0.06283609682687163 0.06356492565367251
0.16077233730349763 -0.0632734185069203 0.06411777695977708
0.15969712463056462 -0.062431822863832864 0.06393220682982097
0.1586924001738224 -0.06155001699057411 0.0637907046842948
0.1588107234426454 -0.06206428498450263 0.06433011393359142
0.15776664920625158 -0.060617431316533264 0.06367284125937091
0.15778630707363486 -0.06121460156074603 0.06419245445278747
0.1571319123937686 -0.06023768563927181 0.06398268606031822
0.15658609316422034 -0.05932215545128808 0.06404017833127752
0.15669945254590478 -0.05992147283962147 0.06418756230051871
0.15607551068037925 -0.05876921903999976 0.06430413795272578
0.15558026057382698 -0.05825582092687459 0.06456395203139119
0.15517072172966176 -0.057029875201477606 0.06419340990569167
0.15500598755093753 -0.057809831465476774 0.06485324818402707
0.15418289184350958 -0.05616452391380847 0.0640170932124196
0.15440562129254448 -0.05675329862887663 0.06454325848396772
0.1532734101857738 -0.05534476334750879 0.06344844945869832
0.15329446314806155 -0.05561247362159353 0.06380604110638885
0.1536556650154788 -0.05581626192636349 0.06391007139491316
0.1518215736273984 -0.054866143668753815 0.06380588866671899
0.15203816893847966 -0.05534152022753342 0.06428365017893153
0.15266925031854936 -0.05559885325845535 0.06418635168708227
0.15146045706521488 -0.05387923361126256 0.06324411967770185
0.1513967014537236 -0.054464159924528806 0.06366759328912715
0.15127379485314796 -0.05342903752151217 0.0632826304461506
0.1512750807031926 -0.05244370716746508 0.06333609824636491
0.15087378792571396 -0.05325156130366578 0.06372560719417575
0.15150051566270129 -0.05118327393274154 0.06318180388478185
0.15101676737370986 -0.05199400302684781 0.06366808047255207
0.15199347024008958 -0.049808980256616446 0.06279886288015751
0.15170869789504374 -0.05044025961416097 0.0631047157055799
0.1519845301810428 -0.048542125325635115 0.0628653027416557
0.1518087538616879 -0.04901724724595386 0.06309161752250732
0.15171073354312367 -0.04980802468472164 0.0631562285522085
0.1517243962378205 -0.04861575670593882 0.06338859774618619
0.17291650121770044 -0.07558571921927824 0.06454398136214931
0.1725589907001025 -0.07496255921288957 0.06441133789471169
0.17199968942526436 -0.07407388159560119 0.06442694926118885
0.1717600266115119 -0.07326265483052792 0.06403580050492505
0.17136085218241054 -0.0726787669199622 0.06409872906448541
0.1714195070586593 -0.07338282310379235 0.064777474352688
0.1708004068070834 -0.07197216561028272 0.06421486927002151
0.1700985204009556 -0.07124366790332834 0.06438818454412844
0.16932568574458814 -0.0705194551680823 0.06457696045753608
0.1681825131976438 -0.06922649326846908 0.06414761784590425
0.16850059242705065 -0.06985998842255316 0.06482518287416669
0.1673392212845724 -0.0686154079857891 0.06449883735065721
0.1661996397237003 -0.06751661670557318 0.06425087797078688
0.16649760605015454 -0.06806575188468603 0.06482816770981199
0.16540408217191513 -0.0670239841913908 0.06457133324972084
0.16424201963219165 -0.06607183671102283 0.06447943060597117
0.16460305720091717 -0.06659568951013153 0.06492672819581412
0.1630215768060062 -0.06510805025493933 0.06436507339109186
0.16337246209447262 -0.06562941106532597 0.06490413800442058
0.1621464380511539 -0.06466106919499844 0.06476732290377515
0.16101271902972464 -0.06374761513050406 0.06463628939744183
0.16130161483068248 -0.06423359745469226 0.06515247703014844
0.15987989204584624 -0.06289049817779326 0.06449951248362298
0.16015997035656448 -0.06334437384104243 0.06502348344220617
0.15902474800871616 -0.0625168350510349 0.06487926139845365
0.15791057361864114 -0.06175324105313101 0.06471207525036896
0.15813872676289992 -0.06222001235064339 0.06523790347939988
0.156858300794124 -0.06086291700320574 0.0645901330642783
0.15700891390686456 -0.06149200822865082 0.06508966565836581
0.1565377168941368 -0.06036142256763423 0.06454067943826397
0.1561216696376078 -0.060046849078547224 0.06472973321063022
0.15602950503757182 -0.060651148151336765 0.0651386375921867
0.15570859791579297 -0.05957821615519549 0.06492765699630332
0.15525319283863565 -0.05908280808380615 0.06518600294606428
0.15473861236419992 -0.05861442364710064 0.06546051713496798
0.15435045439299602 -0.057434102896071655 0.06516010083598758
0.1541930792275744 -0.05817337875380872 0.06576356757605945
0.1537363100491309 -0.05660530846173601 0.06492255187876261
0.15370042131654793 -0.05712007410121665 0.06548705450920574
0.15303359154256663 -0.05588908256225858 0.06433290632010315
0.15322809313022942 -0.056271689831607484 0.06480908825399496
0.15159002157954815 -0.055261292362422144 0.06441863133066356
0.15150914295719284 -0.0554850050660826 0.06481446020993423
0.15180305606149597 -0.05579145856282423 0.06511887009369241
0.1524681105111141 -0.056080855486939286 0.06502971082974579
0.1509083303716234 -0.05439340317569524 0.06404427218757026
0.15096590374973196 -0.05482402903126917 0.06441633012007003
0.1510675390164041 -0.05529873934177257 0.06486132158114763
0.15063787506617754 -0.053990586498147086 0.06409144659858698
0.1503905844124734 -0.054618544275176775 0.06477328903508738
0.1504733430008658 -0.05292321541139069 0.06414777875523392
0.15009813534635594 -0.05372816118533955 0.06458433573939604
0.15100133425488446 -0.05132239676732885 0.06389724644827811
0.15021543540959906 -0.0524376118396684 0.06447318824443686
0.1513172729971638 -0.050490127913767675 0.06369544086397182
0.1512337386849719 -0.04995135026842477 0.06381444408538743
0.15078530393218506 -0.05088056052076808 0.0642908746566979
0.1512527840597208 -0.049199299940885774 0.06394640071619216
0.15138273892278997 -0.04858726881228188 0.06394676781520413
0.15106809558792783 -0.048480220226470125 0.06438234958738116
0.17309275590941436 -0.07646679581944148 0.06534408808272953
0.17274183335275792 -0.07585123555330782 0.06520410840545425
0.17213716494336925 -0.07505235732462437 0.06528017954954479
0.17152545935213723 -0.0742336680909366 0.06546485865874142
0.17083255348659848 -0.07269173230595717 0.06496979400059903
0.17090835464485665 -0.07348958937345622 0.0656784389578782
0.1702206817176761 -0.07196748567462499 0.06515040630828388
0.16949612854759813 -0.07124183142139555 0.0653374869974326
0.1687669135589056 -0.07053377283128003 0.06554542271953522
0.16766684308348123 -0.06923390768598693 0.06511262340185339
0.16796925541257993 -0.06988152971447416 0.0657752976050277
0.1668475792438724 -0.06865239570604169 0.06542132745998469
0.1656780225434748 -0.06754322903929173 0.06514251284333485
0.1660293450812078 -0.06810783342407122 0.06574207275746839
0.16490745849515667 -0.06707486834218371 0.06538549953652772
0.16378163845753224 -0.06623588998768146 0.06547274821227671
0.16433684697428927 -0.06671724426457093 0.06559642527397991
0.1624722105118873 -0.06518719472759477 0.06528433544268882
0.16282295818357784 -0.06574185377605819 0.0658157954602483
0.16163411520265852 -0.06475371777874453 0.0656521284783523
0.16044528660007815 -0.06383055627976955 0.06552939307931524
0.1607775811231306 -0.06435847616120925 0.06600457743602858
0.15928602171865408 -0.06298171149627434 0.06539939790254616
0.15960401162559562 -0.06345607743125259 0.0658934047063551
0.15840986648246372 -0.06265734546240805 0.0657557104166177
0.1572375555988132 -0.06196857633934584 0.06558745413002952
0.15750108001245514 -0.06240914843906105 0.06608531480254044
0.15614658503548465 -0.06123442198422572 0.06552415960190945
0.15634007709585812 -0.061763965840663716 0.06595088109300272
0.1554627619591641 -0.0603022738648147 0.0654830981006972
0.15539100194894107 -0.060957535885330386 0.0659299711159959
0.15495751368873364 -0.05986558623462518 0.06576772599966742
0.1544498852497147 -0.059411385411870576 0.06604884623124077
0.1539817855744507 -0.058943656911473456 0.06635210103835586
0.1536376813907775 -0.057770259010301625 0.06609316711505403
0.1534933045847952 -0.05849231765923062 0.0666542790807745
0.15307480302155282 -0.05683353293807855 0.06567311946008779
0.15303731266734602 -0.057416491094906014 0.06637328908987446
0.1524123892820487 -0.05657393289928876 0.06579980454004807
0.15108683982450963 -0.05571198958865329 0.06548117297092541
0.15115786048337698 -0.0560754601494791 0.06602903219665651
0.15174778889741694 -0.05629766568281494 0.06595049426111933
0.1503505429341898 -0.0551403463798293 0.06530531024648194
0.15034662267692234 -0.05565481114700718 0.06595836437500904
0.14985340737101083 -0.054382886681227705 0.065075528656136
0.14970641482162916 -0.054947908767039 0.06562387901355482
0.1496785150604913 -0.05338143521087333 0.06500066893780597
0.149345840899027 -0.054136755405566575 0.06544305727300086
0.15016844914543157 -0.05181741659999928 0.06470799617991664
0.14934533012597406 -0.052911589816940136 0.06538337446674145
0.15050433596324916 -0.050450075582673004 0.06465536986993561
0.15022899333136158 -0.05128269457447125 0.06477176817945286
0.15081896114243795 -0.04957347719432797 0.06459547852153419
0.15056165951118303 -0.04953193395481829 0.06503724847003517
0.15045146158168116 -0.05006986036670335 0.06495906947068794
0.15105427038345906 -0.048898255404532326 0.0643966429789348
0.1508318409330901 -0.04876930791851247 0.06475633567051439
0.15070456528299778 -0.048580318497212546 0.06491773061711484
0.17325556432187908 -0.07730324033028502 0.06612023636866432
0.17335641079149156 -0.07791708405755762 0.06674397127128233
0.17294909527167465 -0.07673639292971772 0.06602453808793912
0.17236415363349583 -0.07598348315534921 0.06609778807604623
0.17170775235928107 -0.07514637485428269 0.06625333904468018
0.17108769984431552 -0.07434225295069748 0.0664194257007909
0.17029400105574977 -0.0727621406264663 0.06587755182518563
0.1704576788918745 -0.07359501194225337 0.0665971559667126
0.16964048491856248 -0.07203814429070884 0.06607284472474081
0.16895907506239777 -0.07130197216242087 0.06627054669916209
0.1682430710185294 -0.07060396154582513 0.06646453806136951
0.1672103562498191 -0.06926797472759627 0.06603312864248956
0.16753419540372796 -0.06993521433796916 0.06668923736576307
0.16642904241024548 -0.06871588570611575 0.06631304028920464
0.16511929178830245 -0.0675637007733166 0.06606906532244419
0.165636190324177 -0.0682071693803123 0.0666328726475765
0.16451420794925403 -0.06705374822133556 0.06596941692615896
0.16394820820082637 -0.06671995244671516 0.0661574094601405
0.16430857969914522 -0.06722751995633265 0.06658571606858972
0.16318417941081667 -0.06629930325504652 0.06636925965816001
0.16198361116450438 -0.06528466486936599 0.06615756270255084
0.16234543629917897 -0.06584916704739495 0.0666753227763451
0.16112453301412655 -0.06488595884310967 0.06647485153751287
0.15994384413086682 -0.06398449279662753 0.0663512976677568
0.1602888914251915 -0.06451788963973422 0.06678872726684944
0.15871366477855595 -0.06312387777459892 0.06625581795187654
0.15909459453261177 -0.06364943176822527 0.06670335577510782
0.1578302942873692 -0.06283970027335725 0.06658169879319675
0.1566183183780448 -0.06219139822449764 0.0664176832047037
0.1569321808166736 -0.06261130802336937 0.06687775539850878
0.15550752650936864 -0.06153350822087961 0.0663431586588004
0.15573779610829233 -0.06203203943997262 0.06675733723376161
0.15476864681504088 -0.06060092652981482 0.06628275244244392
0.15477530809815648 -0.06126429222546814 0.06673106913440596
0.15422836984958482 -0.060188960985259075 0.06660313915924779
0.15375402175772035 -0.05971799264398084 0.06690334457396124
0.1532955081257775 -0.059251117446949865 0.06719071751298289
0.15294952843082055 -0.05809762877641876 0.0669602408066677
0.1528255111680757 -0.058818512284270395 0.06748000234401783
0.1523663527127625 -0.05712295101041304 0.06658618905479143
0.15234493398899845 -0.05775547878871042 0.06725615862629199
0.15166286171329924 -0.0568370898669558 0.06677887304416079
0.15067787905079635 -0.05595625609395719 0.06616882819321206
0.15063856795972475 -0.05621374590656059 0.06663834697094531
0.15094203721502722 -0.05653203102092766 0.06692686346093778
0.14965965997459144 -0.05543238535886402 0.06622350040965863
0.1496629410267132 -0.05585140715028233 0.06692112437869707
0.15021281184981847 -0.05605557098359003 0.0667822945874745
0.14914099291413033 -0.05472941512175593 0.06594270381136479
0.14906206726448099 -0.055242300571132136 0.06648147642742197
0.14891099199378716 -0.05386632442542944 0.06579768076488682
0.148649130855647 -0.054526441150590486 0.06623352511250231
0.14960865389194083 -0.051824889594357555 0.0653495056574811
0.14890319617530293 -0.052093459199433666 0.06595771150302511
0.14851311334114198 -0.05303459125256804 0.06613592932958792
0.14852104829923782 -0.053677472705087 0.06614504679806235
0.1497191924116269 -0.05085809822500051 0.06549823624195883
0.14920919738899063 -0.050928217989954394 0.06600296198647047
0.14870514815932934 -0.0517868221050775 0.06620634070033815
0.14985730430928126 -0.050045808643448424 0.06562113893934154
0.14986479006987558 -0.04958163894123556 0.0657382936039903
0.14926324531345758 -0.050440281851678176 0.06608670682804284
0.15041919224129638 -0.04909757357550919 0.06526772665002506
0.15014678633952222 -0.04888274162193932 0.06567028513948231
0.1500041127680635 -0.04847267867075331 0.06606272801439303
0.17312387642454058 -0.07759390666077266 0.06679951203636
0.17332084093325847 -0.0783307429724035 0.06757250468457204
0.17259078095462704 -0.07690506791048562 0.0669191249853335
0.1719361149610828 -0.07609162044327722 0.06706101658154111
0.1713003063743856 -0.07524325377951606 0.06720275013471994
0.1706551910877074 -0.07445367585286251 0.06732084269687635
0.16983515009328398 -0.07288534532180094 0.0668107149766235
0.17008055894991858 -0.07374021824181433 0.06747523028552631
0.16917037155203388 -0.07214627048989895 0.06701791007250689
0.16850222572348517 -0.07138828488639772 0.06718806772532551
0.16781967177529378 -0.07067447417658189 0.06736642717643285
0.16680472627039156 -0.06933132672064576 0.06692449250238172
0.16715525061883832 -0.07000738054341314 0.06757075651609813
0.16607019166521358 -0.06878633765087873 0.0671863499295465
0.16480163568529047 -0.06779777009623696 0.06701714621798854
0.16535000578863276 -0.06836042207768261 0.06747445502692233
0.16353321009147467 -0.06684356203682562 0.06690051805933774
0.16399112187546022 -0.06740823749503945 0.06740127011829156
0.1627289267343369 -0.06640933421758052 0.0671906294820402
0.16150707666655803 -0.0654266257359465 0.06696723688623685
0.16190950888872335 -0.06598685338899375 0.0674680076161646
0.16065001439272186 -0.06503528044274873 0.06723290621671471
0.1595091174645007 -0.0641932594612724 0.06711645865130667
0.15991350706703858 -0.06469707472169939 0.0674801322946702
0.15818842604535932 -0.06334595987301728 0.06705457104279522
0.15864582088554882 -0.0639144798540524 0.06745994538620452
0.15724829784376235 -0.06307089161325015 0.06732775084468233
0.156060019048986 -0.06243809066809344 0.06716842685957435
0.1563845035062097 -0.0628320717339916 0.06753377512629753
0.1549436437945686 -0.061837808348978354 0.06712032120912051
0.15522395603781006 -0.06232057910910121 0.06744821808840457
0.15412504899727325 -0.060926341717614636 0.0670961041765947
0.15420678112901695 -0.061597947869011044 0.06747726351765604
0.1535511069404277 -0.060508648527860025 0.06741484292343498
0.1530856429778456 -0.060018115597081506 0.06770164572548967
0.15266547862765134 -0.05952799843123199 0.06794931687572688
0.1523070417097592 -0.05843925667661294 0.06780538563681719
0.1522292462552293 -0.05912584600300229 0.06821409019118069
0.15169072034970618 -0.05742977540403139 0.06752223204034437
0.15170714126595078 -0.05809464922196217 0.06813068699712195
0.15098247793452105 -0.05711638925009336 0.06774984411474153
0.15023826054409037 -0.05641839849490677 0.06735442067605359
0.15033030554232213 -0.05683937983221952 0.06794462097132312
0.14901802866248534 -0.05570116598998397 0.0670964903685991
0.14907418005436204 -0.056127906316566833 0.06776073831489095
0.14966579887677095 -0.056261441504044635 0.06759541912729657
0.14850698965784517 -0.05507080093346573 0.0667368916837683
0.14843802060840394 -0.055563477823723374 0.06727634246552008
0.148236552936568 -0.05430729980820512 0.06653737620255526
0.1479829336753094 -0.05491159406231343 0.06697689413208935
0.14808761414004445 -0.052781287923212544 0.06649729409938186
0.14757437615570926 -0.05365874840206278 0.06686516319397723
0.14788405194142962 -0.053998939686280195 0.06672608990066803
0.14854727532117645 -0.051448437290085594 0.06641791337042244
0.14785696220481076 -0.05244783483615379 0.06671833633391003
0.14941295667045143 -0.049789326930086315 0.06616531991240332
0.14861001668956214 -0.05090577429909725 0.06656557377698377
0.1496309586053288 -0.04903078365490265 0.06630724527645532
0.14970415407007073 -0.048403134259833586 0.06659414194939062
0.14971376521902738 -0.04772693134931141 0.0669617607543308
0.17357496086433463 -0.07909660946990672 0.06845375025125866
0.1728800662624979 -0.07782257813812009 0.06770213196863564
0.17323987164448607 -0.07865818499800886 0.068396972542028
0.17222059504877127 -0.0770584254705706 0.06787709386059164
0.17151520012588503 -0.07620254482131225 0.06799918730005838
0.17085412648996443 -0.07533811108801658 0.06809598979462725
0.17028375233663562 -0.07454466086250759 0.06811449068068445
0.16944542651221386 -0.07312155578407491 0.06783365330479138
0.16986856795422595 -0.07394662916585694 0.06815280425946357
0.16877015716997434 -0.07223260483315742 0.06795309736360954
0.16811039285755514 -0.07146256091429765 0.06809134158051099
0.16747832260161266 -0.07074232257331763 0.06825836472697505
0.16645573715032655 -0.06939303186888957 0.06779549747791869
0.16680436758494083 -0.07006682640605724 0.06846171275118906
0.1657890033920366 -0.06887938885535154 0.06795687359546257
0.16455594426857864 -0.06805921509976223 0.06794168822436293
0.16521377250714273 -0.06855721393209589 0.0680838600570414
0.16316064336187214 -0.06699440055768938 0.06770698939973283
0.16363973564392412 -0.0675862936682341 0.06822351496476947
0.1623528960573261 -0.06656072577129575 0.06797754718178751
0.1610177630711274 -0.0655837984158828 0.06773363584634577
0.1614994346692541 -0.06616138342908974 0.06822151474340221
0.16019984530529718 -0.06514586143265494 0.06789542888544728
0.15918559523046422 -0.06451268311858831 0.06784083718776662
0.15970705122806772 -0.06484674880834158 0.06790072137965295
0.1576592049833538 -0.06366452717211149 0.06789866418359987
0.15837212495650704 -0.06419813110741332 0.06806418609370744
0.1566236334509129 -0.0632490165553369 0.06797962690923437
0.15554704570563457 -0.06273394727656544 0.06784360305722519
0.1560628370093575 -0.06298215667478514 0.06795754256146558
0.1544685971755609 -0.06221870458139025 0.06785123577068375
0.15491603104392257 -0.06254765447247428 0.06789299366881506
0.15349040163966768 -0.061326440623327955 0.06794548429339303
0.15382957595745395 -0.06191586226446124 0.06808230850644241
0.15292896655432725 -0.06077978052096597 0.06820710325320219
0.15247493435599746 -0.06025466130313818 0.06843826846035672
0.1520909822730718 -0.059760298828208776 0.06859298875583711
0.1516265977595629 -0.05885943123592481 0.06862505985216419
0.15177478829273905 -0.05941352389853075 0.06873517212492629
0.15101934502356557 -0.057763812225883206 0.06842614778753552
0.15104692612338141 -0.0584458139397658 0.0689037364523684
0.1502765595946858 -0.05740868533452343 0.06870684035862248
0.14978758454478258 -0.05662904003825608 0.06817575164261414
0.14990390989974237 -0.05698025542549458 0.06861613827767536
0.14846640749069337 -0.05599906299005487 0.06790150110990477
0.14855532899546142 -0.056434761944457915 0.06849070812268242
0.1491813441778433 -0.0565568735589246 0.06847870938043263
0.14791732818950873 -0.05544053509998036 0.06747247576470873
0.14790028824323034 -0.055921912871375656 0.0679919736916847
0.1475372300886661 -0.05470140018134728 0.06718399835823205
0.14740564073313003 -0.05528976082697964 0.06766710928762121
0.14731086850333217 -0.05334407176994398 0.06705886019640313
0.14682460952124096 -0.05415841996177295 0.06746496190383407
0.14714100379224254 -0.054458702693145206 0.06733037896353593
0.14781120851892152 -0.05202341658211313 0.06689224153891382
0.1471412988723127 -0.053007480022368304 0.0672075734004357
0.1488174925599067 -0.05018899468367954 0.06673542240106412
0.14790181981084136 -0.05144180495709913 0.0671094250068321
0.14904702951190713 -0.04938867363632265 0.0669314826012527
0.14927484126520946 -0.048538238376791235 0.06714510130020981
0.14981452848664106 -0.047264651837792604 0.0672487178694942
0.1495238967068937 -0.04777221762263095 0.06738611955996045
0.17374909349093393 -0.07956439743700042 0.06909392077157933
0.17355071289370547 -0.07930051285066327 0.06905835439741921
0.17263089789380218 -0.07808093735888555 0.06872552413336412
0.17315683959327388 -0.07885493519488414 0.06906549630753904
0.17180889834745994 -0.07716181662197322 0.06881963906740426
0.1710887769104114 -0.0762833968861604 0.06891857940816569
0.17037334773806162 -0.0753305218279855 0.06899600198541787
0.16996703163878515 -0.07447898867379624 0.06865260085581136
0.1695513143846686 -0.07388066799746057 0.0686920370641364
0.16980080706478842 -0.07468335412455593 0.06933256586066792
0.1690127552208702 -0.07310618975044392 0.06872878607058906
0.16840300883046844 -0.07230260427590031 0.0688450161318139
0.16780265009864526 -0.07152537957131253 0.06898694369034075
0.1671813621983351 -0.07081013178648872 0.0691438936573164
0.16604605377733705 -0.06942600428450117 0.06868101974648658
0.16652828788194285 -0.07017271771344484 0.06934498640935409
0.16545576639545675 -0.0689064865700117 0.06847561395399233
0.16484485948467387 -0.06858337116827137 0.06860581912165913
0.16528769254383574 -0.06908640307023677 0.06909883743224099
0.1640753447023284 -0.06814463015911536 0.0687718779790736
0.1627918022429101 -0.067159297274725 0.06850832902151126
0.16328161390956508 -0.06771656365392377 0.06902412255833103
0.16196970490284 -0.06671678327962044 0.06870111291751621
0.16047181293992174 -0.0657702532960236 0.06860519018337487
0.16127579697328187 -0.0663543778414317 0.06882314294654654
0.1595314490207343 -0.06507213159939859 0.06836772356852275
0.15896997437369928 -0.0651002239954914 0.0688445877256023
0.15951883279879575 -0.06550118363466288 0.068989347165792
0.15867567655827775 -0.06467007229041274 0.06845863122887859
0.1578152400698126 -0.06427579965959809 0.06858492547152677
0.1582847386808106 -0.06485108124633121 0.06902315606744507
0.15672951446695121 -0.0638250885004986 0.06867009668739987
0.15575788201699592 -0.06321564397206957 0.0684255656558274
0.15503398619467168 -0.06334089522056541 0.06889953865431012
0.1557002036470012 -0.0637012167631368 0.06907632354113664
0.15468586413362856 -0.06282607783731733 0.06843697456345549
0.15392192311059044 -0.06282342101397156 0.06889858512341641
0.15430396197975868 -0.06324387429077352 0.0691166050992642
0.15388954592088744 -0.06239045776941994 0.06849043598792212
0.15331780591720692 -0.06198753890775486 0.06858559239141394
0.15337023707028802 -0.06254751098109428 0.06903711905597873
0.15281389108838225 -0.06150934928443156 0.06871254349925222
0.15230880098513225 -0.06100484390096179 0.06891771859049056
0.15181404918371572 -0.06042190404546743 0.06913542173312294
0.15165584597835166 -0.059829292469432575 0.0690470218457413
0.15134026964298508 -0.05948078253242626 0.06917915504687498
0.15125990182028126 -0.06008072577829788 0.06950508081287012
0.1509871282534125 -0.0590463448401132 0.06930573937889471
0.15034044082756107 -0.05818369308628325 0.06929278783457582
0.1505953828188786 -0.058733294902922686 0.06945725042644683
0.14980930179197083 -0.05779064764368108 0.06941624863647577
0.14953467893635897 -0.05684194184645048 0.06879841943014099
0.1495781409188947 -0.057281267955561474 0.06918806145829609
0.14795317535292504 -0.05638930672517157 0.06854118891622192
0.1480261739425366 -0.056846267261148845 0.06900929549727444
0.14858757069719625 -0.05686517646097392 0.06905238719814777
0.14910465286376015 -0.05698793813412327 0.06915655409963732
0.14737782281370013 -0.055857321003018594 0.06812383074135703
0.14740680520677402 -0.056373251354355884 0.06857038806150405
0.14693829218470542 -0.055126979793263156 0.06781784682214541
0.14689119257438804 -0.055741651061523394 0.06827022913399207
0.14665635230030744 -0.05382779504860234 0.06756114156532099
0.1463021437516269 -0.054538463147613785 0.06801231748820069
0.14656158267178526 -0.05487653918658322 0.06794507218827858
0.14713276465983924 -0.052573109960552866 0.06742439557947363
0.14655844983687982 -0.05347923889524389 0.06769606771575848
0.14812706738804243 -0.05070414765536513 0.06735000302915121
0.14726484664352468 -0.05198687338572557 0.06768966221584219
0.14847188260187102 -0.049777540762086715 0.06758443722576965
0.14893666129617142 -0.04880013098014464 0.06773405718077403
0.14968339785244658 -0.04728767400659822 0.06784645422931099
0.14925492964856035 -0.04808211664417044 0.06786931592728376
0.14985471332256792 -0.046744799880505505 0.06826534590045019
0.1737130824339129 -0.07979007529316909 0.06996594817111246
0.1733446996343946 -0.0792677165323109 0.06958865833388315
0.1728835053744904 -0.07873802353787392 0.06962734254172458
0.17327713256278102 -0.07938775250418802 0.0703029528988555
0.17223832268242573 -0.0780141807195131 0.0696511336578212
0.1714761923262778 -0.0772096771586628 0.06974675638056274
0.1707817528777353 -0.07637862421632752 0.06985018242402383
0.1701462017928667 -0.0755880565962155 0.07000084644422941
0.16926169660250165 -0.07396105394324934 0.06948120800129229
0.16957968321000236 -0.0748506836541053 0.07017640982969545
0.16872464168979573 -0.0731843106298937 0.06960308353647543
0.16813342935979678 -0.07238711638339727 0.06972474705420517
0.16753431631064025 -0.07161124255601323 0.06984774143487067
0.1669138100801138 -0.07090312174469252 0.06998847632461173
0.1658150650956908 -0.0696894269006722 0.06962693970699606
0.16630620677347127 -0.0703430231755748 0.07017910673896942
0.16449529434120433 -0.06867796381823767 0.06935174481934389
0.1650064923300173 -0.06925458960607708 0.06994092616303664
0.16373100141344984 -0.06822129242385817 0.0695219861643739
0.16234907136775248 -0.06732209934362451 0.06945134738246367
0.1631154869053877 -0.0678738821043126 0.06965672217670316
0.1615667082573906 -0.06673158209646783 0.06924745144003938
0.16083854880392537 -0.06638459170676649 0.06934661724853815
0.16137351241458606 -0.06694339338749837 0.06986896285506923
0.1599627602681768 -0.06595932722599504 0.06939236725658707
0.15887591118724168 -0.06536736205137356 0.06937222794415858
0.15940071848275647 -0.06566724883506753 0.06941192979892863
0.15733845991887277 -0.06457830859722981 0.06931492414328648
0.15813841376682522 -0.0650876500669725 0.06952094162128762
0.15629074984765504 -0.06419169224342458 0.06939769785142465
0.154884923593426 -0.0637267467318046 0.06944953916339117
0.1555908095949239 -0.06402359125770399 0.06953236939144354
0.15360373770488217 -0.06307267435531379 0.06938841544303063
0.15403856647865324 -0.06357187345498842 0.06966326660653219
0.15280652766843578 -0.06216573789233759 0.06919267083279655
0.15295810140074614 -0.06279099890893362 0.06959068392789423
0.15224181968989994 -0.061731052861108006 0.06934724923644905
0.15172486910051036 -0.06122576574564415 0.06953984233533358
0.15123643156414782 -0.0607380453623091 0.06978047247788105
0.15072614370039314 -0.059656610733985656 0.06975756923528861
0.1507710223544925 -0.06031259034521906 0.0700142264652057
0.1504916546004197 -0.059152082286824635 0.06973100501561255
0.15004285297034392 -0.05886221981121149 0.06985765498505138
0.15006081480622355 -0.05945940513328846 0.0701142150140678
0.1494880701683499 -0.05840020029460994 0.0699113208436244
0.14927525524826318 -0.05776900018751519 0.06971836769833642
0.14906945321579382 -0.05737303065210967 0.06954851644936771
0.1474163840917226 -0.056948672414810234 0.06910593003675358
0.14770601240883793 -0.05722946398240244 0.06935711008236371
0.1480767942764806 -0.057282930844024145 0.06944176910633323
0.14862115672433682 -0.05727845922381857 0.06952863985231433
0.14688230102521624 -0.05640825011338105 0.06875989777720803
0.1470589054257792 -0.05675087546819553 0.06895761456335216
0.14644742214454645 -0.0556183431129585 0.0684954520119429
0.14653566091457482 -0.0561516743598959 0.06876641937714852
0.14619506621116482 -0.05412476104178753 0.06803395723801593
0.14593354394200111 -0.05478556162083314 0.06860117905342179
0.1461245859359554 -0.05522627675701466 0.0685105654148918
0.14647224444845383 -0.053160736789290786 0.0679864682366622
0.14621916230602588 -0.05375360165248893 0.06802909832777505
0.14740614715552958 -0.051305666699162866 0.06808822628940811
0.14664839401397675 -0.05252959230998099 0.06817866689887205
0.14806262461857436 -0.04998834689659133 0.06830164798900887
0.14879064126606448 -0.04881350307108253 0.06818635641157658
0.14913195860349315 -0.04808039948001939 0.06830842739152361
0.1484358619968144 -0.049176690272312466 0.06867704873848034
0.14952991140196448 -0.0472304737439212 0.06848234050100488
0.14975925826841763 -0.046714313686641175 0.06876408577924253
0.1740127508330884 -0.08038291493071907 0.07092803070785114
0.17373683150944944 -0.08008696745847874 0.07103268056689141
0.17270480484086553 -0.07873553294704493 0.0704564235046799
0.17321493867235707 -0.07947282309189876 0.07121906450571698
0.17201724026033216 -0.07803368824853614 0.07055726167909976
0.17124514103255833 -0.07727404706394952 0.07065890840633643
0.17055777076750245 -0.07648347385645717 0.07076838249969451
0.16993748779822396 -0.07571277572795691 0.07088138601450342
0.16905254664292813 -0.07410882275851631 0.07035287303081567
0.16940633551464063 -0.074994201207162 0.0710201145286685
0.16848809258406772 -0.07330350869243166 0.07050244943276268
0.16789966341040674 -0.07246391854650894 0.07059800728952283
0.16727651106620978 -0.07168391713058159 0.07067844312677216
0.16667499964314317 -0.07100555437689123 0.07072135249675766
0.1656132613484838 -0.06995183580071564 0.07059694118162031
0.16618319058683925 -0.07054680421086894 0.0708039708154852
0.16408248978065648 -0.06872472664411426 0.07022146280419153
0.16473447866335364 -0.06940363544732127 0.0708515653705021
0.16340627443818243 -0.06822550296654781 0.07005462501585677
0.1627909371409899 -0.06790039747599372 0.07019028058997998
0.16331681851430527 -0.06839549937241239 0.0706806487848042
0.1619895035401683 -0.06750872353729445 0.0703636339526782
0.16034326390830642 -0.06652735164471245 0.0701255311591967
0.16114001037443434 -0.06715819485926755 0.07063594370771832
0.1593363955558804 -0.06586475698908671 0.0699148524674513
0.15884552195360854 -0.06586653961205756 0.07039195541252277
0.15949466854222585 -0.06631906856097775 0.07064653561936081
0.1585095011307689 -0.06548473177652091 0.0699473849144546
0.15763296053122505 -0.06514426032975427 0.06996430338388081
0.15810858052412605 -0.0656268589575096 0.07047552686373808
0.15657042043325908 -0.06471538028293243 0.0699872059847568
0.15587130032432583 -0.06433240817162891 0.06980357912580801
0.1552169967393733 -0.06419614174535017 0.0699018358629323
0.15569496193644153 -0.06458429318664123 0.0702231157104942
0.15449486594340717 -0.06398505935285777 0.06999408759417555
0.15330464596506524 -0.06344402269123149 0.069990708904787
0.15389703692414594 -0.06383166879824297 0.07011554916325578
0.15233194484438878 -0.06241146436092609 0.06977508180340457
0.1525885080004311 -0.06303664441765462 0.07015089542608434
0.15176755626428157 -0.06193134944979307 0.06996590574149249
0.15123521668788162 -0.061397407078109464 0.07016474375245853
0.15075271490216172 -0.06085879467344312 0.0703152939715251
0.15015948436954185 -0.06006775820430048 0.07032488164695186
0.1504664119854996 -0.06048043611308516 0.07035579487098251
0.14924213440219092 -0.05928782997369551 0.07036932263404759
0.1496711347843697 -0.05973814515016265 0.07042398590457408
0.14871329168956263 -0.05875197772895633 0.07029417800454399
0.14806927507837958 -0.05906568068536405 0.07048172804833237
0.14854468751734148 -0.05920084785256506 0.07051897266581042
0.14810210965404777 -0.058360321055939614 0.07017181682325899
0.14731661393472406 -0.05877250664253976 0.07030575891777846
0.1476823308340411 -0.058917595502824265 0.07041375951832266
0.14886435797183886 -0.05818967530977261 0.07004213407600078
0.14739707467618474 -0.057847264788439885 0.06979468607464685
0.1465337605737572 -0.05830312863389592 0.07009612182194921
0.14682476966458977 -0.058698110601984384 0.07025645823196709
0.14817643320572713 -0.05767964401601449 0.06979909860792162
0.14870314352121325 -0.05773617684137099 0.0698644589200432
0.14671201439692463 -0.05728409743316445 0.0694417447490117
0.14628424997009215 -0.057313404607146616 0.06963173679792115
0.14621694563804288 -0.05795452779609162 0.07001044994257591
0.146441716451147 -0.056726134712752375 0.0692051072428451
0.14625219557617836 -0.05631902495757266 0.06906091133434665
0.14617190910352762 -0.05696470646717706 0.06953218611582297
0.14607873487354142 -0.055903066659206344 0.06898301127377757
0.1459464163010337 -0.05401753601288815 0.0684285640971622
0.1457771400264931 -0.05393122687823963 0.06886889594188889
0.1457213948922254 -0.054594994539394356 0.06909340616836346
0.14574757660092533 -0.05519568667168172 0.06915260106678808
0.145903780149038 -0.05551249600759658 0.0690132859224445
0.14611378778285503 -0.05332028337713468 0.06851753047948422
0.1464573312188602 -0.052490373569089574 0.06864085073855777
0.14593317957920302 -0.05334734457148914 0.06902771309970328
0.14705693417327212 -0.05142529734050321 0.06879528908643538
0.14759086327254034 -0.05040574015266646 0.0690494981754667
0.14888798824889835 -0.04827091421988583 0.06890448206234581
0.14813003337449307 -0.0494155948785885 0.06932021826930665
0.1493211182249899 -0.04733832075282429 0.0691290449788274
0.14958302227241474 -0.04666621670757241 0.06945049800647392
0.17412060598318002 -0.08073148107661256 0.07191435025817593
0.1736904531495255 -0.08024650638354887 0.07202809327451522
0.17257285272311018 -0.07878517911725212 0.07136326228474463
0.17308603614171678 -0.07955582856323253 0.07217317224832626
0.17181771004236293 -0.07806495443951253 0.07147617465478026
0.17103008979244966 -0.07729626322325807 0.07157889696026769
0.17035025770853737 -0.07650486559698642 0.07166728603509183
0.16976249328082121 -0.07576702259841249 0.07167653772173582
0.1689170325870925 -0.07433462258432395 0.07134771028784284
0.16934506142236125 -0.07517828596860603 0.07170057467920621
0.16827226079248234 -0.073394125748741 0.07139279800982459
0.16764430588244333 -0.07253820842667082 0.07144784068123929
0.16692178056180973 -0.07169611715619661 0.071493152654527
0.1664095658539934 -0.07098454392639626 0.07122872245617251
0.16594135727043088 -0.07056467797542323 0.07136058997554014
0.1663721304183179 -0.07121047086917758 0.0718492149390343
0.16528242523816478 -0.07004469494614605 0.07150511463874652
0.16392784709572708 -0.06896630977153535 0.07118200608459166
0.16453514675924152 -0.06956254705252649 0.07171115820805328
0.16252081521236242 -0.06803069876791754 0.07093923303516354
0.16310396160904456 -0.06857625355754055 0.07150737718403945
0.16171554023958726 -0.06765601002851239 0.07110555334064453
0.16035499613902376 -0.06692950979020111 0.07110796813876828
0.16110077415217913 -0.06736516831980895 0.0712626852232961
0.15868951570364484 -0.06607752718512461 0.07093425034769368
0.15939116773812861 -0.06659218637308142 0.07138702667838755
0.15714298710197952 -0.06530993544994661 0.07056034840659116
0.15780560241758715 -0.06579231020213676 0.07111386038204426
0.15616484091235605 -0.06498687727484312 0.07059990617590146
0.15491922779893427 -0.06447016337366633 0.07049115826514414
0.15554988437459635 -0.06477160979909269 0.07057935289075741
0.1542007514981641 -0.0641227956122238 0.07039308059673675
0.1535965957866816 -0.06399724418345186 0.07057653173693423
0.15421658188164586 -0.06436085519163424 0.07073342830152808
0.152878672450281 -0.06358074486135339 0.07056970395548094
0.15198307314927392 -0.06268357953837181 0.07044118235222853
0.1523880823421659 -0.063240203772542 0.070620858831792
0.1513659496858435 -0.06207514229548041 0.07058968088727563
0.1507036310654732 -0.061441544180747446 0.07078132702293538
0.1501293898851317 -0.06068988202077983 0.0706951948356435
0.14954302907991962 -0.06068560741947063 0.07101648044244924
0.15001289304574308 -0.061112667060189585 0.07111728541992905
0.14927722220025674 -0.06012227291850525 0.07074499506519452
0.14840982029528457 -0.060257787357190035 0.07099865406799263
0.14890251970972024 -0.060575619833895714 0.07111067279322558
0.14819418837058565 -0.05970025956850618 0.07072514222933196
0.14734784147082491 -0.059898114862982424 0.07082631387492269
0.14757996728900688 -0.06028327346445938 0.07104733299102838
0.14734537035076434 -0.05941293454917527 0.07061128327859133
0.1467141568204095 -0.059754713854759285 0.07071186852360997
0.1470114189222451 -0.059828879843691785 0.07077058865968713
0.14676692979723346 -0.059273267970231865 0.07051003907456505
0.14628872610754884 -0.05917925858493922 0.07048797093060437
0.14637221138905931 -0.059645229639245054 0.07066621326602487
0.14607285170269005 -0.05875933771175195 0.07043516335022545
0.1460832201257632 -0.05762545419409806 0.07000503040864127
0.14596555318364107 -0.058347661380671524 0.07041241026993802
0.1460751541541565 -0.05655378269683729 0.06946354135926609
0.14607910441240443 -0.05721164777999777 0.06993858303235545
0.14597502783916216 -0.05611684303472206 0.0694515478477304
0.14572194716480458 -0.05403831705446093 0.06937065579740458
0.1457387189102874 -0.054628007856129736 0.06972029096014078
0.1457564236932619 -0.055196009527742215 0.06958399064539435
0.14585902792742186 -0.05568254298427585 0.06950675063074822
0.1463137976450998 -0.05251849119483491 0.06921192753936814
0.14592145379394794 -0.053342365503949093 0.06958416416681615
0.1467708524356099 -0.05157440216976792 0.06944377971089541
0.14738689980337055 -0.05054727667977363 0.06971877443360515
0.1486595274396686 -0.04837834084249246 0.0695645947629019
0.14794910390870403 -0.049492767038188876 0.07000341099972505
0.14913097319004898 -0.047381361140773216 0.06974203800791805
0.1495976067920452 -0.04637440159132022 0.06987252546769504
0.14940835057844035 -0.04671215660195512 0.06990497550855417
0.1743870844665878 -0.08131317336618749 0.07284707057485801
0.17414372004077028 -0.08101182161274459 0.07290872630611213
0.17359397093916273 -0.08036784068111522 0.07301971408852158
0.1723748294773888 -0.07881751735294983 0.0723028297006689
0.17291102397035155 -0.07961334302175417 0.07313905077136468
0.17162386775634925 -0.07807293340730231 0.07241849141757052
0.17085133871711408 -0.07729505551122327 0.07252139412250641
0.1701147329295486 -0.07643305547116303 0.0725937739997796
0.16956782858580607 -0.07567346411025126 0.07222121821865175
0.16917155747721882 -0.0750819665253453 0.07223756915332351
0.16955134054609736 -0.07580662690089707 0.07292178394898764
0.16864331101741672 -0.07429081733987346 0.07222103811506386
0.16802498500746038 -0.07344347025934729 0.07225453676767177
0.1673823997916317 -0.0726201557132974 0.07228510076924036
0.166790703311004 -0.0719287605635595 0.0723372198551767
0.1658136141475458 -0.07080555939398063 0.07224196001261174
0.16636282755092788 -0.0714825734499036 0.0724785589398513
0.16503795912284402 -0.07015155620964428 0.07229114242023305
0.16381237608193283 -0.06920780704780753 0.07212535622907962
0.1644659402107543 -0.06972846023975587 0.07236665305213766
0.16220766702229011 -0.06814795719742155 0.07179494980600451
0.1629416669209261 -0.06876591556264988 0.07234003815163567
0.16146515782082388 -0.06770277556343966 0.07164028707034491
0.16087826748361428 -0.06742984633397175 0.07177869536530053
0.16147736839062135 -0.06790022615098643 0.07223807949954997
0.16010199304996373 -0.06709065929826304 0.07191534458402046
0.1585415428478182 -0.066273195719601 0.07162737039865169
0.1592571922159905 -0.0667525438422299 0.07210683594701736
0.15667244367368222 -0.06547647873963797 0.07127058163792423
0.1576511635981483 -0.066013065676245 0.07183702826296039
0.155531000534167 -0.06495928873309267 0.07102525545487873
0.15509915623676726 -0.06497473357193699 0.07149912850087566
0.15582332401784751 -0.06531313836440988 0.07173052042850467
0.15466212952825278 -0.06467718652591391 0.07107726065993654
0.15390267243121208 -0.0644159059890734 0.0711327779026611
0.15444487819884692 -0.06478216615262072 0.07160567957102248
0.15313175867561332 -0.06400768919866939 0.0711665342617251
0.1525685822315802 -0.0635822270489661 0.07094583076588228
0.152130803655035 -0.06323232884085593 0.0709912055646228
0.1525183528043852 -0.06369936757590379 0.07141169089271185
0.15163630648007556 -0.06272010769944267 0.07105101377215157
0.15107652664209872 -0.06217057486069879 0.0711815284883654
0.15047977222398923 -0.06167334991805852 0.0713304053148263
0.14935582911905565 -0.06092319810842057 0.07125793988595244
0.14981975970510292 -0.0613009048925112 0.07145765808583922
0.14818437193509967 -0.06056914407640389 0.0712195321397909
0.14870099669411865 -0.06081793689549973 0.07132355700229893
0.14683605451287787 -0.06013200334611858 0.0709386651693745
0.14640944514494567 -0.0603555108669032 0.07107772541295089
0.14685287506990405 -0.06055347670227655 0.07122693920264334
0.1475351550511167 -0.06064843406832746 0.07128284025017534
0.14634714158130582 -0.060028689844756185 0.07087943645672792
0.14606795847999707 -0.05981376572355723 0.07080738309329997
0.14607677594203083 -0.0602632579844553 0.07106699504400447
0.14589895974434358 -0.05947278433233376 0.07075164301741729
0.14584835545482622 -0.05906666272044722 0.07075615141180827
0.1460236374595382 -0.05791434586949517 0.07039439935739147
0.14589464358745383 -0.05861944701330562 0.07076476363983933
0.14610629390021457 -0.05673375877145415 0.06990379019447211
0.14620662661179598 -0.05740290880520429 0.07035788472227737
0.14611170613638386 -0.056220402263978814 0.06990632272830773
0.14586618911476762 -0.05397702154655434 0.06993747299171904
0.14604631491683923 -0.05448362846409678 0.070280282523282
0.1459926976595084 -0.05511878745598339 0.07011014525712385
0.14603657220004404 -0.05569208942456073 0.06998390063589698
0.14626742268262782 -0.05249753070984674 0.06982127817606897
0.14609661412358374 -0.053217563828553784 0.07019286541315597
0.1467530557032387 -0.05153745172588797 0.07008742793644328
0.1473168176215702 -0.050506570735754035 0.07038912551772901
0.1486438551166043 -0.048271629590262065 0.07029813433090348
0.14792458912502518 -0.04944350733199778 0.07070476087673201
0.14911451242529003 -0.04726326431092727 0.07020711922431709
0.14935275034291312 -0.04674103098206391 0.07036007375991651
0.14899648479907882 -0.047436924673921015 0.0707540234257262
0.17445205601739963 -0.08171515802521818 0.07384652724045748
0.1740739472592952 -0.08118128642263722 0.07391489349733446
0.17343054889844647 -0.08044051682747148 0.07399637366067394
0.1722043050121633 -0.07884180434556387 0.0732640667162094
0.17273996172318767 -0.07965856363254623 0.07410005716623055
0.17146903642192346 -0.07810353830994364 0.07338118821641593
0.1707333343763871 -0.07734150336672456 0.07349737613722312
0.17007664985137483 -0.07660854436708975 0.0736509197225273
0.16903123114104826 -0.07510714531517912 0.07303217463741851
0.1694792333644986 -0.07590258563046458 0.07380811091954789
0.16843555074949695 -0.074332221455546 0.07308977239971293
0.16780012226228602 -0.07348889148396949 0.07313703723606443
0.16713039317503192 -0.07264501553290703 0.07310680301578164
0.1666297903786188 -0.07197705175108376 0.07286607638113271
0.16620112090298847 -0.07158739693510363 0.07311655828183088
0.1666979092841879 -0.07224387248908512 0.07333373914464784
0.16541061249675543 -0.07077622309586121 0.0731420182560323
0.16477768784907235 -0.07011627138841596 0.07282913318254437
0.16420779284705048 -0.06972047891148125 0.07288829891498479
0.16473123188962005 -0.0702973238115949 0.07349194073255311
0.16348914299036632 -0.06927510068364011 0.07288511963634398
0.16220736061986116 -0.06846447764686456 0.07276385537523208
0.16289060293289412 -0.06893185028424892 0.07296800899962
0.1607540890422263 -0.06756929162759841 0.07248448501845442
0.16139450802588837 -0.0680599952452071 0.07299504945253935
0.1599223972167994 -0.06721986812241895 0.07264682943877401
0.15848191392193453 -0.06644962606278228 0.07233698974072703
0.15915636904773142 -0.0668582346511577 0.07278830652082509
0.15675341616839455 -0.06576957478262749 0.07212870086396549
0.1576784103297593 -0.06622199488370446 0.0725935008178696
0.15512195952382649 -0.06512379995387856 0.07202661920373624
0.1559530153226921 -0.06548710648420047 0.07245612111479516
