# .PCD v.7 - Point Cloud Data file format
VERSION .7
FIELDS x y z
SIZE 4 4 4
TYPE f f f
COUNT 1 1 1
WIDTH 789
HEIGHT 1
VIEWPOINT 0 0 0 1 0 0 0
POINTS 789
DATA ascii
0.16649409820244085 -0.06878716698559952 0.06900551286087175
0.16546694223083952 -0.06764895261557903 0.06862774739974889
0.16433101116188192 -0.066511657717834 0.0684841077996142
0.1649288744142997 -0.06720760080218335 0.06876062980215225
0.1636298938153722 -0.06566651858644074 0.06817347415768132
0.1631868264536049 -0.06562854870235156 0.0687502682958164
0.16359243950845329 -0.06612437546333223 0.06894797395990349
0.16298008872512135 -0.0651359020463737 0.06826132004834244
0.16230660974923866 -0.06462404832030634 0.06840008139539457
0.16265372052792892 -0.06528562670507254 0.06895643426832816
0.16145248422996614 -0.06397207099523462 0.06850710692770468
0.16070000800564468 -0.063133736070821 0.06818568734757274
0.16013332818453827 -0.0631340379933946 0.06881573568010546
0.16064366084533138 -0.06367027372874318 0.06902747695923549
0.1598652846495244 -0.06246787345271869 0.06820452534212298
0.15926413000282924 -0.06232822870965226 0.06880386074657911
0.15956188505548557 -0.0628771453560304 0.06911470868834069
0.15922975153592003 -0.06182159348623999 0.06824862393173368
0.15877313380015218 -0.06124665494517547 0.0683356375469572
0.15882471024128228 -0.061908659806531 0.0689632398984208
0.15837685945249622 -0.06059234698342237 0.06844389632098588
0.15799293413853302 -0.05990501557095419 0.06863291098888209
0.1576191644545311 -0.05914836582233778 0.06882226821084712
0.15748916349073683 -0.05844784927942955 0.06861846013605775
0.1572411658900813 -0.05799402230263535 0.06873341526855195
0.15720388150821166 -0.05866105855715882 0.06922516930612944
0.15694994771605772 -0.057434993655427376 0.06882242937387778
0.15637438767477288 -0.056322563688360514 0.06874694728190636
0.15662867964501845 -0.056996620832318816 0.06896554776912694
0.15592274288218927 -0.055747627914678216 0.06889699663501973
0.15558232970053504 -0.05461909412257897 0.06820755096312785
0.1556847471699958 -0.05512200277644197 0.06864454768616651
0.15403569054902672 -0.053485145413372244 0.06828564381395384
0.15422378325698877 -0.05406293454792807 0.06878547103960263
0.15474893374308027 -0.05432315126059007 0.06868167325168087
0.1552406529400026 -0.05466195489944838 0.0686722489042779
0.15331297675335512 -0.05256347812870674 0.06800479995834476
0.15350799795062386 -0.053208618221064756 0.06849834398659475
0.15261152273362175 -0.051494000358051795 0.06779832638573441
0.15280141929272684 -0.052219793718562835 0.06833787789253949
0.15166280454265663 -0.04969115852737387 0.06773860768476049
0.15166579635353072 -0.05046246507807799 0.06835717164233325
0.15211641481109042 -0.05101942124902658 0.06811083390198647
0.1514596202324996 -0.048338741152436415 0.0675960288412873
0.1513525902492686 -0.04919768683983196 0.06800067349403299
0.15153303400480223 -0.04655737256134914 0.06748762812086918
0.15127053936519144 -0.0477023645542556 0.06799253521466514
0.1514545369174992 -0.045655011322147235 0.06782010672986642
0.15146439831794153 -0.044736524648636734 0.06802633493924289
0.15155556935512107 -0.04339581842186724 0.06818939062292903
0.1514691999383606 -0.04407808105108937 0.06820919111689074
0.15146906526517337 -0.04287988581168323 0.06875038096678106
0.17475896325292217 -0.0810257578264259 0.07007676415898893
0.17444488549851392 -0.08050672635730721 0.06968546592253852
0.17405293979795514 -0.07998742885339025 0.06973077534811341
0.17438097483149842 -0.0806358015877375 0.07044028642941275
0.17351493930879724 -0.0792723330147986 0.06975600252629552
0.1728896363156512 -0.07848315469740506 0.06985427312744137
0.17232676900819952 -0.07766578644257689 0.06996560468233863
0.17182021866762165 -0.07688837564523096 0.07012844117524959
0.17115591130151686 -0.07528894749698 0.06955580993594251
0.17137362089084027 -0.07616348240925283 0.0703189253473155
0.17074470179456278 -0.07451827685797438 0.06968066333439853
0.17029778899361325 -0.07372394381783991 0.06980491155185724
0.16984212824649897 -0.07294727347137157 0.06993170826152477
0.16936349161790581 -0.0722352785182901 0.0700809834956351
0.1685013615119377 -0.07096040082415578 0.06969149649845911
0.1688791720520014 -0.0716553885364115 0.0702995764046466
0.1674627550228102 -0.06984487648973989 0.0693836632323673
0.16784930426850805 -0.07047499204758009 0.07005236534208865
0.16684356593283822 -0.06934520083937988 0.06956880597609513
0.1657432228882265 -0.06831453568941487 0.06949365919241698
0.16634244267623846 -0.06894760689330896 0.06972393201904711
0.16513625003987364 -0.06763986393833893 0.0692561508297639
0.16457438021686108 -0.06720000388172534 0.06937226334925875
0.16496295923066562 -0.0678397038651274 0.06998268327723704
0.16390647756443397 -0.06666933570957105 0.06943416284098572
0.16307630977857443 -0.06591760533454509 0.06940387289341696
0.16347583419987072 -0.06631009479430443 0.06945981725772306
0.16190271504144382 -0.0648755350189234 0.06931982670189844
0.16250028958247506 -0.06552285283614803 0.06958081093559083
0.1610870335920037 -0.06430367944163219 0.06944063981918268
0.15999552322088367 -0.06354020770105191 0.06954881131969173
0.1605384113783562 -0.06400293637015331 0.06962793831752015
0.15900143014373297 -0.06255847360522357 0.06946967904100974
0.1593265025930623 -0.06319959225633406 0.06986042804723307
0.15837887412831178 -0.061363185316594335 0.0691383804848744
0.15848743716980812 -0.062113925559231294 0.06973629474085707
0.15794770918644568 -0.060745384075469956 0.0693147216082895
0.15755883496090548 -0.060065349343299344 0.06950263030560148
0.15719459152638737 -0.05941467887494006 0.06971491723232869
0.1567833500318694 -0.05808371418811743 0.06947028012965623
0.15683419925781628 -0.05885520380936936 0.06992661992033679
0.1565799722365925 -0.057451800713648075 0.06934503246727369
0.15619871949952904 -0.05702320877818417 0.0694803631921581
0.15625218762163157 -0.057719193748327936 0.06987918616460588
0.15570652983827474 -0.05634613682821405 0.06953757307519984
0.15548215563647771 -0.055582425442486205 0.069288081147099
0.15526902866391987 -0.05508923071196445 0.06911017303158015
0.1536578298977591 -0.053931689952990525 0.06907508805712759
0.15399275554373795 -0.05438016874307848 0.0692577905343972
0.1543502896378875 -0.05459635032251488 0.06924700887684374
0.15485543509243324 -0.054833194082951835 0.06918372408142734
0.15299385152948153 -0.05301623625057577 0.06890162502950654
0.15326649255795025 -0.05351918675072761 0.06904729281416462
0.15228298406008578 -0.05187029547718266 0.06881783635053298
0.15256770755912422 -0.052556841904268264 0.06906602860009584
0.15131309607679186 -0.04986406423518475 0.0685033012292514
0.15132626821098707 -0.05058944696901092 0.06932805935849204
0.15177293322554766 -0.05124633466065803 0.06903728749868042
0.15107615286430556 -0.04879540593047874 0.06846073100368393
0.15113763964999058 -0.049409053716987415 0.068519909886622
0.15107416670651555 -0.046994629620619274 0.06855781815811528
0.15091758679966594 -0.0481293261426443 0.06873874765043675
0.15109171772666602 -0.04574452352801562 0.06884480389869212
0.15128750701185234 -0.04469147353841248 0.06864466438924914
0.15131021753030632 -0.044032928808027415 0.06882114755569044
0.15105223855321115 -0.04497492650233963 0.06935884403083889
0.15134196595019966 -0.04328214721022872 0.06905719995969228
0.15132838127973708 -0.04282216040411384 0.0694252853263158
0.17500698857806568 -0.08162003280627148 0.07108489588846527
0.17476781151460907 -0.08133206190253313 0.0712023184271589
0.1738907541110146 -0.07999424744428665 0.07060673828730639
0.17431414099132797 -0.08073032800607427 0.07140785695149371
0.17331445805772633 -0.07929597019009745 0.0707188567760782
0.17268062570493004 -0.0785475355796742 0.07083287450170647
0.17212226039532483 -0.07777024651055521 0.07095673225177246
0.17162694033967968 -0.07701394356732259 0.07108487676883302
0.1709639713685601 -0.07543031036723752 0.07050596895289402
0.17120689838962894 -0.07630738007487423 0.07123847296307333
0.17053172631868685 -0.07463238424199096 0.07066377024469976
0.1700837335199624 -0.07379694684568569 0.07076486034085942
0.1696131491933424 -0.07301272806869588 0.0708521490666471
0.16915360143473188 -0.07232711529713083 0.07090421760411864
0.16831120637830224 -0.07123396951373416 0.07078186742270323
0.16876520807852838 -0.07185789691436228 0.07100655144657289
0.1670956613995497 -0.06989549383019401 0.07037043566447047
0.16759660919143285 -0.07063703003516321 0.07107396793665756
0.16655914526647475 -0.06933459863500524 0.07018168946757013
0.1660585610375972 -0.06895448011054611 0.07034507129855747
0.1664540406732595 -0.06951837304921395 0.07090193142258674
0.16541589184220787 -0.06848879498804479 0.07055813824643695
0.16415420238775538 -0.06730389420576034 0.07029911606729129
0.16473734638131293 -0.06805647818143581 0.07089019503576449
0.16339226920284838 -0.0665206297329528 0.07004705220340483
0.1629730970959246 -0.06645903552188116 0.07063250737634418
0.1634609001913948 -0.06700406885984615 0.07092724542306002
0.16274949735772926 -0.06600517521120897 0.07009796810473651
0.1620811230667902 -0.06551496449760522 0.07013962481534572
0.16240047014276623 -0.06609513900379144 0.07076769451948246
0.16126523232096493 -0.06492194282104584 0.07019155583075164
0.1607360775225556 -0.06439475302217085 0.06998204888581257
0.16022413060709384 -0.06412515345525813 0.07013937660792437
0.16057284095718724 -0.06463235573578628 0.07053245963158518
0.1596543558747507 -0.06376815958375115 0.07028530709467563
0.15873314420319504 -0.06291604765957233 0.07032078850466869
0.1591801382672551 -0.06347886732038657 0.0704702942302929
0.15799913261974172 -0.06156330513018565 0.06997598205406902
0.15816532285575094 -0.06233637345080966 0.07054294440443212
0.157568590504176 -0.060912935105943575 0.07019154573410717
0.15717602500357555 -0.060193841899578535 0.07036036908659309
0.15681731695660803 -0.059486954780145124 0.0704349301767326
0.15634808380932713 -0.05845892421526038 0.07027675198227606
0.1565971159580081 -0.05900423167596882 0.0704004342612803
0.1555626718132081 -0.05731696059906946 0.07022951659140202
0.15594864138394118 -0.05796724584967682 0.07034197514584675
0.15507620766443816 -0.056535804990793866 0.0701192815594458
0.15453332386551336 -0.05671079890859925 0.07050155705296429
0.15496419874251033 -0.057025123095224194 0.07046588138216982
0.15449479139707048 -0.05588169154524118 0.07007041862364735
0.15380665150816547 -0.05605945287953837 0.07047161390678523
0.15416871853096273 -0.056388353445656424 0.07048994266440309
0.15516242399435043 -0.055933963066184124 0.06974647502267722
0.15376937767075596 -0.0549770886164238 0.06985560796971511
0.1529629476523633 -0.055124417508102826 0.07053759926604548
0.153317114078244 -0.055744657729658004 0.07058672342747974
0.15449435786004406 -0.05511435160631614 0.06960856912593187
0.1549807439369039 -0.055380275353876456 0.0695442685754578
0.15300100952531182 -0.05399436931703487 0.06973790187039508
0.1525206516258272 -0.05377695863526843 0.07022913841757436
0.1525538372159085 -0.0545135008632027 0.07065971632468691
0.15259590677735668 -0.05317253025939417 0.06963863573636975
0.15226364072108098 -0.052579835761793335 0.06964155382829651
0.1522868983869108 -0.05325942818248833 0.07028324543015248
0.1519174230522493 -0.05199873988327158 0.06971705556325125
0.15097672639026263 -0.04965635139005221 0.0691444901756475
0.15071471600822506 -0.04951338725282484 0.06983688306860533
0.1509369315944863 -0.050291514570244764 0.07017023930795419
0.15123350221363646 -0.05102365689834948 0.07021919395945202
0.1515511572131765 -0.05144926269826518 0.06992529207670604
0.15076946583448927 -0.048877348754446395 0.06927084728289917
0.15069101774681617 -0.048047066987452085 0.06941817176135331
0.15056257144523993 -0.04889122253457797 0.07004898620261855
0.1507333009935288 -0.04703401354214618 0.06960426684877835
0.15075211331454155 -0.04607620407675368 0.06993107818603135
0.15109037102980102 -0.04415629031353463 0.06965695947503164
0.150806352911507 -0.04517156966981758 0.07027843985372982
0.15113829758702718 -0.04334506725563057 0.06993140375643177
0.1511311815614271 -0.04277224745326784 0.07032736321068102
0.17508338253365627 -0.08197314080211851 0.0721169509391729
0.17471090506470097 -0.08149718454892514 0.07224605278611498
0.1737636283951824 -0.08004844461482973 0.07156896173202006
0.17418687965646815 -0.08081818375150401 0.07241327414960012
0.17313133375400713 -0.07933574416469386 0.07170006859252483
0.17248142928079746 -0.07858134431466206 0.07182289325221139
0.17192681758632042 -0.07780096798835469 0.07192786925910723
0.17146145513441644 -0.07706820757548147 0.0719458922040149
0.17081695936814165 -0.07565033938983219 0.07159295006460967
0.17113329307004235 -0.07648583715926625 0.07197608857524822
0.17032693721144976 -0.074712955991893 0.07164354907990685
0.1698506305016475 -0.07385896480213912 0.07170722667966782
0.16930350934110025 -0.07301538530702463 0.07176878250241775
0.16892390790795264 -0.07230220572691352 0.07148169763391075
0.16854399630257844 -0.07187119765240631 0.07162976738723759
0.16885602336011998 -0.07252873265156053 0.0721690756148539
0.168005685578168 -0.07132495135137165 0.07179496364656304
0.16692756668637762 -0.07015392303129062 0.07145628328009546
0.16739225450077425 -0.07080598648407173 0.07204097911668678
0.16580590164156564 -0.06908708636356313 0.07121338559464167
0.16624454234612165 -0.06970684167436048 0.07184832011473075
0.16516367812960925 -0.06863863404511515 0.07142220865547007
0.16409238877110277 -0.06774195250731468 0.07145855601131605
0.16466818840163386 -0.06828777473707895 0.07161545579348691
0.16281214366159014 -0.06666190495056737 0.07130678473054806
0.16332642517453563 -0.06728038528939648 0.07182207698049732
0.16165734149625424 -0.06561999694708635 0.07090775213608128
0.1621116858470515 -0.0662394730721573 0.0715660991547628
0.16090398274464088 -0.06513392729681397 0.0709990465931229
0.1599460611792878 -0.06437414768566346 0.07090996425374399
0.16043202267770354 -0.06480368635614775 0.07099842874181587
0.1593944719873216 -0.06387291075837649 0.07081040840964727
0.15890886765551304 -0.06360182528477476 0.07109964259898968
0.15937744085610328 -0.06412657875999561 0.07126553442056356
0.15835298031710787 -0.06299966334184157 0.0711193959209648
0.157688826529155 -0.06182521356889666 0.07092660592333692
0.15797321737048417 -0.06253289094503402 0.07119448519992665
0.15722962500453833 -0.06102260776718842 0.07107239091375846
0.15673576346000875 -0.06018534554154036 0.07123101397593803
0.15631548006946852 -0.05919695027623643 0.07092285013071231
0.1558262289530996 -0.059103234528337274 0.07142811486421492
0.15617746619028575 -0.05972016041627373 0.07169008755854024
0.15561432903494046 -0.058342778654407484 0.07090478140247551
0.15487625584838235 -0.05829149118816656 0.07138937256226549
0.1552914387091606 -0.05882863569573641 0.0716164762076987
0.1546765188081768 -0.05752301121255486 0.07090765458047064
0.15393580794415487 -0.05747915824306579 0.0712267985197638
0.15414544346239173 -0.05805124197575197 0.07160010846577951
0.1538996603524166 -0.0568741232959236 0.07087473598784746
0.15333773507292853 -0.05704435887791245 0.0712327248080847
0.1536272986619229 -0.057265010750086005 0.07121414846385551
0.15333277894332892 -0.05643895949071222 0.07092677939616472
0.15283141601724687 -0.05608679979964624 0.0711290969744623
0.15298446299333396 -0.05674166628295952 0.07130212141409463
0.15250635631740947 -0.055400496539693526 0.07122677301016087
0.15228690712953746 -0.05399120053658406 0.07086526453156991
0.15226315635252824 -0.0547844458242066 0.07139003940231398
0.1520241561404583 -0.05270301659634307 0.07039104610704135
0.15210046844644895 -0.053421891012141516 0.07101949404060898
0.15173826969341314 -0.05214402383276695 0.07055372524440327
0.15063342128552898 -0.04965285888001425 0.07060060109874447
0.15083340351183955 -0.050370659512484574 0.07118025182320187
0.1511222452994438 -0.051022412459694896 0.07094932454218413
0.15143593201008634 -0.05160309614580936 0.07076239115629333
0.15049674302767416 -0.04806570702802942 0.07029334220264301
0.15046209874986577 -0.04892440690856896 0.07090705821533118
0.15047657537921913 -0.04716586896928704 0.07058106916662336
0.15054814299551006 -0.046219405375947646 0.0709103942283402
0.15088073212108624 -0.044250365908314285 0.07056844768537587
0.15061986034992164 -0.04526886640365183 0.07123894354921931
0.15095358748253881 -0.043385549751617854 0.07076545003224968
0.15103870392924554 -0.042533128310613566 0.07087428579211857
0.15098286729605306 -0.042816100695773 0.07094211260568122
0.17529385189582725 -0.082551355562748 0.07308172720183387
0.17508045817193946 -0.08225429638708501 0.07315306551974969
0.1746029240711461 -0.081621092427112 0.07328580943565163
0.17358007845939832 -0.08009324749983276 0.072567505735015
0.17401689137606446 -0.0808844715847365 0.07343226207599247
0.17295002296536666 -0.07935809599435302 0.07270442002591246
0.1723097742294047 -0.07859070027338956 0.07282950900399414
0.1717085711587996 -0.07773307973647646 0.07292407097086796
0.17128771448654448 -0.07697316551401569 0.07253742510862721
0.17097540176285259 -0.0763843039780277 0.07256066591596703
0.1712460207487489 -0.07710910208757626 0.07329170646096825
0.17056685646374542 -0.07559695847563855 0.07255177548497785
0.17009318727639602 -0.07475335212959257 0.07259848604215505
0.16960494539527923 -0.07392941088641786 0.07264170317038579
0.16915374686425824 -0.07323759487469876 0.07270509208011373
0.16838547079393373 -0.07210571015699051 0.0726095517431712
0.1688116321483496 -0.07278995097935702 0.0728632196429902
0.16776465078513902 -0.07142530099985434 0.07267620413673076
0.1667795220923872 -0.0704061861707272 0.07252381007200788
0.1672986303755158 -0.07097560207897215 0.07277165155240616
0.16550505596861187 -0.06920000861744229 0.07220196735618196
0.1660628629804514 -0.06989316595396318 0.07280050798886598
0.1649299556146959 -0.06867283899197806 0.07204503091796974
0.1644521844409551 -0.06832893868906756 0.07222713267039141
0.16489079865643158 -0.06888042344976542 0.07274398071910669
0.1638306382564544 -0.06788836392596499 0.07242481712601041
0.16264211163983494 -0.0668559787521004 0.07214572901840278
0.1631575026721717 -0.06744922484517127 0.07269589585050429
0.16122657933537893 -0.06572898762715117 0.07182663303354775
0.1619285744824644 -0.06644790893142095 0.07246423726849595
0.16036384955013533 -0.06501448288447186 0.07157688939703376
0.15997180522399876 -0.06497347780284057 0.07220175899514049
0.16051355850511653 -0.06544864258909716 0.07245406950308458
0.1596813417250817 -0.06456090353239717 0.07169227579992792
0.15908642095552153 -0.06413564971167694 0.07182526855843588
0.15944853117464333 -0.06464660907062192 0.07239682919079668
0.15848028164351957 -0.06354258908431219 0.07191844785921937
0.15807524334933507 -0.06294921551116857 0.07164642793834518
0.1577426378348757 -0.06247784411065238 0.0717185301892709
0.15798229205705078 -0.06308227295040343 0.07228437109663333
0.15737242681246963 -0.06182123240774838 0.07179108653144631
0.15695251800119264 -0.06111148352590731 0.07194373435046644
0.15648789246079559 -0.060468270754558726 0.07215774676342487
0.15563765112038128 -0.059383062139350004 0.0719542201082786
0.15595642653817482 -0.059951208540021186 0.07238729063975476
0.1546627525540548 -0.0586433423017427 0.07188648206346701
0.1550844898126914 -0.05911679841318014 0.07213605459019024
0.15346893144181695 -0.05758347528009278 0.07155779940301832
0.15305412855439163 -0.057694837321816045 0.07194710440410823
0.1534641582219709 -0.05814609176379741 0.07212151494067602
0.15408033133065754 -0.05852336382304897 0.07212940298773009
0.15298757515651967 -0.057237412171915504 0.0716237250241992
0.15266240121841232 -0.056803688988081094 0.0716809305716447
0.15269178977874523 -0.057413097021444925 0.07208882751663503
0.15240265090530744 -0.05622627906435886 0.07176176894422344
0.15221253623661768 -0.05559261132793587 0.07190914754898854
0.1521211352078509 -0.05419674698582937 0.07160632980704985
0.15208540667836165 -0.054984443178110215 0.07209701198761435
0.1519152937971918 -0.05283135381301278 0.0711925621382349
0.15203927393168828 -0.05357154679609631 0.07182501451156076
0.15169959172958958 -0.052234567581569795 0.0713840708687602
0.15061717128132002 -0.049663244635353966 0.07149801537463818
0.15089445701265253 -0.050316870739254664 0.07209304585158291
0.15114072689064897 -0.050998716133765234 0.07182427941038297
0.15142131919861387 -0.05163761133373052 0.07159538400049692
0.15037428670639336 -0.048095260142807676 0.07121538495702805
0.1504626697032937 -0.04889186927539682 0.07182884661237346
0.15036891810818975 -0.04719343880743871 0.07153693818147476
0.15042638940541986 -0.046253427435452715 0.07186779259406657
0.15075928463620314 -0.04419808222053136 0.07156136416655684
0.15052279794200651 -0.045310458958274326 0.07221959324499136
0.1508672243969504 -0.04329808831318089 0.0713750290925908
0.15090735425931545 -0.04286851511275414 0.07153502616362492
0.1507806757977098 -0.0435060066335615 0.07209906044658418
0.1753185522562179 -0.08294989606506599 0.07411879181899059
0.17498826555989616 -0.08242520536170835 0.07420356964383999
0.17443583839902582 -0.08170100950169037 0.07431336857476299
0.17341549328104916 -0.08012976031592273 0.07358319295418184
0.17384511444180162 -0.08093918648042207 0.07444755834383647
0.1727950940926322 -0.07939780271057996 0.0737272237316227
0.1721806234299221 -0.07864147736398522 0.07387247806234808
0.1716392086233165 -0.07791033588697603 0.07405499854983685
0.17083017546064277 -0.07640813811289354 0.07342231464815305
0.17115186747168573 -0.07720562178744753 0.07424110017470975
0.17036474295012344 -0.07563161799076484 0.07350039470604863
0.16987140808182138 -0.07479202765702284 0.07356550936437108
0.16935865677436432 -0.07394328253818495 0.07355113453150565
0.16899519729964624 -0.07327486794747635 0.07329201938740956
0.1686350355669883 -0.07288305595725346 0.07357822605378202
0.16900924264182396 -0.07353712414231611 0.0738130522497419
0.16799923486802404 -0.07205813676610452 0.07361964727059915
0.16751494419635032 -0.07137483372957118 0.07328263024311878
0.16704927573136943 -0.07094276555882041 0.0733678872067983
0.16742617919518255 -0.07154131339884286 0.07402733764577811
0.16646784633861045 -0.07044709962630269 0.07340145642697583
0.1654388624551198 -0.0695282428849459 0.07331489928777778
0.1659757253027848 -0.0700619976654417 0.0735232249712548
0.16429298750707091 -0.06846657195679383 0.07306131291163395
0.16476737642758812 -0.0690432334547511 0.07361609125866904
0.1636330682664215 -0.06801427985927186 0.07329907591762902
0.16252682542220281 -0.06704325893112867 0.07301440382268728
0.16302189241249118 -0.06757068990677877 0.07350688228141826
0.16119759724277877 -0.0660672152881032 0.07289686241106133
0.16187799027865615 -0.0666802329640929 0.07338726220894734
0.15992191070666414 -0.06514283284629993 0.07288531514736518
0.16051899829710536 -0.06567763125372642 0.07336664532961984
0.15886800217716288 -0.06419731915185001 0.07260503400348071
0.15932450467022372 -0.06474120986981548 0.0731830341258816
0.15834275071179993 -0.06369360743918862 0.07284894952516954
0.15757693612996412 -0.06251651214525077 0.07247159931440506
0.15787993512666781 -0.06316058511571218 0.07309326751945175
0.15719394182355725 -0.06187000268985136 0.07261936172644451
0.1567761749953768 -0.06121193853816031 0.07277563532788808
0.15630693396437872 -0.060585314022953245 0.07295064700045364
0.1553896106869035 -0.05952576865644973 0.07249464835855757
0.15569008626019123 -0.05999737862724031 0.07314843508901407
0.15451192276495584 -0.05897273669996388 0.07245259593919043
0.15498039279095768 -0.059271662523800915 0.07248864275749044
0.15289222177966072 -0.05794283897689482 0.07240629675631217
0.1531785635455832 -0.05834528637465576 0.07263718923582259
0.153727485545073 -0.05867139731540893 0.0726407878116217
0.15237839027053762 -0.0569640884433941 0.07229015514317208
0.15250801264511818 -0.05762969144837983 0.07269245813630999
0.15215527942367918 -0.0563522220486919 0.07248240010241358
0.1520472137379628 -0.0556833686783121 0.07258317618948791
0.15206062147001184 -0.05442185862290013 0.07247068854466521
0.1520255241749695 -0.05515691829784268 0.07267158452189464
0.1519196401755464 -0.052903323914712516 0.0720265828565326
0.15206720667610946 -0.05360999708055849 0.07267341931287637
0.15175488633706843 -0.05223945951831634 0.07223648112784482
0.15070221459018907 -0.04958194820103048 0.07243429425522054
0.1510549141013089 -0.0501649865593803 0.07298106320543361
0.15127972020414548 -0.050874706109300484 0.07271220577166437
0.15154050007215697 -0.05156184604461751 0.0724657688493246
0.1503740843706329 -0.048019854790220626 0.07217557163675428
0.1505684106413796 -0.04874423440875299 0.07278586862278108
0.15035608196210898 -0.0471023494521245 0.07248429135559314
0.15040544056590988 -0.046205453854882235 0.07279963802168489
0.15063014880923317 -0.044395570870674944 0.07262364257082293
0.15051938206618168 -0.045301250605730696 0.07319287007641363
0.15083502337666385 -0.04308333578814155 0.07246319119990358
0.1507339257644732 -0.0436187250355429 0.07300151717371343
0.1754215790177672 -0.083510041593444 0.07506741621214574
0.1752438051174191 -0.08317926349734488 0.07511483121042148
0.17481405926333457 -0.08250613605339208 0.07520711157044291
0.17425886666252569 -0.08174164654659846 0.07530801801886873
0.17326749396726415 -0.0802039576419919 0.07460360271501651
0.1737210403157299 -0.0810006835960845 0.07544779716918003
0.1726411244709404 -0.0794786881954303 0.0747663363195681
0.1720704477619717 -0.0787352856656942 0.07492486671930401
0.17153495130062024 -0.07801526469844042 0.07506712354048795
0.1706903433123738 -0.07647876720294075 0.07437987323297908
0.17104143825191948 -0.07730804223922251 0.07521088386566589
0.17018721256352573 -0.07569873284991363 0.07449894559207905
0.1696339331690177 -0.07481793295554771 0.0746028430112431
0.16920503619077296 -0.07403104421403753 0.0742783805031446
0.168858307279976 -0.07355809626311308 0.07441292323277005
0.16919029368552121 -0.0742970175897343 0.07504308245368387
0.1684041056423672 -0.07291617002060173 0.0745152613711388
0.16787058708154534 -0.07227870811616174 0.07471933497555683
0.1667644800925088 -0.07096372985242497 0.07424650308486686
0.16729553099351308 -0.07170115116324528 0.07498452252186598
0.16621326553343196 -0.07040821116393539 0.07399733171602652
0.16574973667111423 -0.07002086044429559 0.07412595171996245
0.16618146364186495 -0.07054733476253305 0.0747172259774359
0.16518963227791872 -0.06955991185160265 0.07419352296158592
0.1641508911011947 -0.06862564756927636 0.07404589174793268
0.16470433316312905 -0.06918047746993834 0.07431053157191786
0.1634087222664342 -0.06802872848418276 0.07408952393969592
0.16251954411226027 -0.06725820380009488 0.07391519661898219
0.16297185681009463 -0.0676546195001043 0.07403911910721638
0.1612266730451172 -0.06632547228655056 0.07396144798571734
0.16192415889096326 -0.06687102188726447 0.07413455796740931
0.15987315796503782 -0.06526101403551898 0.0737324519697002
0.16047360393742707 -0.06579744597546712 0.07430680959211783
0.15877249423475726 -0.0642659323625746 0.07345894584635806
0.15927151289544572 -0.06480787951154246 0.0740489984737073
0.1582735701136185 -0.06375792779354282 0.07371647202741251
0.1574817677461273 -0.0625558467720551 0.07328664119878867
0.15783570703543484 -0.06318889143072384 0.07394268643277362
0.1570955732884825 -0.0619075766993358 0.07344528274422449
0.156682362923874 -0.06123626836082503 0.07359722454680953
0.15622699846910662 -0.06061703636492205 0.0737175412315669
0.15493542448491915 -0.059423081609312346 0.07295120630717639
0.15459387508168101 -0.059345326391434486 0.07348227898131196
0.15518751351797774 -0.059694072977990495 0.07366611915541327
0.1557895351542649 -0.060156495822212434 0.07395064070287251
0.15421308204455328 -0.0590680644714012 0.07305469594779415
0.15364148915907844 -0.05883379251260168 0.07319518237407034
0.1539973969362655 -0.05904702112232363 0.07376257691211444
0.15282070985755106 -0.05820941590778397 0.07304796424961581
0.15326459814602025 -0.05857786779563474 0.07301469130307185
0.15221102380268342 -0.057158918183552634 0.07312942092772103
0.15244308855639097 -0.05782941787857365 0.07329086688093586
0.15204202511055384 -0.05630263328940006 0.07332234738150799
0.15201802023126632 -0.055593828988887095 0.07308865414342582
0.15207174134396195 -0.055045813586604965 0.07319798469785097
0.15207539635187148 -0.0556876396222685 0.0737244972897595
0.15215710417034864 -0.054315754956387234 0.073340001556648
0.15203849366061756 -0.05286822197393067 0.07289632215174707
0.1522433834720489 -0.053529741344832904 0.07355490753857759
0.15193259540444892 -0.05212731311201547 0.07314275653006772
0.15093411003656862 -0.04938483865164063 0.07349703065938301
0.1511937916875035 -0.0500251110247954 0.0735944772256882
0.15150469579612869 -0.05058894495018692 0.0736232710870889
0.1517472494199572 -0.051376740851566564 0.07336713016044757
0.1504668729721265 -0.04779342199685304 0.07322746856187629
0.15069020432692018 -0.04853328491230316 0.07359478397205971
0.15042291717679904 -0.04687573912197052 0.07329719203164799
0.1504940712071204 -0.04610808684527745 0.07370957595520389
0.1506597736371422 -0.04441148075597363 0.07359388019622173
0.15061329070786025 -0.045208887049876946 0.07412970205803861
0.1508152222677782 -0.04322645846340983 0.07317402725558327
0.15074488735099184 -0.04376730144363721 0.0738791786770834
0.1753343691060157 -0.0836123161842258 0.07579430216419798
0.1750812412973754 -0.0832099712557198 0.07601653007273498
0.1746206764277217 -0.08251207405812105 0.07614429826711723
0.17413307383148202 -0.08177584851670378 0.07625076474046234
0.17314854912114852 -0.08032267872730717 0.07564631039116286
0.17364143542069663 -0.08112910399409722 0.07641097334137736
0.1725253427338524 -0.07959698195342617 0.07582839056130344
0.17194265793633828 -0.07882789867646081 0.0759390575040661
0.17140452404499237 -0.0780951531324462 0.07602894204235514
0.17056406105527105 -0.07660120890902346 0.07538929465881851
0.17095670394536416 -0.07742706803702197 0.07616142983675393
0.1700485526433532 -0.0758367348725337 0.07556069397606896
0.16956600856067522 -0.07511638531027962 0.07573689870955722
0.16875846547069925 -0.07372332737364756 0.07529550996651795
0.1691243480252272 -0.07452154137250494 0.07596038108141243
0.1682896950954901 -0.07308458043973622 0.07551286706869767
0.16777092527196885 -0.0724352472393695 0.07572020448494356
0.1667167408225322 -0.07117044230926428 0.07530160958585558
0.16723316441607114 -0.07184176604186172 0.07597496770664271
0.16552335038220203 -0.07003412164962924 0.07499511515301413
0.1661286459805073 -0.07068755160730375 0.07565324571848328
0.16496321166788022 -0.06951375970258893 0.07477804224014353
0.1644825204301242 -0.06910943581408253 0.0749074875728901
0.16495681291941336 -0.06963643549032357 0.07548335330860881
0.163757487395205 -0.06849915234366907 0.07502617285672686
0.16297297009876577 -0.06776858630532434 0.07465121513763072
0.1626658244041739 -0.06760056640170703 0.07525905929824486
0.16316927315038304 -0.06807484723352149 0.0755902088756436
0.16232351797071048 -0.06726092620927437 0.07468233310856312
0.16169711851491023 -0.06680267569592947 0.07477876682724896
0.16216832451443366 -0.06723958499841903 0.0754169140384892
0.16105236114425747 -0.06630862018606813 0.07495146396241072
0.15983613252368867 -0.06532857840977235 0.07463225208618582
0.1604127912177822 -0.06583801037098211 0.07523533762381268
0.1587445733091521 -0.06431511391342704 0.07434089519153556
0.15927484421258062 -0.06484352953091128 0.07495178846567895
0.15827086804730442 -0.06378345009960436 0.07459272805732162
0.15745354071352277 -0.06256364409054928 0.0741281148628918
0.157860771840563 -0.06318856370740478 0.07481030634699497
0.15707445189066846 -0.061885725781148544 0.07428389244624553
0.1566517480693626 -0.061135687173070975 0.07446239269119803
0.15620907634551962 -0.06056149846102873 0.07428733134386434
0.15596888141760287 -0.060252835283072945 0.07453534311449428
0.15637394194126797 -0.06062751847022793 0.07489554648596732
0.1547021912121704 -0.05940802335045751 0.07411868862950713
0.15543079805307838 -0.059801066852014126 0.07451321533781644
0.15322022729703744 -0.05862714925450087 0.07363689772873838
0.15298263487054722 -0.05845667633030451 0.07426843923240221
0.15359676581689538 -0.05877376839458388 0.07452612362229055
0.1542501639725287 -0.059133843018859336 0.07448780259319968
0.15267218026897533 -0.05819593009949446 0.0737558737577792
0.15234019682097016 -0.05769227338930552 0.07389026068013971
0.1526290553362412 -0.058080332751820396 0.07448122063524736
0.1521386478015321 -0.057044182881120994 0.07402427497090401
0.15209293354732845 -0.05635101220211393 0.07426978369785807
0.1521893676025482 -0.054998164920253584 0.07397548335934034
0.15219706721563267 -0.05566311289257273 0.07455865656868367
0.15234790394186773 -0.054205203956722174 0.07423157686164816
0.1522498316016085 -0.05273819680085834 0.07382174974690223
0.15247063253492993 -0.05338494532077545 0.0744658287730242
0.15221308894612157 -0.05187274602889329 0.07415475668154732
0.15118309319193604 -0.049754989832352256 0.07386326948880237
0.15142037453322574 -0.050034401426286096 0.07407637279221131
0.15185072045461112 -0.05040413666530557 0.07451292508520782
0.15199254427241887 -0.051075490055186974 0.07421168585088969
0.1506822555541535 -0.04794399792236985 0.07403093425963977
0.1510417243063188 -0.04854940888382828 0.07447002272103644
0.15129734805942194 -0.049422717544760346 0.07432945015244787
0.1516058806367794 -0.049824900124872416 0.07460005552257545
0.15062732929295505 -0.046954208244403224 0.07424103222855752
0.1508465230793663 -0.04766743746735928 0.07462966231688083
0.15066360292933337 -0.045902665091954065 0.07452017937470828
0.15073054925123622 -0.04440554547965961 0.07453871518853543
0.15077906696342147 -0.04515581592774207 0.07504220840290098
0.15079518059590372 -0.04398411040117056 0.07473260565379335
0.17517198669868778 -0.08355337080837313 0.07641071279747766
0.17483444650348648 -0.0830836318149528 0.07678663224313706
0.1744418594783439 -0.08247680245828261 0.0770246105532528
0.1740505472702837 -0.0818207198533319 0.07709131126333935
0.17310760100578415 -0.08057453889845975 0.07683081831671251
0.1736837511900512 -0.08134265573831809 0.07720079299838986
0.17239930480234905 -0.07967945123902503 0.07688143435990187
0.17179501422183932 -0.0788746909714287 0.07691458844133965
0.1713022697459905 -0.0781495475451726 0.07689385257245133
0.1704972013639289 -0.07683033128080702 0.07652576316909984
0.17094052361552164 -0.07760769366321511 0.07691262331490983
0.16992800499863286 -0.07597231325650439 0.07660562742770301
0.1694586167836395 -0.0752616411702933 0.07664469183316543
0.1687180598272648 -0.07398455909184617 0.07637342368869664
0.16910590336989023 -0.0747322204413611 0.0767040439943246
0.16819402980991904 -0.07321225882666257 0.07651194988293844
0.16768830427654757 -0.07253599026911883 0.07669546585604249
0.16668399066898992 -0.07131262703855809 0.07628335376362212
0.16720142765245666 -0.07194267667647426 0.07693959460261843
0.16552774403872503 -0.07022000558568746 0.07602386586011367
0.16610842965797046 -0.07081889565828546 0.07663034640459801
0.16438083273660878 -0.06916409543267618 0.07578722150378718
0.16494750480400172 -0.06975856505562116 0.07640187230381733
0.16377924885275622 -0.06868627466831839 0.07612710059297917
0.16267573277825492 -0.06769766906895425 0.07597884132370673
0.1632253561680655 -0.06824063045567505 0.07651551950065505
0.1615764640516831 -0.06679175791683276 0.07561650558309536
0.16212407448225805 -0.06728107360281489 0.07624632211860248
0.16098531400507105 -0.06632748504418577 0.07586583119336467
0.15983101701467092 -0.0653615969018269 0.07555478162419291
0.16040743539948546 -0.06587256057241811 0.07615312501106213
0.1587654256113097 -0.06434302912561694 0.0752382420681101
0.15931591687631386 -0.06487388199872039 0.07588160464253524
0.15831783586176695 -0.06378183878983473 0.07549001480932323
0.15749216614697714 -0.06254168386597003 0.07499271971061336
0.15793428526503822 -0.06316760547784268 0.07570452837455405
0.1571450051417564 -0.061843213070301356 0.0751787415971631
0.15683033607879163 -0.061167227050488764 0.07542656737839008
0.15601099034056118 -0.06012486918093904 0.07515417148756212
0.1565155410636847 -0.06055411379984238 0.07567932697884705
0.1548546226911491 -0.0593540042241825 0.07491724231147817
0.15553024990141318 -0.059630556339218335 0.07540418233315509
0.15311055701378207 -0.05838225984131377 0.07500385752009099
0.15370069247143614 -0.05862483800533738 0.07545226904954597
0.15425423073415354 -0.05898236464528767 0.07519622576958819
0.15236412789700307 -0.05754681752548231 0.07470041870819749
0.15275771786397005 -0.05792819432967578 0.0753028813813447
0.15221595867310664 -0.05692060085983658 0.07489856329856606
0.15223663524094413 -0.056273136604909534 0.0751334638560587
0.15237117054852944 -0.05490010851065251 0.07486948919430861
0.1523642774182148 -0.055580134718419244 0.07545175102212971
0.15260658653625145 -0.0540206235178456 0.07525107748382066
0.15255612505057894 -0.05252643410950793 0.07480608246076005
0.1526874891804292 -0.05320271910074231 0.07523212043636202
0.15250361192640663 -0.05189799736641905 0.07486341392570577
0.1521737323845865 -0.050813816354182216 0.07473860552280487
0.15240951028857316 -0.051282117102352864 0.07495958777604626
0.1513753239906499 -0.04895605261348349 0.07483889790346153
0.15160925777949344 -0.0493087809391562 0.07500093444121642
0.1519356036207413 -0.04984333036966184 0.07513471871995896
0.1523224492758906 -0.050454140473311294 0.07533120290488078
0.15091223175628743 -0.047039531638533943 0.07509204125791638
0.15117306978115283 -0.04766928157315923 0.07531652297687799
0.1516070348824392 -0.04849128874087506 0.07556120164673755
0.1519302314824345 -0.04924505407179174 0.07557033409133546
0.15091189477449868 -0.04606913851183806 0.07534116811630409
0.1512237286994867 -0.04670632336227073 0.07589321429170437
0.1508920696887477 -0.04448151564510428 0.07542165410745966
0.15104538410581603 -0.04509650730769528 0.07594282853790235
0.17456433136566263 -0.08290072386659632 0.07766982354746127
0.17429325437704687 -0.08245038173648701 0.07787857834439382
0.17395399080680318 -0.08183684431598075 0.0776855322657243
0.17360409461066154 -0.08144542371408711 0.07796996308541236
0.1740529623078429 -0.08214507236713302 0.07823353274332764
0.17293879203264265 -0.08055819877697647 0.07790658341157451
0.17226110313014617 -0.07970089856830848 0.07789569238133194
0.1716317772089752 -0.07882204452987263 0.07789430125589955
0.17116726834656829 -0.07807560116045018 0.07748406906888472
0.1707967987620819 -0.07753921207719496 0.07751732503555304
0.17118120130551295 -0.07824541522585649 0.07823796274803707
0.1703014851976457 -0.0768074872430235 0.07754662788145322
0.16975058039684213 -0.07597151727805364 0.07762527965576835
0.1693197046715217 -0.07521533882912039 0.07725524017030899
0.16899128439789782 -0.07468086717117733 0.0773128013874171
0.16932691560118335 -0.0754027429127686 0.0780043917652068
0.16858142222397784 -0.07399279653217214 0.07736388664660988
0.16811173038461483 -0.07327688712930688 0.07748353040004208
0.16764668941749228 -0.0726060156604908 0.07763370289994903
0.16668264784727246 -0.07142886519907411 0.07726219801341969
0.16719767641507005 -0.07204440379126686 0.07785129642398872
0.16552893098098392 -0.07033367782355755 0.07699899544719524
0.16610991957274351 -0.07092807664673825 0.07761876930559594
0.16436536313233752 -0.06929194248752324 0.07674858318425784
0.16495099020556664 -0.06987044748906661 0.07736215924557012
0.16380034292216167 -0.0688172570818191 0.07710262680411308
0.16268540162687917 -0.06780361837576121 0.07685390659969345
0.16325741755645845 -0.06836064407233973 0.07745250487863725
0.16154876013906902 -0.06682224457782597 0.07650891551639039
0.16212499454738336 -0.06733738713194601 0.07716160706871976
0.1609755656402558 -0.0663614052433416 0.07676548965201695
0.1598900910672913 -0.06540462518535942 0.07650303385417079
0.16045155013417692 -0.06591043709677653 0.07704990805187556
0.158834689807228 -0.06435807284762302 0.07617205999717207
0.15939583871275456 -0.0649171031402983 0.07684098140242561
0.1584121977604102 -0.06377944065585252 0.07642604679453936
0.157595655182187 -0.06249498703613554 0.07589002192764266
0.15804371175487045 -0.06314103845533829 0.07662937618084317
0.1572950347397219 -0.06179351965324122 0.07610123898897607
0.157005429463211 -0.0610596399435178 0.07636884223883197
0.1561878892676021 -0.059963521220174065 0.07608142149723938
0.1566602805914428 -0.060448657220452 0.07632093590780026
0.1550466916645432 -0.05914702557500311 0.0758965679211137
0.15564468945399412 -0.059484298111218206 0.07604513301393989
0.1533809362091056 -0.05819282257612211 0.07599552314358729
0.15385003978098888 -0.0584943861041625 0.07605382225569578
0.15428734879763809 -0.05875809387578178 0.0759469810401082
0.1525209994336234 -0.05733619043636208 0.0756304886427604
0.15290801606544693 -0.05774730957008656 0.07600963029482963
0.1523577328291246 -0.05673224004636655 0.07562891222505616
0.1524368229550844 -0.0561741551010929 0.07599625755881059
0.15257788363913982 -0.054823348574089575 0.07579307857616452
0.15258377722422156 -0.05546163117034229 0.0763621893023287
0.15276690174047414 -0.054188617308143755 0.07614001911900502
0.1528009344746693 -0.052687032254634544 0.0756046466877982
0.15288313109570556 -0.05337448356707622 0.07608116894876903
0.15275514204372398 -0.05189743148162897 0.07557712014373896
0.15299222937476223 -0.05245853584491864 0.07637775538338169
0.1527369357265421 -0.050972074854041885 0.07590601688237726
0.15232361635409625 -0.049672668323922774 0.07589184830251207
0.1527044076192814 -0.050172818800408504 0.07625528437788363
0.15158301611274663 -0.047348427744902354 0.07627122972757339
0.15198323536709818 -0.04792936045023793 0.07672837558264656
0.15217592640488603 -0.04887091151746908 0.07631573314729534
0.1512643059919742 -0.045770332362479405 0.07639450856961338
0.15156534945518915 -0.04640611660854264 0.07685143027613635
0.1510861814166372 -0.04469293768335054 0.0761766242562519
0.15125339981555735 -0.045134270858591403 0.07661729156378289
0.1744398070503443 -0.08296822619146246 0.07856242369463279
0.17427820898088586 -0.08261931483160542 0.07858323347481531
0.1740112448567895 -0.08228445693352104 0.07892103938322777
0.17433943665080928 -0.08292043917329041 0.07904495513109434
0.1734318873462147 -0.08141589684549862 0.07893075658361169
0.17281768293786248 -0.08056471545731929 0.07892282920276195
0.17219042829677284 -0.07973941019332526 0.07891393169074938
0.1716343728707146 -0.07901450453390822 0.0789846847857371
0.17073264292742363 -0.07763174400188239 0.07843388935655209
0.17116871572655343 -0.0784078103111282 0.07916382480840253
0.1702228234097746 -0.07692467303798854 0.07858904779983726
0.16972527688818698 -0.07619993461448694 0.07873491433717267
0.168942862116997 -0.07477376333808969 0.07820192540844134
0.1693037333568256 -0.0755561512513567 0.07892243792867536
0.16851371400976478 -0.07406097073503431 0.07834448959338096
0.16804881631653978 -0.07330126076638856 0.0784366618530787
0.167612982291146 -0.07262875929223529 0.07848023594732782
0.16672603933457494 -0.07158595196671633 0.07831293096665647
0.16723746716761864 -0.07216067115966374 0.07855604542324902
0.16553736651447315 -0.07044133246599897 0.07797051966635403
0.16611707418587013 -0.07101129028259304 0.07858833223373983
0.16436255136838754 -0.06940197845770296 0.07771577726816947
0.16495414933376396 -0.06998320085452667 0.07833094596068083
0.16381238226081143 -0.06892316843372433 0.07805712048054589
0.16270925103835554 -0.06791015128932125 0.07780783378375226
0.16329775246825154 -0.06848533515366399 0.07838333727600262
0.1615452660197176 -0.06685470268013413 0.07744605707479152
0.1621434896927504 -0.06741674908487151 0.0781584220228223
0.1609705642942206 -0.06637976257928913 0.0776227356868819
0.16001744681167762 -0.0654970776440746 0.07754508409305295
0.1605430359056799 -0.0659976057462954 0.07777182971029263
0.1589362079402901 -0.06437820647699173 0.07714443225989748
0.15947417953923415 -0.0649568723022961 0.07778876625712723
0.1585279462610842 -0.063776660600239 0.07739969699821579
0.15772799508465746 -0.06245451966180387 0.07681571961721322
0.1581685157559421 -0.06310981160868132 0.07757580896295274
0.1574700448683927 -0.061770034505359776 0.07700204661627469
0.15728032838426384 -0.06120566200276098 0.07720395989365154
0.1566029402776639 -0.06019848758295338 0.07658413027773299
0.15693576133899426 -0.060564746137529143 0.07700465062853389
0.15554286106547657 -0.05927833553798569 0.07633681061828583
0.15595247254871283 -0.05949794708938913 0.07660993131696826
0.15653529051876466 -0.05992978647495224 0.07703077547770017
0.15381973557705184 -0.05832732998925675 0.07639449243283039
0.1541984707197886 -0.058486092547861475 0.0765150671947807
0.15480859556261697 -0.05874995348972384 0.07661221049185765
0.1555358175932302 -0.05907529904346576 0.07685851151223809
0.15284456754289247 -0.057385433021190875 0.0763912588307402
0.15326629369234007 -0.057715226493639596 0.07669913535107256
0.15396328826664799 -0.05810096917713964 0.07704377753681996
0.15458495724178287 -0.058441711544922254 0.07708639835031018
0.15266238250255634 -0.056808122772747334 0.07645382465507876
0.15307667128135893 -0.05719549680310655 0.07712006206375438
0.15268390653819336 -0.05606808122491998 0.07690678981444539
0.15277217274790603 -0.054741645190999555 0.07669015904731545
0.1528057284997782 -0.05535169111216354 0.07728228647102259
0.15293820117370827 -0.05397280292606505 0.07692401514242159
0.1531114607385787 -0.05310275462632826 0.07712170554038285
0.15302872572745263 -0.051516098905607176 0.07660408641043961
0.15322964509022663 -0.05216220875427895 0.07737083079342692
0.1529865745000297 -0.05060476940212458 0.07678514097577245
0.1526744323868179 -0.049449256480559686 0.07684166003962584
0.15289683344332067 -0.05002774272375739 0.07683573931109225
0.15188170029875128 -0.04700673271881456 0.07725565009201393
0.15214514237485077 -0.047558310436484286 0.07758542766628462
0.15241617041903044 -0.04843524005853089 0.07738853444673992
0.15154016703381365 -0.04569875779231177 0.07731614088502446
0.15181850495284957 -0.046200933341340455 0.07785076934841814
0.17441057483930364 -0.08316356032795968 0.07916776873062517
0.1742122341612183 -0.08283736477122242 0.07940727636512106
0.17376572672448842 -0.08210200630599367 0.07971440806573626
0.17328128155413422 -0.08138497919995269 0.07991992951970525
0.17272462752683787 -0.08057361034769957 0.07993324717958156
0.17212735606497573 -0.07978312589824194 0.07989912057619922
0.17159778839157624 -0.07910278291239654 0.07986380757888746
0.17075388285475665 -0.07787573820923542 0.079581778660634
0.17124504434147217 -0.07862338483361006 0.07994396111337913
0.17014918525419637 -0.07701910957877282 0.0796410762523218
0.16967053631697449 -0.07628125669986689 0.0796502560248655
0.1689424485367477 -0.07496336268999793 0.07929292444498119
0.16933405123702994 -0.07573538493944647 0.0796811247583706
0.1684437654951927 -0.07408768218380765 0.07934754040246578
0.16793961040671884 -0.07322717191831843 0.07941617035934712
0.1674992221715616 -0.07253666954848315 0.07906614434744091
0.16710850354244194 -0.0720839967329972 0.07915162587402194
0.1675329924824369 -0.07266730616047709 0.07979784191094322
0.16660844645578202 -0.07154607014901879 0.07926314401367299
0.16556167179894316 -0.07055964789476686 0.07892647103145174
0.16610741730538447 -0.07108105612477708 0.07946880579203651
0.1643726111182383 -0.06950442579984152 0.07870781289953135
0.16498578831972166 -0.07010715149583974 0.07930829930001865
