# .PCD v.7 - Point Cloud Data file format
VERSION .7
FIELDS x y z
SIZE 4 4 4
TYPE f f f
COUNT 1 1 1
WIDTH 789
HEIGHT 1
VIEWPOINT 0 0 0 1 0 0 0
POINTS 789
DATA ascii
0.07989979635504248 -0.12003748111741078 0.07684569273891745
0.07990454919410825 -0.11940705642888014 0.0769436689110395
0.07988325410318178 -0.11875424193162612 0.07706135189708345
0.07987967804723535 -0.11809049310268266 0.07718277876350219
0.08005194704313161 -0.11745107145468421 0.07653667286266003
0.08008161686590264 -0.11678015514723739 0.07664845012722286
0.08012293979896387 -0.11610043452478015 0.07675347939024693
0.08017627212434686 -0.11543144419881028 0.07684945456663443
0.08021128088391309 -0.11476298281964316 0.07696442254982852
0.08021667645490152 -0.11409034685625694 0.07711648793955471
0.08016619359182031 -0.11353401042021496 0.0773224951869604
0.07993532429581998 -0.11227739649126837 0.07680762960481044
0.08007057225001753 -0.11283115547958415 0.0772276280004733
0.07985386532107455 -0.11209066184189755 0.07742624446010189
0.07965503481533553 -0.11163339907167831 0.07679001746709599
0.07931529214021445 -0.11092075819045479 0.07706564609158154
0.07896374790416849 -0.11028533534109258 0.0772885040186627
0.07856574332013874 -0.10957770699832094 0.07763317038730866
0.07817434062339404 -0.10889325079023875 0.07765607016336204
0.07782371340396883 -0.10827732683294482 0.07727999292235727
0.07744803419895024 -0.10754876677833368 0.0772384274827164
0.07717151649641611 -0.10696682208587846 0.07750951370457153
0.07683353080933536 -0.1062216840057267 0.07776297627182982
0.0764824402771203 -0.10544298084684808 0.07801919428878898
0.07620695622503998 -0.10474495700810844 0.07831986695413772
0.07529286326117268 -0.10316498848391689 0.07784178805216056
0.07573378940858183 -0.10382376268790824 0.07837173003187746
0.07526233676818404 -0.10290495787924114 0.07837642522172418
0.07480819598385151 -0.10224425467159426 0.07782785477280288
0.07431283827487825 -0.10129067877258185 0.07783700948392959
0.0740127828432106 -0.10052561411619787 0.07809542069321361
0.07363237842328567 -0.09960643846174108 0.07824587193035822
0.07331193938586753 -0.09870196570093126 0.07836005358408744
0.07304811127097345 -0.09777224345208976 0.07850581967302954
0.07275891282316485 -0.09679415305467305 0.07861621739346884
0.07250745316329872 -0.09580703288116454 0.07867770373857022
0.07231643910567237 -0.09487348581865034 0.0787966516376197
0.07211664049366244 -0.09407678351836415 0.07872227725738566
0.07186089046781587 -0.09338709967531288 0.07842348677659451
0.07183910212489787 -0.09282236055973318 0.07883945499018243
0.0715750477137293 -0.09171659441794 0.07893785518553242
0.07125226602424917 -0.09067310149555685 0.07902478745107504
0.07092152136371127 -0.08967293342907592 0.07912287937079417
0.07057403830399621 -0.08868895050608916 0.07924417526179316
0.07027019823446497 -0.0877456900474694 0.07938703848333194
0.07000008267942238 -0.08684190846958642 0.07954148225016147
0.06965496034964887 -0.08594498011585894 0.07888181122108388
0.06946551499234777 -0.08507180836439802 0.07913596069203144
0.06921389348506704 -0.08415123783162773 0.07939712154118965
0.06891395352542198 -0.0831745490388143 0.07960215574096834
0.06852387174073189 -0.08226147523515737 0.07974356139590381
0.0681742808715317 -0.08167652085375118 0.07931690853854399
0.06810405939060112 -0.08122461016295951 0.08000110352795148
0.07333536470942367 -0.13423642442894085 0.07946376608886291
0.07354503584008541 -0.1337128615855594 0.07957417775250097
0.07414227318069909 -0.13274107308150035 0.07955418610549961
0.07478406013493386 -0.13164618891639832 0.07944853171027394
0.0754167035739767 -0.13082430634120484 0.07913268813549443
0.07498992019048405 -0.13115337891868584 0.07966185152188471
0.07562749685468556 -0.1303413364165061 0.07933085432564532
0.07620873817046266 -0.12931505762441922 0.07917602523189095
0.07671736363922103 -0.12831939252113692 0.07905719436220769
0.07714649634291038 -0.12748232142032545 0.07894587161965143
0.07739947598484295 -0.12691352502674502 0.07892503885598705
0.07783783097204933 -0.1261341857872839 0.07852340763363888
0.07822774173295174 -0.12527363791233034 0.07844404634195987
0.0785772774442586 -0.12443054418875071 0.07834987986328122
0.0789654808273455 -0.1237353119566029 0.07796755574675499
0.07862520379159334 -0.12391145997927135 0.0786021974337389
0.0790684181736683 -0.12326334790405714 0.07799603200457535
0.07918532568607861 -0.12260912218632052 0.07800221208679414
0.07925092739616543 -0.12190810920118136 0.07807303787339813
0.07927476625974977 -0.12126961384093815 0.07820414003263541
0.07963498321560775 -0.12063014801844979 0.077522665913327
0.07965664098889574 -0.12002209426241851 0.07762342039853301
0.0796664442660316 -0.11938894604159443 0.0777385296089322
0.07966730644111324 -0.1187302663387269 0.07786572092307575
0.07966287507920153 -0.11804212219541249 0.07797272371270303
0.07987465842483694 -0.11739818030912999 0.07728908166970079
0.07989607185874223 -0.1166999488534839 0.07737690245650448
0.0799634998811673 -0.11602154481864105 0.07745687998840105
0.08003543060090464 -0.11535026598617666 0.07755934861484151
0.08008632593697844 -0.11468049202455306 0.07768928282308042
0.08008889970727957 -0.11401813794092418 0.07782471938552066
0.08005412710550529 -0.11334908277798886 0.07794796985947634
0.07992409219090212 -0.11259015730147626 0.07813641602422995
0.07976296508015147 -0.11191452207773517 0.07806815722213593
0.07955988688945433 -0.11135963117782904 0.07765853322642241
0.07923195521640025 -0.1107281051442341 0.07765973240668134
0.07895223585183779 -0.11022646613689525 0.07798642770500469
0.07867164772944825 -0.10971269567962372 0.0783259232450053
0.07795407926910458 -0.10845662433184067 0.07798179950335318
0.07828832716312081 -0.10904896402478129 0.07834110874156332
0.07788140247321844 -0.10828679234899738 0.07862621867568431
0.07757546715757015 -0.1077091758224617 0.0779675275057522
0.0771821381444709 -0.10687891553498753 0.07827398954528014
0.07683706201081798 -0.10608652450978037 0.07851462976922326
0.07651100863278891 -0.10532044069658736 0.07874372657100098
0.07617230418898234 -0.10455011885116816 0.07894601659429608
0.07588091819407558 -0.10387316242701174 0.07919870076731077
0.07502292433256175 -0.10231585573140932 0.07863928142192245
0.07544288259049337 -0.10294888470353583 0.07920196892127623
0.07499257982940934 -0.10199225170110109 0.07916991041910397
0.0745827994541949 -0.10142375318911494 0.07857271556609174
0.07413020500882714 -0.10031409261564538 0.07894212839197753
0.0737072732837854 -0.09938570123616645 0.07885940548384479
0.0735045313348491 -0.09863087665821815 0.07908784597252363
0.0732754424185553 -0.09767974131364197 0.07934286630479867
0.07293908643426583 -0.0966051184771648 0.07932689667225888
0.07269798187186169 -0.0957245502484824 0.07933836718213992
0.07256585349579157 -0.09513284370631721 0.07943725068717065
0.07237445742369719 -0.09444882421516686 0.07926409740484956
0.07268177223219509 -0.09497368748957716 0.07989233367294296
0.07212529761356161 -0.09371628606705767 0.0789953500627559
0.07236281346366963 -0.09390338332447384 0.0797028712374313
0.07204936782871525 -0.09276415922543481 0.07975408313058074
0.07173041598585748 -0.09168706852039815 0.07981979037721292
0.07139311441731218 -0.09065564876302327 0.07989903997027267
0.07103114696272791 -0.08964065957422646 0.0800009289752914
0.07067592764387112 -0.08866105089301794 0.08012314570760512
0.07038178485626002 -0.08771234796524695 0.08025455246166037
0.07011041180514584 -0.08682230132063608 0.0803393875209618
0.06981635436867607 -0.08602578057613519 0.07974426573826379
0.06969203134725384 -0.08524332019628222 0.08016627873652643
0.06939780169677481 -0.08414690231044239 0.08035713601036418
0.0690324412744558 -0.08303086556754881 0.08055784887012661
0.06855116345565915 -0.0820850109823726 0.08032209860280443
0.06827104780925833 -0.08163064376449122 0.07991042051702126
0.06833663358869431 -0.0815089027983318 0.08050024070197749
0.06819654222748173 -0.08104139459682651 0.08078463913873812
0.07308699201483893 -0.13424407690587706 0.08028364345945142
0.07332350848482483 -0.13369952139012078 0.08047945972448693
0.07390759494862205 -0.1326983476676174 0.08050809080537856
0.07449728408833485 -0.13175291265251296 0.08014975299087276
0.07418625479229181 -0.13208228393595606 0.08086800465947466
0.07485264226621821 -0.1311919745982419 0.0802319314921108
0.07540403200217445 -0.13033371177752132 0.08016992530495617
0.07591404194745435 -0.12934936487000473 0.08006341191996144
0.07642341684434653 -0.12830434886242165 0.07992380384943797
0.07693873895081461 -0.1274439939788015 0.07947910269318906
0.07654567204335402 -0.12769408721729145 0.08016740611400831
0.0771701211491553 -0.12689265951385004 0.07947533155722206
0.07749491876290898 -0.12614213022085152 0.07939855671182001
0.07784836701890885 -0.12531487054334273 0.07930928197791175
0.07815041454041621 -0.12460354484231992 0.07924383310969525
0.07831427729275212 -0.12412084955754538 0.07925295378721672
0.07863707008729451 -0.12343649544759037 0.0788788619124745
0.07876594009210959 -0.12267068979787853 0.07888755666412775
0.07886298054505606 -0.12198048248345807 0.07895550703453767
0.07893688280787718 -0.12132115720632691 0.0790470457990505
0.0793297638538857 -0.12065323939473784 0.07831652603292125
0.07938341909787468 -0.12002806974637958 0.07843582247983447
0.07940022407148176 -0.11937222472436265 0.07857264562499551
0.07941561731910227 -0.11868851176687546 0.07870923338939599
0.07944329127266174 -0.11797133654341806 0.078802727051325
0.07967493374651131 -0.11732794476913877 0.07807276221621903
0.07971599278291508 -0.11661067460447194 0.07811820883466347
0.07980298058274167 -0.1159512749398131 0.07818377438939107
0.07985490395598177 -0.11529079534535043 0.0783005535533075
0.07990402414006183 -0.11461452495804048 0.07842558808359636
0.0799164205157415 -0.11392791055645976 0.07855153045967159
0.07988440570996408 -0.11327141676040267 0.07869913010944372
0.07979662297962246 -0.1127402740907846 0.07890433144828651
0.07959345958315629 -0.11149413445958685 0.07837753406894929
0.07970021310396896 -0.11206219770148021 0.07880136553512702
0.07944609153466728 -0.11135951960987597 0.07904343029110232
0.07929057766435765 -0.11085644603162445 0.07837327976740692
0.07892081294127669 -0.11018261526405203 0.07873654497945536
0.07854511656762914 -0.10954707632125961 0.07897329438505428
0.07815434613649935 -0.10885036432913062 0.07918387379364927
0.07775187411697466 -0.10811005136109816 0.07942730364773307
0.07748140166834902 -0.1075238670895394 0.07882934480307298
0.07712430905082078 -0.10673125056453844 0.07904623418394051
0.07678351394092299 -0.10595162497135555 0.07924433911617021
0.07645879811452856 -0.10519039797733558 0.07943633532178072
0.07615519710746241 -0.10442652321420205 0.07964664596129926
0.07582910550924073 -0.10365750170985577 0.07983170832205119
0.07555089272807192 -0.10296209926886558 0.08005115912345086
0.07467823430214113 -0.10119079636140683 0.07944859804582337
0.07516288090719633 -0.10206375986423473 0.07996608237744937
0.0743915593601752 -0.10040880034797751 0.07969297394755542
0.07475930136777831 -0.1009265812978443 0.08031644360785127
0.07437386957879562 -0.10004062501542041 0.08016680029708852
0.07398590053542624 -0.099533682605375 0.07956732366374157
0.07371791634553403 -0.0986127767272989 0.07979174463147425
0.07358504197527471 -0.09800080333269603 0.08001193221892319
0.07334540972173412 -0.09725391259284905 0.0799653125573774
0.07370679168010781 -0.09789792541849963 0.0805323716657267
0.07305243890399535 -0.09634392866241621 0.07993041577691562
0.07343507669134557 -0.09699179901277422 0.08057725894937123
0.07281786673033067 -0.09561095320120912 0.07982651165257174
0.07310378245098413 -0.09590376532554486 0.08049379593881503
0.07282451986982535 -0.09483958166664505 0.08056772228511373
0.07250839734345708 -0.0937709769620171 0.08058386378736526
0.07220068099876892 -0.09269454905535343 0.0806244627214288
0.07185266163969706 -0.09164338850826259 0.08069136056186214
0.07148606471499151 -0.09061222126437574 0.08078044437398195
0.07111180444314154 -0.08958989052672355 0.0808879075165222
0.07076529585456204 -0.0886096433392057 0.08102597495346738
0.07045420961832446 -0.08753977830092635 0.08117700259964494
0.07013692887569833 -0.08663878733173581 0.08090729027491193
0.06993863832522944 -0.08615250958462456 0.08043480252704863
0.06997998170704535 -0.0859685802937748 0.08100595833122944
0.06978169980244336 -0.08509585662535663 0.08111782549575398
0.06953960631198555 -0.08414567273481655 0.0813277640545117
0.06930048121271536 -0.08322618375459581 0.08160668908935775
0.06877200969744368 -0.08224323426078921 0.08102172916003089
0.0684828549172268 -0.08147509174293055 0.08131846828366647
0.06830025029722604 -0.08082547177018674 0.08172851698386967
0.06821086249137828 -0.08032128188783164 0.08225531446430745
0.07290726407834844 -0.13421878487194747 0.08115681426242663
0.073186292976716 -0.13367641724767726 0.08139152291077081
0.07356255815960581 -0.1329310132692282 0.08150142024445661
0.07393720544095887 -0.1323467362030563 0.08156981958972058
0.07452676849171093 -0.13143985613333356 0.08116525705685536
0.07512707774347027 -0.13041684071696436 0.08107575394981036
0.07561992697087969 -0.12941572806486215 0.08096947903672888
0.07599585606179879 -0.12854041175531103 0.08086983268727825
0.07619896501416222 -0.12794441384846794 0.08084959165367246
0.07669878366827389 -0.12711586151058357 0.08039908806160455
0.0770809693745327 -0.12619813162903848 0.0802943806605561
0.07746588968805598 -0.1253175986973658 0.0802161804628912
0.07793798210032768 -0.12457886470302817 0.07978255388617465
0.07755109773256283 -0.12476915604179775 0.08047191211200948
0.07808635647399163 -0.1240863148085318 0.07977674119737099
0.07825713804042712 -0.12343107793089558 0.07974725258215642
0.07837798217220132 -0.12272210451231007 0.0797818089132795
0.0784833637713793 -0.122021116017925 0.07982679206038708
0.0785680641272866 -0.12135356724812815 0.07990876212634782
0.07900821756787829 -0.12067827829792847 0.07915868153843782
0.07906915575524613 -0.12003560243755011 0.07928937964861266
0.07910677241949497 -0.11935905542311427 0.07944046383756752
0.07911748847312766 -0.11861068494350872 0.07965095445856903
0.07924288017896257 -0.11788729196821217 0.0794950360796081
0.07944296333949231 -0.11721195023963386 0.07893419054130897
0.07956787103906535 -0.11648832167718068 0.07874614352930585
0.07958381143356007 -0.11593608447726693 0.07893586840569136
0.07964442058569618 -0.11525379045599479 0.07907785474151012
0.07969444130132577 -0.11455694295110325 0.07920111995897916
0.07971199285320706 -0.11387513127751203 0.0793237287152435
0.07969483336841283 -0.11324004722506033 0.07945900624937764
0.07962170026715121 -0.11258969961989 0.07955254332267314
0.0794712161821102 -0.11189915857816707 0.07966745404251352
0.07923393519273901 -0.11123288333211889 0.07986426258320879
0.07913639606559525 -0.11069639788323618 0.0792580278649803
0.07878364900610815 -0.11005161132023912 0.07952817996805217
0.0783912591889539 -0.10940434562077629 0.07977770350906419
0.07799099816728634 -0.10869222680338657 0.08003148419991121
0.07760616080201849 -0.10793415153893923 0.08026581320675345
0.07736651332322701 -0.10734475860742584 0.07965235501877027
0.07701170878458344 -0.10656859086167787 0.07980909837053742
0.0766924935909115 -0.10582525195607863 0.07996545926233642
0.07640202369303076 -0.10507487747204997 0.08017346669982378
0.07609995569453726 -0.10428979191329382 0.08037340136231544
0.07579016315165886 -0.10351229893797566 0.0805692391575872
0.0754884060161989 -0.1026780116741735 0.08071836397810625
0.07516086690132531 -0.1017807723110434 0.08088778970983157
0.07490648332833935 -0.10099495341631767 0.08110929904459581
0.07410290203401874 -0.09926687165508119 0.08030796924254091
0.07453200326326874 -0.10005404100995272 0.08092080855428833
0.0738568440240111 -0.09852316097851307 0.0803400211394132
0.07411520334058504 -0.09884051280569195 0.08100861638275918
0.07382244470853695 -0.09779931659146403 0.0812185746202621
0.07355142646392014 -0.0967885291525205 0.08128056119550174
0.07325965252732618 -0.09575570790259186 0.08132478109836248
0.07294793328084899 -0.09472263760836186 0.08138356127718893
0.07262502037449141 -0.09367747788930894 0.08142928707229792
0.07228467651412121 -0.09263570267342652 0.0814893556293426
0.07192861933307423 -0.09159972240737072 0.08156406878530183
0.0715415583231782 -0.09055630648630023 0.08166487671767803
0.07116812441708653 -0.08956054025096853 0.08179723524607026
0.07086994527583805 -0.08858581995137972 0.0819614041322675
0.07060016110346239 -0.08764520631210752 0.08219934103033034
0.07026231370631736 -0.08674943727481728 0.08159274400620081
0.07007091137252285 -0.08595140823288618 0.08182185911317626
0.06988170580203065 -0.08507971532718944 0.08203644074075277
0.06967215095957259 -0.08418466620851299 0.08228413982364874
0.06945274689292699 -0.08330722339356615 0.08255520275945709
0.06898506832884399 -0.08233000749142926 0.08191584209136783
0.0686162574801133 -0.08145704705269047 0.08221773295096091
0.06835006986030256 -0.08068445670226272 0.08254490092922899
0.06824477303588979 -0.08022546817482842 0.08291617169300894
0.07288505519672007 -0.13409200786425957 0.08181507140291656
0.07312862134547432 -0.13352975527954383 0.08228762515395523
0.07353382468129474 -0.13289007307574938 0.08210486684109615
0.07334666481247763 -0.1330415611608357 0.08282381910094609
0.07389584071840008 -0.1322707326229343 0.08213133112418292
0.07436339573136083 -0.13140304128456637 0.08205821020284386
0.07489289690914797 -0.13043948296403138 0.08198639477771498
0.0753361448658348 -0.12939233834329233 0.08191014775460871
0.07583275528729864 -0.1284902447420893 0.08142924940561677
0.07551293902344643 -0.1287093414352046 0.08215940172491093
0.07604198427772063 -0.12788699587870364 0.08139077719453736
0.07638433007207322 -0.12710136412070602 0.08127889492023542
0.07667697721867794 -0.1262804844983021 0.08122390072201473
0.07693078026054993 -0.1255513213709895 0.08123544100525956
0.07710015918055685 -0.12493589814261974 0.08132797781669548
0.0776675111237044 -0.12417070557387569 0.08058549280300448
0.07782575514623843 -0.12349403961442947 0.08065291433245987
0.07796562396152659 -0.12274946544631178 0.08068432904272743
0.07811886963997532 -0.12204360840401587 0.08070795625289115
0.07823489765013475 -0.12139625646827992 0.08076209321894626
0.07865356431840054 -0.12071545946800459 0.08003290105655773
0.07874705199895869 -0.12005654849129493 0.0801664153737179
0.07878732592370387 -0.11938270729667165 0.08030913074431277
0.07877882054994052 -0.11884879637867043 0.08051153828823719
0.07918546517933366 -0.11746665815173835 0.07976225883944883
0.07893287908472343 -0.11813092352297368 0.08033211587198136
0.07897064378578916 -0.11735941044175269 0.08047321788884017
0.0793057654018666 -0.11671961832331555 0.0795887884280978
0.07933571477900528 -0.11592394114732504 0.07976372574900831
0.07939604561372986 -0.11520575010742738 0.07987578885137808
0.07945017629199702 -0.11450952167024862 0.07999022427172471
0.07947551628191699 -0.11382581137766605 0.08011366201100271
0.07946306033752594 -0.1131663569042928 0.08023612766419497
0.07937341027798264 -0.11248283089457853 0.08035119661694243
0.07922104272869325 -0.11178619842019061 0.08051460373113538
0.07899155041119807 -0.1111052198772225 0.08071371311963861
0.0789424302668015 -0.11056517266438862 0.08009432669079518
0.07858560018924919 -0.10992401736436917 0.08034555349603938
0.07819817842161929 -0.10927113094124698 0.08060814684793494
0.07779286660315717 -0.10851344930032386 0.08096169868744517
0.07746647939937656 -0.10777433596700953 0.0809777424014825
0.07720280465139581 -0.10713855759051388 0.08054904816201161
0.07688006869015027 -0.10637943038934164 0.08045964510434171
0.07661825768568083 -0.10574111793204176 0.08072276499232535
0.07631454568054236 -0.10495892029864437 0.08093687844244354
0.07602948482413323 -0.10415472501759898 0.08113569757217322
0.07573272525286692 -0.10333160364194098 0.08133867204215103
0.07542903588727007 -0.10247420958491807 0.08151600851793687
0.07513069298556922 -0.1016055095075785 0.08167316339042405
0.07482643821513789 -0.10069841352443895 0.08175126406054416
0.0745075505226188 -0.09968963986924413 0.08179088054861489
0.07418849040674694 -0.09865264577439399 0.08189200116909075
0.07390177416159031 -0.09765465338363022 0.08199954167647265
0.07362871267828949 -0.0966577009516599 0.08207545402934106
0.0733413516126456 -0.09565107953082659 0.08214353828994618
0.07301179408761481 -0.09463249520055642 0.08221040615620902
0.07265694203608143 -0.09360984913226975 0.08228666442707769
0.07231065565161643 -0.09258075313906414 0.08236053457766314
0.07194263695453372 -0.09154872914016843 0.08244904746859755
0.07156839241482538 -0.0905275858910582 0.08256680697486778
0.07123251387166961 -0.08954365553132207 0.08271555560341322
0.07093359562947402 -0.08858409241481943 0.08290625576336817
0.0706418575110489 -0.08767290313515043 0.08313569051140471
0.07034221139121793 -0.0867948126559512 0.0824741877206449
0.07014164232207452 -0.0859455331606638 0.08271759751164613
0.0699556751096206 -0.08507324768887689 0.08295854062107623
0.06975932570044412 -0.08420103142533968 0.08321237644431849
0.06950915066813881 -0.08330103252638778 0.08347796466525573
0.06911983969601646 -0.08237144510069494 0.08283527455584239
0.06869911553027803 -0.08144597594050175 0.08312408450607187
0.06839194571693508 -0.08065172108283233 0.08342956780695819
0.06825666310228645 -0.08018148667565368 0.08380211745700585
0.07296274579618323 -0.13355606501675296 0.08341438901723018
0.07311974109397695 -0.13315783563423783 0.0837479314311747
0.07369014130690286 -0.13232592027248033 0.08295586353055587
0.07413621726057898 -0.13143732039640382 0.08295928654151173
0.07457620108183183 -0.13049728651574596 0.08294982730720275
0.07488594714861482 -0.1296216928625659 0.08298234542368015
0.07517688260566985 -0.1288782330712203 0.08303982228280501
0.07574634219149635 -0.12799118052978115 0.08221722576466842
0.0760458990855829 -0.12719633962791757 0.08219400205736896
0.07630731771462318 -0.12638364230936827 0.08215321734151135
0.07656927490863051 -0.1256545345628735 0.08208074847329
0.07674314689246038 -0.12511919660966664 0.08205229455428599
0.07716124709431768 -0.12436904574365022 0.08161125907985858
0.07742277285375439 -0.12353096444011634 0.08159639878947336
0.07762547641430469 -0.1227480439272535 0.0816084554101697
0.07783365271910886 -0.12202049256292923 0.08152519755101623
0.07797353882528567 -0.12147052116878541 0.08147029733190204
0.07829151247691574 -0.12079495518644769 0.08101335009225681
0.0784355392855856 -0.12004482750550184 0.08101448863247754
0.07850112786310805 -0.11939913351423134 0.08113820612024628
0.07858072084074057 -0.11873075396299798 0.08121632610524987
0.0786524386953702 -0.11800106248554817 0.08128809953582032
0.0787162500710143 -0.11723709124341905 0.08136373342301846
0.07903596292376912 -0.11659567162710596 0.08054406069548796
0.07909286314130932 -0.11583806449624774 0.08060536893350781
0.0791571592781489 -0.1151424512759342 0.0806734663736661
0.07918521806944623 -0.11445926949742694 0.08079586872486073
0.07919719418562017 -0.11376639067666035 0.08091934618629017
0.07918553151731238 -0.11309328559920442 0.08105677249544431
0.0790999811521948 -0.11239938698985974 0.08120837164688866
0.07893112920726651 -0.11169138445802909 0.08139281227161431
0.07871385297925895 -0.1109895511335784 0.08157998822754213
0.07869727320037959 -0.11043780218032889 0.08094341106928189
0.07835595213097576 -0.10980330200087912 0.08115113464431048
0.07803237091582817 -0.10918528638914039 0.08139388139802078
0.0777627374640562 -0.10865910233414017 0.08174387320477347
0.07720869611251958 -0.10731142109894187 0.0813404416156291
0.07743894468410009 -0.10794380178121851 0.08176960201836168
0.07701854703597914 -0.10712231060846912 0.0820565521091573
0.07686713303255624 -0.10652809023691631 0.08128730435780365
0.07650291320011655 -0.1056327580875708 0.08153220804431596
0.07621529385627619 -0.10482751160138289 0.08171890329850709
0.07593524271955776 -0.10401742347452562 0.08193211263527163
0.07563862344465537 -0.103178533503772 0.08213020592558208
0.07533874980938036 -0.10232294436538061 0.08231330204158159
0.07504745328175672 -0.10142810409111759 0.08244889887080885
0.07474902235605832 -0.1004790042891091 0.08255173525152877
0.07447105931597277 -0.09949729620969835 0.08263640103316114
0.07420165510841206 -0.09852405271111198 0.08272827937189757
0.07392456542347668 -0.09754710380374566 0.08281986903748458
0.07364163504127844 -0.09656116184043902 0.08289945569259512
0.07334191252626251 -0.09556475003683168 0.08297599440704066
0.0729943440238111 -0.09455917526792 0.08306356197401456
0.07263224594123646 -0.09354224409497121 0.08314811105689303
0.07226630110501768 -0.09252734219560857 0.08323613520711841
0.07190787855420856 -0.0915177910641871 0.08333885640503606
0.07156285907462923 -0.09051386167839608 0.08347487915317552
0.07124705034500448 -0.08954230095430302 0.08363715387685458
0.07094953235748569 -0.08858076278867413 0.08383316081587744
0.07066160751209656 -0.0876778073777716 0.08406059637339663
0.07039972658001584 -0.08681085015345047 0.08338201492014576
0.07019876572378142 -0.08594298341909282 0.08362866115170246
0.070005972344262 -0.08507317611142469 0.08387496694470473
0.06977053103685549 -0.08417243720749007 0.08413532452051686
0.06940708707579213 -0.08322484932685535 0.08440812712888845
0.06909452140130258 -0.0823356564704597 0.08375895666750731
0.06866748225471185 -0.08141499605067931 0.08404618964384493
0.06839450719258562 -0.08061245639534427 0.0843535249973635
0.06824907079880267 -0.08011773743954262 0.08473564787034485
0.07270826594019482 -0.1336625803063006 0.08440490106031831
0.07283439934917599 -0.13326533550883968 0.08470010626281316
0.0734566301373358 -0.13240477297153774 0.08386978528307996
0.07385777892641728 -0.13150374533231377 0.08391352202647726
0.07422436616398456 -0.1305720276286488 0.08393643741678966
0.07457111743874245 -0.1297074590611369 0.0838578195134737
0.07485046636926283 -0.12905767909517446 0.08378351765432641
0.07537860008304126 -0.1281895608051595 0.08323663018604668
0.0757353391139114 -0.12726118889551322 0.08311304407337249
0.0760028224477051 -0.1263688728599257 0.08309251930053961
0.07636746006190673 -0.12558881557202511 0.08264950876695966
0.07609164267496178 -0.12574198725889738 0.0833945918290413
0.07658073490991102 -0.12503555774429892 0.08261264026907447
0.07685390171462475 -0.12430119933227742 0.08254069298719728
0.077102332003416 -0.12351536681557296 0.08254170341230532
0.07730424718283553 -0.1226195637612508 0.08263038594159702
0.07770033572371869 -0.12187258247217102 0.08205579000381813
0.07750845216617404 -0.12194373087549926 0.08263052007758966
0.0778464122957363 -0.12130318443746956 0.08204596070205632
0.07810494263338605 -0.12060117703238432 0.08170194538430882
0.07818080950624243 -0.12004659203164077 0.08186630001223431
0.0782598889429414 -0.11936874369321765 0.08198659161586841
0.07832165721074077 -0.11865176473883113 0.08210111975600692
0.07839307026057371 -0.11787563006842101 0.08229945718204912
0.07851948807423993 -0.11712157345945255 0.08212131490360514
0.07875766785380905 -0.11644383404108151 0.08150269241831566
0.07890030734436018 -0.11569970391955418 0.08129781576978024
0.07890329950472559 -0.11511419789298709 0.0814995156908934
0.07892019500879552 -0.11440954075956494 0.08163187265068803
0.07891234556661057 -0.11370767543051832 0.08175089655776213
0.07887449879644216 -0.11302034667336401 0.0818973982282765
0.07879855967829014 -0.11232646300475295 0.0820961323619815
0.0786197075219801 -0.11157057677129464 0.0823847332343841
0.07848900796939418 -0.11088794090267601 0.0823140915022807
0.07840808454865032 -0.11029285623828675 0.08185508532046416
0.07815658806760144 -0.10965682063772987 0.0818243653279197
0.07789743195174524 -0.1091417390396968 0.08216481984057138
0.07756178599624998 -0.10847375534248617 0.08246143601288586
0.07713589362218842 -0.10768178682747015 0.08279372709208405
0.07680647023646875 -0.1069296496965558 0.08276998606579547
0.07662515458379582 -0.10625206274298797 0.08230647878304577
0.07635283097959095 -0.10541510215555908 0.08223651755463691
0.07609119936318466 -0.10472943473149562 0.08252087351344756
0.07578695304999326 -0.10390903769486856 0.08273967967085062
0.07549927950432397 -0.10306427381425906 0.08293083875002388
0.07519815741422359 -0.10219106529597517 0.08311520250869697
0.07490895180917127 -0.10128195837554868 0.08326181862655387
0.07463853281985099 -0.10034435432799584 0.08337984341139762
0.07439831944111422 -0.09939100460802008 0.08347882755030782
0.07415428219087353 -0.09843101901443022 0.08356792731447303
0.07387468641193369 -0.09746097159642758 0.0836613563745385
0.07357048713089585 -0.09647914315717182 0.0837511808442756
0.0732461629023975 -0.09548977362784665 0.08384386673822732
0.07289330744644257 -0.09448510271976557 0.08392840405674079
0.07251959272500938 -0.09347812568438559 0.08401569701323738
0.07218086116873794 -0.09247613967975499 0.08410890528659418
0.0718419458346643 -0.09147676509242099 0.08423325826875626
0.071519186020002 -0.09048112039544103 0.08438407185557693
0.07122179546556466 -0.08950759151391068 0.08455685345059458
0.07092858484596028 -0.08855643810165902 0.08475775796795557
0.07066094853022512 -0.08765846531376947 0.08498010361992964
0.0704272132983444 -0.08680859039037567 0.08430225473997369
0.0702167718061083 -0.0859316413277065 0.0845457469301458
0.06999335031150981 -0.08504684378056762 0.08479691127657754
0.06967751587591187 -0.08410020331116592 0.08506201844784189
0.06922825241206683 -0.08314445775810725 0.08533776926859618
0.06896910574451277 -0.08227127033680727 0.08468545069730264
0.06859373227636119 -0.08135921563171877 0.08497247440835481
0.0683511095801268 -0.08053122949025697 0.08529602472529889
0.06821017772637938 -0.08002107418283379 0.08569657596327084
0.07239493930795761 -0.13377819402361021 0.08538054288699212
0.07245816485204656 -0.133362333881889 0.08567588664072152
0.07313480425833388 -0.13248239181820753 0.08482753674807514
0.07350895220227241 -0.13156540661891553 0.08489368829739663
0.07387589786740194 -0.1305013004537487 0.0849817137237921
0.07444522095022221 -0.12957233335245302 0.0843920785947999
0.07422999749117043 -0.1296781159083954 0.08496217952685246
0.07473075947322547 -0.12889414826873508 0.08436423566747758
0.07523089709963096 -0.12802618699582474 0.08394669254580245
0.07540015327970472 -0.1273586071646546 0.08407705477636175
0.07557607380017009 -0.12657402531530532 0.08422878114732629
0.07579792406605586 -0.12581293354404435 0.08433458375882187
0.07631612489407756 -0.12503601000559428 0.08345448140196259
0.07656653070650352 -0.12429072575891724 0.08344359294859412
0.07676187507864947 -0.12356527290465402 0.08347023222953234
0.07681438346098057 -0.12301281707573844 0.08368555581143947
0.07752079099976927 -0.12157884510821738 0.08288577740297919
0.07710413390284575 -0.12226620683527782 0.08349882250823108
0.07726753426122765 -0.12149856810755562 0.08362215166479166
0.0777634382097431 -0.12082296719087685 0.0826448018668801
0.0778981722910406 -0.12004220626461432 0.0827840126945153
0.07799949040603169 -0.11931878673949194 0.0828713149982078
0.07807377284617566 -0.11863069070957452 0.08300763613304625
0.07811121105185964 -0.11809278777542834 0.0832325342375934
0.0784887451035947 -0.1166733121168189 0.08242220342443124
0.07824892155612945 -0.11734376261590833 0.08305298392865043
0.07830060225885377 -0.11650346771692638 0.08321451887015911
0.07861538580475595 -0.11589056313155395 0.08223619811146059
0.07865110979792668 -0.11505694190426378 0.08239052513345817
0.0786547527884381 -0.11433186071035249 0.08246504576541812
0.07863467936516029 -0.1136521429379016 0.08259559134115095
0.07858906540607219 -0.11296430196447058 0.08275697964864238
0.07849794498783813 -0.11229698697866387 0.08297332874877782
0.07836952790833057 -0.11175557814235423 0.08324858770156766
0.07828921819593312 -0.11047609453611135 0.08266750172546194
0.07828993819154496 -0.11106576320274233 0.08315634288253461
0.07802461639015686 -0.11031424359255818 0.08342716283480342
0.07806178188038479 -0.10978510865849224 0.08264696312156482
0.07769052137300372 -0.1090335387829326 0.08300503297063153
0.07732588259658593 -0.10835584292349107 0.08328994847162319
0.07701500530306486 -0.1077922694490446 0.08359060988493815
0.07657115393686516 -0.10641533734591252 0.08312639337886667
0.07674159816576032 -0.10706138404689794 0.08358583032574815
0.07638143929230752 -0.10618157680923833 0.08388812302383752
0.07628305511349324 -0.10556331364139554 0.08309312077009971
0.07591252550310341 -0.10462784938150572 0.0833612632943493
0.07562227553565266 -0.10379517402500955 0.0835526619163826
0.07532218528598851 -0.10296093666940055 0.08375865020462495
0.07501306475143978 -0.10208858620720529 0.08393754995195336
0.07476156886550801 -0.10118345523057357 0.08409125929383977
0.07452379663694936 -0.10026221554335862 0.08422516151002499
0.07429679824220348 -0.0993203123617161 0.08433429442270458
0.07404796688688924 -0.0983628864582108 0.08443614382818812
0.07375213331377699 -0.09738762259923747 0.08453430847490778
0.0734184454826643 -0.09639992675633774 0.0846393745197127
0.07306286258282066 -0.09539147430169387 0.084727142976846
0.07270982332781488 -0.09437786939129496 0.08480126978692633
0.07236356024069103 -0.09338119667690177 0.08487942135442009
0.07205980414729472 -0.09239793616484626 0.08497545777350003
0.07174783560695333 -0.09142488136387592 0.08511612728037513
0.07145017800234381 -0.09044195828624793 0.08528961269833418
0.07116095613874732 -0.08947702213963281 0.08547603576550519
0.07088952832986853 -0.08853084430941681 0.08568317513643935
0.07062012802374759 -0.08763198363319441 0.08590942138008004
0.0704302144721537 -0.08677541188778176 0.0852172619068778
0.07019132351910079 -0.08588898121467355 0.08546518882953252
0.0699103333136251 -0.08497911967711747 0.08572644068511516
0.06952217632763782 -0.08403435757970762 0.08600013708648792
0.06907600661485096 -0.08310213059126068 0.08628308356104637
0.06882354516971118 -0.08221185587538561 0.08561869802718447
0.06850487950908295 -0.08127880503156551 0.08592431779306164
0.06824324529954412 -0.0804311860669982 0.08626586470142332
0.06810335112179194 -0.07993345813092516 0.08667968452962889
0.07210071829348112 -0.133834214573733 0.08636370639534678
0.07217224691106143 -0.13340528971766916 0.08665083644705805
0.07275255961019657 -0.13257491799218346 0.08581461168613874
0.07306786526896279 -0.13169140264994456 0.08588386427903347
0.07327541988927855 -0.1310265961178474 0.0860374115928431
0.07431635960425492 -0.12927647631586675 0.08521972563382309
0.07373711055961307 -0.1301308174823592 0.08584058283646426
0.07410798716507533 -0.12924292832607584 0.08597667115029403
0.0747524113480439 -0.1283916413768955 0.08496500465664254
0.07504485636324312 -0.1274847243795078 0.08512850869853854
0.07525207614864943 -0.1266192905072846 0.08534546420330803
0.07561387033958515 -0.12579552379485504 0.08512673001887978
0.07602880167419067 -0.1250152763567289 0.08444638358091393
0.0763589959241024 -0.12423409592245456 0.08419008005481934
0.07645760338692774 -0.1236714582215679 0.08437915635486859
0.0766098439318625 -0.12296001300392162 0.08446077606731187
0.07681037184277129 -0.12219839041646012 0.08452503262151709
0.07698286148385951 -0.12138102628277837 0.08457849893592252
0.07742875239646554 -0.12070188366962306 0.08366343238246451
0.07760472528270382 -0.11994652543786465 0.08368858537916697
0.0777218373821182 -0.11924246724030173 0.083719696583775
0.07780888909390316 -0.11860129878853277 0.08385302604388284
0.07790731030440136 -0.11793512342159283 0.08396863565446919
0.07795331489326394 -0.11710436606273295 0.08417729017797382
0.07812425103299782 -0.11632101358531334 0.08403806702361515
0.0783629708373725 -0.11565113691065264 0.08336649468730634
0.07845123658151129 -0.1148731592455509 0.08314569579725521
0.07841030633929374 -0.11427001056089323 0.08331637283005167
0.07836970104156349 -0.11358307514771125 0.08343240900462642
0.07831486671084545 -0.11292320696436177 0.08360882985166689
0.07822308576259168 -0.11226442367175132 0.08379978208738023
0.07809559533229099 -0.11160143627873106 0.08395638846671925
0.07792551352189314 -0.11086512753242059 0.0841365827826861
0.07767766762905884 -0.11011562256774705 0.08433674315581198
0.07772057508217836 -0.10957540272771016 0.08363732996993455
0.07739095216312918 -0.10886598740910396 0.08383883318205787
0.07709967611182211 -0.1082291105184331 0.08404800331302134
0.07681822773485188 -0.10756401311575571 0.0842851551443875
0.07646674877918501 -0.10672932340735489 0.0846427866752381
0.07616759666023654 -0.10595399599824026 0.08465377284687944
0.07599962973436732 -0.10526353360936912 0.08417062067328612
0.07572310888297663 -0.10440946304480499 0.08410261031708151
0.07543362312005529 -0.1037131868507186 0.08439066018481756
0.07511145249182044 -0.10286741255129447 0.08460551489900074
0.07484456216538285 -0.10200540826716496 0.08478438982192836
0.07461788455942948 -0.10111375336250032 0.08494123111361347
0.07439194471327043 -0.10020872704722655 0.08507823633753717
0.07414801978536173 -0.09927395175500354 0.08520787353830525
0.07387975961008318 -0.09830823990382229 0.08532173290150949
0.07356023859742565 -0.09731790753622399 0.08544169132566036
0.0731918115758665 -0.09628957991982481 0.08555590875967456
0.07282213584530182 -0.09524399397845625 0.08562726608766488
0.07248164599071603 -0.09422991880971543 0.08567735676482212
0.07219500328152709 -0.09325209750356067 0.08572809807601224
0.07193211191856637 -0.09232412339307067 0.08581904611667547
0.07166290440368075 -0.09139181080632232 0.08600688626710555
0.07138766684415575 -0.09040297741053464 0.08620365885245045
0.07109951955141113 -0.0894275057620451 0.08640747781991884
0.07081519837548743 -0.08847942690059965 0.08661843554834044
0.07055367203721023 -0.08756679209682738 0.08684216298041073
0.0703734964125997 -0.0867294233807993 0.0861489792740621
0.07011364526105163 -0.08584777131567219 0.08640309608034615
0.06980056487751515 -0.0849310646470923 0.08667554646532269
0.06940657675375023 -0.08402100479156879 0.08695786260571618
0.0690141854094165 -0.08306686806702998 0.08725189109993135
0.06872038216879632 -0.08215193436188573 0.0865766367244771
0.06838494303530629 -0.08119828507875461 0.08689333566702799
0.06811922071271082 -0.08035838567582934 0.08724805562173192
0.06801385831147412 -0.07989160024315906 0.0876665185069629
0.07189490606761581 -0.13376609222494154 0.08731295851272018
0.0719604218292106 -0.13338598474848698 0.08746335954972899
0.07240932748789126 -0.13260399522236035 0.08687307973439648
0.0727986989172962 -0.13171232563836718 0.0866619105779862
0.07305628914878565 -0.13101666174294696 0.08681165080126664
0.07345214006057232 -0.13009896247178204 0.08688279204507501
0.07387008428590583 -0.12916935998787013 0.08694052563109764
0.07447285354731734 -0.128355949818968 0.08603595226896577
0.07474987687357319 -0.1275185950154833 0.0861279240007976
0.07488454590766716 -0.12691489365621314 0.08632073763373427
0.07567928402591317 -0.125344535961356 0.0854137449597487
0.07524535802398326 -0.12611840665979276 0.08611159752073314
0.075488227182607 -0.12525039912769917 0.08621910988833016
0.07599416748274793 -0.12452242142868292 0.0851855602461909
0.07620976340972588 -0.12367118337839703 0.08528924238548302
0.07639245993520773 -0.1229147777044477 0.08537879959207487
0.07654783160719289 -0.12208829228879796 0.08560335079418337
0.07678290854648928 -0.12124241501683994 0.08539521219260508
0.07715426405866925 -0.12053423058638807 0.08469604993623053
0.07741844365847214 -0.1197718585179057 0.08441995828122811
0.07747292991977742 -0.11917743048226292 0.08456030377569804
0.07757127671719921 -0.11852102442268686 0.08466672594469153
0.07765382985854156 -0.11786588565489331 0.08484261065725456
0.07766507120698898 -0.11727417357856952 0.08510467445621081
0.07809195301816406 -0.11582779206596415 0.0843284768651732
0.07779824754093245 -0.11645132613178816 0.08506043381926318
0.07789702100165212 -0.11563537076971905 0.0849488467625257
0.07814451925505733 -0.11497806984853658 0.08418364932836743
0.07819205035863881 -0.11413222188189112 0.08406892880716213
0.07812493263336805 -0.11352340575056648 0.08428944665201543
0.07805846279625249 -0.11284312053562648 0.08444563693331629
0.07795399455103433 -0.11216843124193925 0.08463348685287302
0.07781353562044825 -0.11146421567798442 0.0848469123722633
0.07757957289239295 -0.1106626022326801 0.08517615489412667
0.07741824924674946 -0.10992421952751433 0.08511402035480586
0.07736914654620125 -0.10933446355552627 0.08461359165923253
0.07715889306536375 -0.1086407125342614 0.08453895766166124
0.0769160296328546 -0.10807269294159462 0.08481956242122499
0.0766323728135559 -0.10740087348400082 0.08510075058478819
0.07637712025740626 -0.10680866472417322 0.08547839227134553
0.07591326798859616 -0.10541862512090398 0.08503828879474296
0.07608814185522876 -0.10605451557563439 0.08551417419393101
0.07567486657569417 -0.10514775016494593 0.08584204186575761
0.07559761499937412 -0.10455446472306397 0.08500084883892596
0.07520311564834829 -0.1035984036028488 0.08527658112000573
0.07491270275557223 -0.10275298507259906 0.08544752731913544
0.07468323044808366 -0.10191409668820195 0.0856274009968596
0.07446068160576799 -0.1010440285133696 0.0857974128862738
0.07422793036991453 -0.10014866035815537 0.08595174678538665
0.07395913792567413 -0.09921831007398045 0.08609458896532977
0.0736568976902776 -0.09824630515702361 0.08624275311713354
0.07330468712631304 -0.09721905737841216 0.08639939434686275
0.07289530962854823 -0.096112219242502 0.08655976975728445
0.07255264693301648 -0.09502599149985473 0.0864565259869241
0.07224636283890588 -0.09403160150285172 0.08659017079070683
0.07204734032512253 -0.09308080591354886 0.0864231907901438
0.07183950829416261 -0.09233910112829595 0.08668670042345984
0.0715905258763989 -0.09137188526631516 0.08692305811082075
0.07131105943588928 -0.09035428530379863 0.08714045467211799
0.07101324260877082 -0.08937358961747505 0.08734211536526693
0.0707416691912988 -0.08843130698539403 0.08754883482001456
0.07048213213904894 -0.08753239231042252 0.08777373525197295
0.07030369830018962 -0.08667638379638415 0.08708745150276663
0.070059580834168 -0.08579592635595808 0.0873537723532394
0.06975019913879246 -0.08490185780122725 0.08764123580433172
0.06938731753745149 -0.08398447170830388 0.08793782340098387
0.06895615524027295 -0.08304178671626779 0.08823905634237716
0.06859946571605517 -0.08209059656751265 0.08755600007119843
0.0682567064593594 -0.0811501591556263 0.08787029471894667
0.06805858669009514 -0.08034290357290089 0.08821742166862506
0.0679515679769529 -0.0799115182073918 0.08861599061750466
0.07205130769407565 -0.13296006656488765 0.08782110974870042
0.0718446930258756 -0.13342286623857103 0.08824721498014013
0.0720152240902829 -0.13280141373127813 0.08862005051731399
0.0724078765757112 -0.13205137329317404 0.08765054689376262
0.07283593205423895 -0.13100786471298417 0.08778848211439812
0.07326942493254389 -0.12999979114054508 0.08794604383671992
0.07373863408609709 -0.1290719483405361 0.08774454050207382
0.07421803016208134 -0.12826291306245158 0.08709104683266006
0.07454744376959072 -0.12744975791625698 0.08690227044587355
0.0747319734834119 -0.12684566307473016 0.08709923694785612
0.07504371152670558 -0.12598439611843668 0.08725149497463709
0.07535973538005741 -0.12514999104385816 0.08702153010890194
0.07574191662984713 -0.12439696230057413 0.08632268065804984
0.07603962500923653 -0.12356183015483316 0.08607612915811559
0.07612860755912212 -0.12297189129468385 0.08632601875756465
0.07621208931065623 -0.1223637900529648 0.0865929191819029
0.0768460330308423 -0.12075805757355632 0.0856617991287797
0.07647474520568798 -0.12146850419454518 0.08646097910512351
0.0767198183331403 -0.12059257571577899 0.08627948346675861
0.07708869374696777 -0.11989962757933212 0.08545955696336822
0.07727774557386527 -0.11905093051854176 0.0852997922296519
0.07734441755161191 -0.11847350322878096 0.08550858886407145
0.07741622076126727 -0.11780846585572309 0.08566127257817983
0.07745933825391699 -0.11712893925876369 0.08582860017822823
0.07748918110433421 -0.11653091534483183 0.08605359037718806
0.07781777949845066 -0.11509426266184948 0.08521161717614507
0.0776048524407455 -0.11571144845789967 0.08596233931487823
0.07765546072994449 -0.11485617237592956 0.08587264987604182
0.07787039570119661 -0.11422714882729537 0.08511810591952394
0.07788403873923148 -0.11336595778856111 0.08505073142354393
0.07779768912274615 -0.11275287749132427 0.0852936702156597
0.07770287012656668 -0.11205959506872255 0.0854876907812412
0.07754473620714791 -0.11138593243339907 0.08573656116045308
0.07737636643191159 -0.11081021539365946 0.0860592375390517
0.07720277447798848 -0.10945504140767266 0.08545860084623341
0.07720403900532187 -0.11003288208832875 0.08607434365112604
0.0770205198569116 -0.10926390179465532 0.0860739126384426
0.0769876213962978 -0.10867848849643919 0.08547434838353651
0.07672969680249234 -0.10789227502253101 0.0855391781014519
0.07647408620816677 -0.10729122979307783 0.08591925533568992
0.0761629235385545 -0.10654884394244585 0.0862476885805684
0.0757605614390193 -0.10567077902481534 0.08665217769859485
0.07544176224466459 -0.10485896263496892 0.08666893039818581
0.07526607142255844 -0.10419356389073786 0.08614452039966339
0.07498505541008733 -0.10334348590992896 0.08605358258187924
0.07475377237356123 -0.10263317572828229 0.08629562410866062
0.07453352739834822 -0.1018048266305095 0.08646948669775834
0.07429473864620365 -0.1009617414691539 0.08665938604985786
0.07404161290753107 -0.1000745713855555 0.08682717230051178
0.07374650732042444 -0.09915581312920621 0.08700272726341476
0.07341470538779041 -0.09817995974696897 0.08719588538501724
0.0730113740897233 -0.09710275879693485 0.08744876546297156
0.07273951215960268 -0.09626394212406585 0.08733169584265822
0.07268611667022047 -0.09648688349280202 0.087936059579717
0.07256292158278344 -0.09594656904549753 0.08763076629843979
0.0725719414720788 -0.0956095025388448 0.08713203455505417
0.07237956475158566 -0.09541521147588554 0.08767330972948233
0.07233753838334005 -0.09486884579196793 0.08716598769386022
0.07219667082149592 -0.09481640352571047 0.08777125420202404
0.07215190959647987 -0.09427654449016651 0.08735751825640609
0.07199828019865315 -0.09341863957836706 0.08729962602087264
0.07174796792068411 -0.09240144238556597 0.08764998141774803
0.07150204651169036 -0.0913480619269055 0.08788958858527382
0.07120869807816436 -0.09031282473564549 0.08809424170791405
0.07091627122980562 -0.08934015648865018 0.08828777725333346
0.0706692785603911 -0.08839858783610983 0.08848585054740399
0.07043393992460774 -0.08750173646754868 0.08871185638465041
0.0702713596580325 -0.08665594240319358 0.08802482045251646
0.07002279915203939 -0.08579139804349051 0.08831645986911876
0.06975853840704453 -0.08491039630794284 0.08861959088863626
0.06938031158303151 -0.0839779242868731 0.08892688546609868
0.06896409179029306 -0.08303663820783774 0.08922442690896372
0.06856367291636167 -0.08207594445020695 0.08853983894994086
0.06824498444551926 -0.08113940253102717 0.08884881031153236
0.06801081042732945 -0.08035113161828795 0.08917132210342053
0.06792193452723691 -0.0799051742081693 0.08954082965403583
0.07184616274582732 -0.13318858822484117 0.0894746578179484
0.07200650905488568 -0.13265232532490626 0.08942733811079853
0.07234382639714755 -0.1318621460125771 0.08879339294109917
0.07277639848657623 -0.13089139309146167 0.08860903017521306
0.07300462786626485 -0.13033042436742148 0.08891338159405757
0.07389397524803677 -0.12856451643446232 0.08805469390096482
0.0734657020611737 -0.12937646295855432 0.0887193669747056
