# .PCD v.7 - Point Cloud Data file format
VERSION .7
FIELDS x y z
SIZE 4 4 4
TYPE f f f
COUNT 1 1 1
WIDTH 790
HEIGHT 1
VIEWPOINT 0 0 0 1 0 0 0
POINTS 790
DATA ascii
0.07313340528633842 -0.1242982067390908 0.07514260240013398
0.07317777757574345 -0.12356613611579828 0.07520074143715634
0.07320588813156605 -0.12299036417802685 0.07529774953990019
0.07314320926092162 -0.12228092492163146 0.075041238571394
0.07315969390132666 -0.12142144533539272 0.07526057800016607
0.07316934651149705 -0.12067332104142332 0.07546772822753339
0.072993774869922 -0.11997784952505565 0.07479273823799572
0.07296912426030042 -0.1192652768602707 0.07498724661613286
0.07294328604596818 -0.11855724990965952 0.07516597381458204
0.07293008450878787 -0.11783891982333623 0.07533891972636146
0.07273873842846448 -0.11713026343824852 0.07463935693143671
0.07272646396983555 -0.11639713923790512 0.07479102971837165
0.07269952979670663 -0.1156467339020154 0.0749297771274975
0.07263692240089253 -0.11485818760014387 0.0750748732659041
0.07256038508006724 -0.11402901012364758 0.07523828325725622
0.07246756121893687 -0.11318801873986539 0.07537762621798934
0.07213417338120796 -0.11254045517858426 0.07468793595327998
0.07201595937267594 -0.11178702438452258 0.07484325418343588
0.07186673577859362 -0.11106598461245921 0.07498610576134818
0.07171689708156419 -0.11022914684235424 0.07525584866072445
0.07145891434149208 -0.1094257925903691 0.07521307675474553
0.07106789826537953 -0.10874811005213512 0.07474517696379952
0.07079982258750217 -0.10794889952448528 0.07468499514002239
0.07071630897243426 -0.10731402424885364 0.07497306453103669
0.07056039520358459 -0.1065066458461967 0.07516466243514254
0.0703734372850523 -0.10553587031020838 0.07542815298269878
0.07009198776033233 -0.10462382495967461 0.07535269170945459
0.06969400364008972 -0.10385700380243065 0.07478534540394374
0.06941423343355832 -0.1029359044508146 0.07463186008780971
0.06931068532208454 -0.10220063917266971 0.07479914836392569
0.0691618078217054 -0.1013506263966409 0.07488884620607066
0.06902040194363825 -0.10048197078832861 0.074977426874907
0.06886608932586961 -0.09956339176039186 0.07504248945572409
0.0687353339335423 -0.09860378882904461 0.07507760264069811
0.06860005551595326 -0.09761608156791127 0.07508965740485768
0.0684394726783405 -0.09660552842330168 0.07507118661393945
0.06826088412365389 -0.09558773883152161 0.07504054028771587
0.06806210050483189 -0.09456537262578144 0.07500644074654568
0.06787043259551263 -0.0935575248446456 0.07499870256805528
0.0676873259575876 -0.09256073010200376 0.07501620683397875
0.06756589926741816 -0.09158369590407626 0.07505829171973677
0.06749711487411629 -0.09061947708049124 0.0751257845288722
0.06745519268137656 -0.08959871008980738 0.07519903123500832
0.0673624701239625 -0.08873095838180643 0.07482515696511303
0.06721737284643363 -0.08821891302912443 0.07426755440227192
0.06735157905855346 -0.08808596488637449 0.07485070389859949
0.06731365571692549 -0.0872265185344028 0.074847056808522
0.06724703822977753 -0.08628680246336151 0.07490398826615376
0.06715737718197415 -0.08534073533098442 0.07499162991062948
0.06706016210529757 -0.08439516571539439 0.0751047926129952
0.06696184709645288 -0.08349368358652992 0.0752568016700467
0.06656614838573009 -0.08255922670081908 0.0744689232984492
0.06644064514633813 -0.08172876664283539 0.07465868774220029
0.06627397681338221 -0.08093905525391809 0.07488017061799682
0.06623046905294928 -0.0804498628314 0.07520462798589866
0.07085679191310651 -0.1344231993598882 0.07664863373811893
0.07108775915483642 -0.13351803146614996 0.07669647828593673
0.0713285452226106 -0.1325897025792316 0.07633314073015562
0.07132575201778149 -0.13282972742191548 0.0771020045973608
0.07155838167943243 -0.13190087493198824 0.07643709798532984
0.07188298132466456 -0.13093134651062127 0.07652324299368658
0.07222923198596086 -0.12993513990656896 0.07667817636176186
0.07247344047244156 -0.1290870710823215 0.07687799497776188
0.07264743303710464 -0.12819206392241314 0.07611124512821947
0.07286679421812121 -0.12738732865597707 0.07627516150012659
0.07301524333883475 -0.1265753495839537 0.07644941947503332
0.07315123790291653 -0.12579924016762417 0.07663015680345624
0.07317755504727763 -0.12499420599722656 0.07588948989339386
0.07327006522474708 -0.12414024630302481 0.07605983187226588
0.07328219119455708 -0.12338314620137196 0.07577412051377475
0.07335000146056915 -0.12348210103109855 0.07647819463862549
0.07328318654460994 -0.12282324979762471 0.07587071510587738
0.07329763650807336 -0.12211688349692541 0.07597052388236279
0.0733133275267932 -0.12137054176119567 0.07615147943950017
0.0732909148251377 -0.1206507327458207 0.07635528207501556
0.07315461780998807 -0.11995840706709582 0.07567141083801487
0.07311746211163474 -0.1192521871874864 0.07586475503671383
0.0730792320277065 -0.11854226443765573 0.07605052284858296
0.07304381476766635 -0.11781903275311291 0.07622861273003628
0.07289936783074483 -0.11710206238089742 0.07550760730644654
0.07288618937540867 -0.1163518617567331 0.07565302404754108
0.07284460855023975 -0.11557376238515261 0.07581162232004861
0.0728001491895057 -0.1147595611336739 0.07598105125203812
0.07276190385606182 -0.11386385573931929 0.07622253826984268
0.07263029801433547 -0.11302928897953513 0.0760973604552349
0.07237176471854741 -0.112342306205002 0.07559092671397749
0.07217609320516745 -0.1115827153746745 0.07549306821431609
0.07210360002016515 -0.11097851833107654 0.07577359139279233
0.07202912870927548 -0.11036335467407818 0.07606891515288622
0.07142463668023297 -0.10890028557802003 0.0755442253167885
0.07178517327553043 -0.10956613855089013 0.07601845915998505
0.07160057679842548 -0.10865196265277986 0.0762672380194907
0.07115223091214025 -0.1080671516557383 0.0754950118046489
0.07096643262782786 -0.10714573664788622 0.07576018442382616
0.0708010198540568 -0.10634260883915662 0.07596099240490871
0.07070780782113652 -0.1056804296717759 0.07625051083931056
0.07003491818169567 -0.10401599095406223 0.07565653653116576
0.0704384984420165 -0.1047399575730587 0.07627274699992945
0.07015952334764827 -0.10376633969838002 0.0762487308245813
0.06975088844887707 -0.10301734651180702 0.07558247664579398
0.06948988976645219 -0.10199826603893508 0.0754918131285247
0.06937952965560976 -0.10124685039698988 0.07568065319402521
0.06922973862634926 -0.10037490315596637 0.07578108486796681
0.06908485441544371 -0.09949093483587716 0.0758788300628098
0.06894320404159772 -0.09856089589205226 0.07594743096750439
0.06879127188760312 -0.09759849759178563 0.07598369786738202
0.0686208785870403 -0.09661174451267489 0.07598858417875767
0.06842990079516108 -0.09561043085910496 0.07597945862123066
0.06823111617178336 -0.0945933638278917 0.07596271989043933
0.0680321014934647 -0.09358477752566516 0.07596753111465722
0.06786773542855729 -0.0925852447521426 0.0759893237965376
0.06775685249813398 -0.09160947820225689 0.07604437493048963
0.0677071413842793 -0.09065393340337712 0.07613358518141397
0.06771184423921253 -0.08976935537972765 0.07629068751938664
0.06753339187977365 -0.0888753574903688 0.07555980099826662
0.06756457310836328 -0.08808878254691344 0.07569534786720718
0.06753883239129665 -0.08720955821780868 0.07577703197869474
0.06747704908614141 -0.08629138293401431 0.07586347044209929
0.06740403351158895 -0.08535201360273383 0.07595818200519375
0.06729850956556548 -0.08442019653652318 0.07607473318657018
0.06718988777179075 -0.08352549217943235 0.07622342201349361
0.06685016438981438 -0.08261414045413365 0.07542196290613866
0.06669532981025528 -0.081735789571959 0.07558770360238747
0.06652402785083093 -0.08091032809536294 0.0757915787523063
0.06641630064209993 -0.08022648830971724 0.0761488994849898
0.06638345439577538 -0.07968511600500906 0.07663518352192235
0.07054913035432324 -0.1360470901127027 0.07800026183594545
0.0706636951972282 -0.13547432591069938 0.07780339689373723
0.070894008954157 -0.13458249506374326 0.0776712143498093
0.0711222700411262 -0.1337231109761367 0.07772905307031105
0.07132653481890171 -0.13311415843561178 0.07787218087042436
0.07161686955773174 -0.13213598551841355 0.07752862797181986
0.07201121386241494 -0.1309829065601003 0.07758829375033845
0.07227282853273401 -0.13004196815914995 0.07767628015775378
0.07249727482846403 -0.12924540260417655 0.07782773667399392
0.07268293803714727 -0.12830064404872435 0.07709066718494607
0.07287459645984488 -0.12747198271334126 0.07727429307972815
0.07303946887004831 -0.1266305874939897 0.0773974593140221
0.07319600433724488 -0.12588615262823366 0.07755924359673579
0.07326905614365328 -0.12504171930649366 0.07686319730436172
0.07334088413645222 -0.12429157102023203 0.0771419793345321
0.07342660279581585 -0.12354856579908675 0.07737360806804412
0.07338400060721027 -0.12279993226781435 0.07667761103563542
0.07341162343923213 -0.1220819539682113 0.07684950679264638
0.07339395418518604 -0.1213577586260811 0.07704586835711362
0.07335774621244995 -0.12065379351110544 0.07725216705691092
0.0732546437329562 -0.11994811361737394 0.07656239141095467
0.07320472213294409 -0.11924880091840274 0.07676437480446976
0.07315817437723982 -0.11853772920438813 0.07695769027703524
0.07311508655662516 -0.11780171422809106 0.07713548274439971
0.07301611158205884 -0.11707419807143103 0.07639414916970329
0.07298771652564263 -0.11630445330645106 0.07655017114704885
0.07297224140838579 -0.1155232875484299 0.0767018022383054
0.07295720710509128 -0.1147365881556261 0.07687854816186844
0.0729574492094734 -0.11408901570181171 0.07710978977081319
0.07263029811709423 -0.11253270678276532 0.07640096429365088
0.07285474624414641 -0.11324607486107241 0.07695187277600292
0.07277165009883046 -0.11233558993824845 0.07712151527806439
0.07244640887443454 -0.11172712129096747 0.07631375866558811
0.07232834403569441 -0.11087945503660833 0.07656295937767167
0.07217866151201363 -0.11011958780092003 0.07673805020023754
0.07202353184997587 -0.10923186843809081 0.07703508590990658
0.07176987118484518 -0.10838971904253575 0.07699216751750518
0.0714053193666205 -0.10770991954767546 0.07650734243122584
0.07113499298841305 -0.1068861112690445 0.07644367338031907
0.07103104081478404 -0.10624821200560568 0.07669196433718517
0.07088103036727858 -0.10550718072111627 0.07688029992523589
0.07076727317412584 -0.10484256248185699 0.07715545052838338
0.07008071345362246 -0.10313533731408867 0.07652223809595422
0.07048694715152655 -0.10386938408131416 0.0771697455188968
0.07019830985508149 -0.1028717133672997 0.07712905024054985
0.06980282412991948 -0.1021088492840813 0.07645176209982155
0.06953880619722588 -0.10106421324151091 0.07638639134484551
0.06942650114946276 -0.10030500106162961 0.07658630224922855
0.06926409843254838 -0.09942890451220665 0.07670651270964968
0.06911818898635248 -0.0985301274949028 0.07681894861940616
0.06894967256683289 -0.09758560638648107 0.07688177599308016
0.06876471401265427 -0.09661020344488758 0.07690596163357752
0.06857015152556262 -0.095616144481648 0.07691212874519765
0.06838064000829742 -0.09461063277998648 0.07691547582420416
0.06819561321032923 -0.0936021361253833 0.07692993525099076
0.06804507754202331 -0.09260541157715609 0.07696345392173504
0.0679580180593358 -0.09163905387730985 0.07702868367598158
0.06792671665459048 -0.0907109528703829 0.07712595305582463
0.06792964977170467 -0.08984852709277143 0.07726285308802604
0.06775518411918378 -0.08895868622986138 0.07647793130154097
0.06778449853270709 -0.08812210413398071 0.07661659581015885
0.06777608715776297 -0.08723108448839938 0.07672527151075914
0.06771956546742068 -0.08630234225304273 0.07682278540283739
0.06761922153522244 -0.08535914075457939 0.07692129159451368
0.06750400558565015 -0.08443930634806047 0.07704418583482638
0.06739389200061635 -0.08354571444068085 0.07719009792408309
0.06707726813736084 -0.08263715787075647 0.07637953221132732
0.06693201241110358 -0.08176096983819833 0.0765512001638702
0.06677575152413166 -0.08089211666142987 0.07674467691405847
0.06658628565936002 -0.0800856841536915 0.07699572364817268
0.06653249076692294 -0.07955527877864375 0.07733711264414078
0.07057308191276808 -0.13593573754198734 0.078179361133854
0.07071005717324155 -0.13533709061407825 0.07845130605249193
0.07096871334994947 -0.13453479774086669 0.07860909402261028
0.07120012184402802 -0.13372406390570624 0.07835435774804113
0.07116089084694321 -0.1340219099827428 0.07890688354487958
0.07140133036195795 -0.13315678507576498 0.07862684278888778
0.07174374867051111 -0.13205925014734526 0.0785729371706127
0.07206467829747067 -0.13100644244625495 0.0785595462798801
0.07230473460949567 -0.13012004945651556 0.07853412850166931
0.07244782394727309 -0.12949567969994383 0.0786074115953395
0.07263398885589481 -0.12854684963055976 0.0782368061619305
0.07284972491619712 -0.12752143736892887 0.07827239152461224
0.07305836891942914 -0.1266530712786913 0.07825861492604778
0.07316914127365093 -0.12603855943355552 0.0783067746145648
0.0732840934455103 -0.12524688250460111 0.07798178091508941
0.07338154590796926 -0.1243788480461485 0.07814390433429494
0.07344980467221056 -0.12359866922867489 0.07831154886688238
0.07345527076098321 -0.12281415768357212 0.07756427298186973
0.07346036660524222 -0.12208992817975194 0.07775209612526877
0.07342475639556677 -0.1213734788878991 0.07794747313608862
0.07338567414339728 -0.120684140175601 0.07815165159464732
0.07330861799843287 -0.11996216523190358 0.07746616996514855
0.07326095584827767 -0.11926443316506513 0.07767749176132951
0.07320320739471699 -0.11853838375953513 0.07787399114330455
0.07316404575249112 -0.11779000304813947 0.07804733413668434
0.0730844894070183 -0.11704527560042957 0.07729899281696367
0.07307603390423367 -0.11627495802464347 0.07744504098533472
0.07307599450503204 -0.11549399690812177 0.07758790298808824
0.07307258029652532 -0.11472205364506294 0.07773522828557175
0.07306018742885484 -0.11391882979442582 0.07782814531783197
0.07302453938293667 -0.11298696471984707 0.07799309082161106
0.07291094504431019 -0.11212632504465132 0.07783953573489294
0.07266568867904104 -0.11143882164959985 0.07731269773471816
0.07246907616428483 -0.11064161966290684 0.07723153440466125
0.07238811475921596 -0.11000848860773159 0.0775345568088742
0.07229967082574257 -0.109365824029733 0.0778534988645237
0.07170617488613767 -0.10784437450025987 0.07730218037049418
0.07205412235697195 -0.10850091723274172 0.07786603139348701
0.07180019225066323 -0.10764066946255688 0.07786086275313114
0.07144178525286304 -0.10696900354735724 0.07729584306152121
0.0711865403312589 -0.10608420240712826 0.0773180855901926
0.0710859733261165 -0.10544028088031342 0.0776220752498972
0.07091559540134927 -0.1046504144418686 0.07784747111054047
0.07078080289614928 -0.10394198956550446 0.07810166862072801
0.0701124415785186 -0.10223908742260414 0.07741213251221722
0.07049253014472677 -0.10297218404620531 0.07806965237068861
0.07020760259915777 -0.10198374912350308 0.07801801535408585
0.06983200207457162 -0.1012094212765637 0.07734791788015129
0.06957093139790536 -0.10015720836742995 0.07729705214067936
0.06944749883368129 -0.09939602272644453 0.07754840623932203
0.06927021115183281 -0.0984765355925512 0.07768727907376333
0.06907816837305387 -0.09754097527164757 0.0777636938469976
0.06889293424065367 -0.0965867494838584 0.0778087699541461
0.06870808045241603 -0.09560568414795281 0.07783654043372469
0.06852585453892741 -0.09461030755365167 0.07786066857574668
0.06836889431373547 -0.09360285822898574 0.07788168988866881
0.06824726102622762 -0.09261097636822825 0.0779183719101848
0.06817349888318211 -0.09165234087672204 0.07798244865969557
0.06815109917929316 -0.09074031057885457 0.07806865326672013
0.06815566843167917 -0.08989886137289674 0.07817621326265763
0.06797229635774539 -0.0890266348148864 0.0774121516249507
0.06801938970502218 -0.08820107990536047 0.07757822587815263
0.06802177580548179 -0.08730731247946924 0.07772048763366492
0.0679410599177202 -0.08633605300981338 0.07780337121690542
0.06780790054445902 -0.08538734865848042 0.07790047194909622
0.06769219508565474 -0.08446305675221444 0.07801684661608348
0.06757749830574918 -0.08356157505844722 0.07815705359156035
0.06729899113545647 -0.08266529919551555 0.07735057130209706
0.06716633167187185 -0.08178364941766747 0.0775227853096328
0.06701733288953722 -0.08090600296447689 0.07771346163699397
0.0668185534003792 -0.08005068425061386 0.0779441793228236
0.06673598426689484 -0.07938584305030609 0.07834667795721925
0.07072842873677347 -0.13529490653630313 0.07961450006910478
0.07097060594362303 -0.13461377205031663 0.0793729326519454
0.07081479706548732 -0.13491023879778793 0.08010769790298236
0.07114568707801097 -0.13401396894896805 0.0795370172573235
0.07140537941678222 -0.13308931899338824 0.07958408823566328
0.07175373779379358 -0.13201639396676976 0.07955197026844485
0.07209791546307975 -0.13090245869325598 0.07945234092848437
0.07231135209624547 -0.13006799299834673 0.07912110895253065
0.07220626191229959 -0.1303399715263874 0.0796858376671
0.07237872635266955 -0.1295426291748477 0.07936125475817307
0.07260119469931711 -0.12849706643420925 0.07927747773997226
0.07285907859812588 -0.1274189368156613 0.0792423713918723
0.07306785874292142 -0.12653381495815225 0.07885386158570443
0.07297678978483395 -0.12676275820975771 0.07958051708742002
0.073139872759176 -0.12597176227365617 0.07893887488877377
0.07326606630451891 -0.12523312564440411 0.07900545583313996
0.07334827745097165 -0.12441794435865292 0.07911555841288748
0.073391011116169 -0.1236589999856216 0.07926195005647996
0.07346540600151553 -0.12285901559497098 0.07849443319213566
0.07346591571158946 -0.12212964088111992 0.07867707767960731
0.07342722173956527 -0.12141292619198107 0.07884603582777358
0.07338536202747645 -0.12075052019534974 0.07903350224943137
0.07332857455130057 -0.12000982902903798 0.07839491755293018
0.07328613789936408 -0.11930365276563634 0.07861886803684934
0.07323506165081287 -0.11854717985002394 0.07879271240202321
0.07320027115461311 -0.11778269212274399 0.07894945775360199
0.07314070483344051 -0.11702496317677236 0.07819840641451456
0.07314532448423287 -0.11624835999377285 0.07833403833980605
0.07314933441990962 -0.11545699641764805 0.07846111108781342
0.0731658339336173 -0.11465951514847088 0.07857130195382478
0.07317095232109626 -0.11385019723215359 0.07869571758552012
0.0731833769109122 -0.11318049199711872 0.0788941438992285
0.07290051868078058 -0.11159899501276077 0.07814119105819435
0.07309542976235009 -0.11231340454886385 0.07871168609134317
0.07300675864251824 -0.11137631816749115 0.07887434583272818
0.07271534845835757 -0.11077126514021544 0.07805623542589551
0.07257247236962806 -0.1099066077354008 0.07832815077440775
0.07241840630299456 -0.109179243704981 0.07850146565345556
0.07229768548954768 -0.10856653788513676 0.07874097414390342
0.07172295718478484 -0.10709872446706312 0.07816220660458353
0.07203823120381994 -0.10778460192206395 0.07865503441187972
0.07182307532087194 -0.10687395505671722 0.07890271611897098
0.07145235106189567 -0.1062497322488129 0.07811391664059747
0.07126204682600445 -0.10532106389646967 0.07842104980557693
0.07108096339847285 -0.10451155834553892 0.07863179861523516
0.07089897713140071 -0.10372440886841862 0.07879979913961517
0.07075236095848861 -0.103023359031972 0.07902414741770755
0.0701152705675533 -0.1013513162303701 0.07832850848714151
0.07047055999685115 -0.10211953480890493 0.07890709536914611
0.07022511877335544 -0.10104768352778845 0.07912830343032164
0.0698315042192591 -0.10035961667358642 0.07821569029664686
0.06959928350085974 -0.09928832600243433 0.07843825886959503
0.06939437915509195 -0.09836796684393623 0.07853024088922853
0.06920698129753064 -0.09747081314943801 0.07862267946131227
0.06902607223534778 -0.09653741851435592 0.07869450925156514
0.06885998779656512 -0.09556698705820617 0.07873974169353885
0.0687019977411385 -0.09457751176389356 0.07877416025222202
0.06856913372799392 -0.09358248097975483 0.07880723895819937
0.06846194033651007 -0.09260304324153802 0.07885345014983666
0.06840804227532313 -0.09164402162333248 0.07890511064279361
0.06838111152630083 -0.09073217181606631 0.07896216210413064
0.06836364535308664 -0.08991635069920415 0.07898286354268678
0.06819651466487929 -0.08912539389222915 0.07831630839198328
0.06827332855113347 -0.08841607159756053 0.07867088697574826
0.06822759388082114 -0.08735992576891803 0.07872656899015484
0.06812083712906875 -0.086360283420188 0.0787849805382225
0.06797036475870732 -0.08540420109120465 0.07887199117382246
0.06785245070198416 -0.08447949741447501 0.07898274322813757
0.06774117651292509 -0.08358846248365076 0.07912579960299844
0.0674801086390035 -0.08268573599823571 0.07832151284769831
0.06737074257424235 -0.08181964886580094 0.07850565116920874
0.06724452685565636 -0.08093601376266296 0.07870208335136927
0.06707046062839456 -0.08006488389022927 0.07892968103289442
0.06693480977621574 -0.07931742524589737 0.07921731384628651
0.06673772395929294 -0.07892128118887286 0.07888364191246858
0.0705482562903379 -0.13575075305304907 0.08021271766452767
0.070574507682894 -0.13557079792699983 0.08050867432882446
0.07062991916254598 -0.13523284416490383 0.08085546374713845
0.0709232231552899 -0.13429257033770378 0.08056614241523535
0.07132593648790889 -0.133124857031132 0.08057536962134312
0.07172364342263601 -0.13193502742984725 0.08055935783865495
0.07202981824851588 -0.1309515837200755 0.08019293178564219
0.07184866491943703 -0.13127533696503013 0.08096471545668163
0.07213239293856902 -0.13037119206066727 0.08031259802741601
0.07230523481684625 -0.1295137098684405 0.0803172538403287
0.07255094095938072 -0.12848267190419047 0.08027489844761254
0.0727313924312351 -0.1275980613321055 0.08025435773967989
0.07286277515590298 -0.12700704549852998 0.08030689984060255
0.07304959958079617 -0.12618425388652502 0.07994365146240297
0.07319042477496057 -0.1252755730596389 0.07998613280617042
0.07326852346338018 -0.12446504692374796 0.08005704098777393
0.07331998207654723 -0.12374908484901757 0.08018471613314195
0.07341786139353892 -0.1229351163527043 0.07945864386871199
0.07341901354463043 -0.12217454130642867 0.07963245090026956
0.07339576026658348 -0.12143180993915925 0.07968491163454401
0.07337625360226355 -0.12087415112370105 0.07973807778450276
0.07332921516997226 -0.12014547065384934 0.07942697567402279
0.07328825901682319 -0.11931963066522316 0.07956272591553558
0.0732433025386484 -0.11854609297454462 0.0797146020429097
0.07321393171290663 -0.11777219043384535 0.07986123575339098
0.07317878466434845 -0.11700416059442519 0.07909286056978465
0.0731846593960887 -0.11621521849937216 0.07922033656955643
0.07320647910981692 -0.11541247108587054 0.07932896887469605
0.07323570108537203 -0.1146058856156057 0.07943132073600408
0.07325998339243522 -0.1138100227183184 0.07953649597774747
0.07325932540980083 -0.11298594113036245 0.07961192124688413
0.07322016789120817 -0.11202662784081273 0.07976137970300816
0.07310086568329394 -0.11115043744026396 0.07960746892786992
0.07287126917845949 -0.11045904976253265 0.07907327396265212
0.07266623718913567 -0.10967714235361506 0.07899045760797334
0.0725548028326413 -0.10907154522290108 0.07925772015668937
0.07236719560748514 -0.10832378999566279 0.07943591832327715
0.07214598258960501 -0.1075078786655955 0.07961440706751986
0.07192175474296579 -0.10664203232617511 0.07979976285872527
0.07159736616045384 -0.1059892044881037 0.07908754349135133
0.07139125615750297 -0.10512970744450878 0.07925107003540174
0.07120038755952118 -0.10434776163146965 0.07940136714744549
0.07103226351412392 -0.10358275466644158 0.07959867640917478
0.07083559279435785 -0.10273976924745966 0.07976647592132381
0.07061070603438606 -0.10170257144258263 0.08002581097229738
0.07032803481586238 -0.10073607805362991 0.07992321872149834
0.06998409769392867 -0.09996561404305514 0.07933063174002397
0.0696893700852389 -0.09901836928053022 0.07917372685338898
0.0695374577325862 -0.09826103058387967 0.0793465266788927
0.06935717536698813 -0.0973741228078581 0.0794485125336818
0.06918607057697558 -0.09645323699020932 0.07954983580401813
0.06902365464868042 -0.09549745070399533 0.07961485665501809
0.06889016355302373 -0.09452484739458399 0.07966580273968321
0.06877670573569901 -0.09354108889239693 0.07971339874520707
0.06868457431644849 -0.09255859402543888 0.0797527796323286
0.06864185939288983 -0.09159586351614295 0.07979284109517976
0.06861511469825657 -0.09063124333409366 0.0798194341280249
0.06851996285280625 -0.0898256361857958 0.07953234222520927
0.06837339672831037 -0.08930211368621375 0.07903289958589867
0.06852420854957424 -0.08924281217032265 0.07961801380635274
0.06849560907284087 -0.08838281974442719 0.07966631161027396
0.06842115197112858 -0.08736823162639144 0.07970410781663428
0.06828545556054874 -0.0863786045309317 0.07975830530025398
0.06812770265823256 -0.08542325582884662 0.07983907491559182
0.06800939518410096 -0.08450607377736634 0.07994941335363327
0.06789991883727875 -0.08361614196928092 0.08008843632483229
0.06766445147186127 -0.08272889280863274 0.07929832195724763
0.06758419728564691 -0.08186139800425327 0.07949078360278995
0.0674772124676528 -0.08098458269839974 0.0796988191816
0.06732710184098716 -0.08011896712172516 0.07991179728779851
0.06716278880362299 -0.07932190788873808 0.08013451695351818
0.06691219917482057 -0.07885950521255089 0.07956997056086983
0.07046108129022131 -0.13565869503729616 0.08126909928401832
0.07036845326080422 -0.1358011519074169 0.0818289696280615
0.07051975594134778 -0.13530252559535955 0.08161883703082709
0.07082435750428764 -0.13426310097815947 0.08159251112648698
0.0712295063926099 -0.1331429288963453 0.08157755974463658
0.0715198481366938 -0.1322019522464395 0.08160412005852702
0.07165690686580052 -0.13161567871748261 0.08173490074905866
0.07194452533559569 -0.13066387176579922 0.0813625049011553
0.07220119127923232 -0.1295421367978665 0.08132882623989138
0.07245661761754853 -0.12845328086822724 0.08127865166528637
0.07267573231775262 -0.12756247531095996 0.08087164054850121
0.07256244188878648 -0.12780548362034866 0.08160341877924758
0.07280153270678122 -0.12697026753906338 0.08092499739887805
0.07294696165858966 -0.12616109850939583 0.08093130432135999
0.07307778508881455 -0.1252881489898708 0.08093749236835696
0.0731907605773755 -0.12450277450415308 0.08090138963355997
0.07323735682941776 -0.12392009471845819 0.08092697577830885
0.073303357156079 -0.12310375909237312 0.08056010129010019
0.0733276249976015 -0.1221163908515198 0.08062793777112216
0.07336156866525032 -0.12132060702582903 0.08026305031240412
0.07328901530803457 -0.12145338336316998 0.08098916047311741
0.07333205711079158 -0.12076218426891791 0.0803112283155062
0.07329469424393321 -0.12005570886249214 0.08036149893703161
0.07326551060309419 -0.11930424547114063 0.08048887061676402
0.07322986861534381 -0.11853554067760087 0.0806370456980088
0.07321382560893266 -0.117750424769705 0.08078033160360702
0.07319859899130995 -0.11697979001885886 0.07999698222734476
0.07321418291064687 -0.1161761386380717 0.0801090472689202
0.07324193199425756 -0.11536104695227394 0.08020274515536326
0.07328565686572344 -0.11454830909747453 0.08028217615652627
0.07331931682124104 -0.11372786573589001 0.08036929426053901
0.07333288409406451 -0.11290389360512684 0.08048525709303862
0.07332956941198983 -0.11221892817402655 0.08068153728127839
0.0730591520687233 -0.11061633341849238 0.07991242452805211
0.0732362075633067 -0.11134396888093792 0.08049251079436094
0.07311633452257045 -0.11041466797348015 0.08065183598126406
0.07285795738986499 -0.10979622284503962 0.07981609299560116
0.07266134816419748 -0.10891490338543067 0.0800636359322041
0.07245954805251632 -0.10813576707050997 0.0802641939379529
0.07224136379499749 -0.1072928583478041 0.08059757805711389
0.07198051758339105 -0.10647214499820594 0.080547349311968
0.07169780348277524 -0.10574543564477487 0.0800459857809466
0.07145483004378225 -0.10491440651461764 0.07993766511605428
0.07132017668504126 -0.10426444579586648 0.08020621024897245
0.0711419728518881 -0.10344796407886729 0.08043046694026684
0.07096317537311843 -0.10259738591036126 0.08065487652584247
0.0708360364708412 -0.10185899159382919 0.08093823193411877
0.07022824345401855 -0.1001021405729379 0.08022149419246871
0.07056815455864927 -0.10084637251958667 0.0809009540029108
0.07029479939687312 -0.09984046926055734 0.0808187806688564
0.0699440377562615 -0.09910355577566227 0.08012370905629088
0.06965598972053585 -0.09807807153938257 0.08004588603685424
0.06953210963248424 -0.09728341976839451 0.08028380311743918
0.06935387412611024 -0.09632646597604971 0.08038526779800056
0.06920171384202045 -0.09539723410255985 0.08044299703801353
0.06910230688051511 -0.09445829216518013 0.08054091985245108
0.06900161288650931 -0.09346821173814802 0.08059186374077493
0.06892589270098198 -0.09248228494556227 0.0805959553645295
0.0689066084561138 -0.09154402654142044 0.0806724301584671
0.06883685382934011 -0.09074549261235439 0.08053825802222762
0.06870169038378228 -0.09005279421133701 0.0801637831351911
0.06879808158891491 -0.089500294613998 0.0805955815411167
0.06872416552886898 -0.08840751525535258 0.08064211577022423
0.06859132384998047 -0.08737776179402286 0.08067541768925636
0.06844212545191358 -0.08638986063120936 0.08072626821221046
0.06827735883438919 -0.08542779629306112 0.08080086004351102
0.06814492434843482 -0.08450653886669904 0.0809037536037564
0.06804306210075381 -0.08363098561127022 0.08102488651567122
0.06783186579726344 -0.0827662485239813 0.08026299566416784
0.06778466563600899 -0.08193520927066363 0.08049560571114367
0.0676945983178301 -0.08106200200070034 0.08072649519267262
0.06756185299028672 -0.08013701379950375 0.08089601553214922
0.06734827883081584 -0.07927752179670575 0.08099947569049304
0.06709917027361148 -0.07872429777056238 0.08051137906163526
0.0671271755091108 -0.0782959841228225 0.08122085900857748
0.0703000655547014 -0.1357586382682171 0.08240496557244349
0.07040722390327213 -0.13522314643923808 0.08255833186494223
0.07072665437655172 -0.13422544010963186 0.08259126912251084
0.07106391893192508 -0.13310608054088421 0.08254058331640307
0.07139605716182441 -0.13225218261031477 0.0822344285341318
0.07117059254733443 -0.13258734713879622 0.0828015471321189
0.07151270106818725 -0.13173387352344615 0.08248359003776508
0.07182288203789447 -0.13064691688131994 0.08239032890626453
0.07208349271079578 -0.1295812197364556 0.08234023065593503
0.07230756703600988 -0.1286679543828771 0.08229978962895008
0.072439385259677 -0.12803982791896346 0.08233783181648076
0.07263243955885776 -0.1271764468632311 0.08194028826448278
0.07281134135319138 -0.12619214488390326 0.08191639954499391
0.07296857740610706 -0.12521749284708705 0.08188055671624422
0.07311931929551879 -0.12441697583735246 0.08148441067525626
0.07298336376928946 -0.12461532819663677 0.08220713242494443
0.07315089551324183 -0.12386201724770278 0.08154657806969368
0.0731795630485125 -0.12309338897359055 0.08159706975503697
0.0731866339977887 -0.12227353355646599 0.08173311720964589
0.07316958200091495 -0.12153089067069844 0.08191269928049798
0.07326027632720485 -0.12076658663709548 0.08114414327242807
0.07324213453837587 -0.1200464842715317 0.08127438506610654
0.07322465052382225 -0.11929615608368947 0.08142056431722429
0.07320812586884863 -0.11851884256951836 0.08157451055030317
0.0731993354080094 -0.11770727386892847 0.0817103081964091
0.07320498916782835 -0.11693751368878023 0.08090481903641375
0.07321718765936802 -0.11611566616354822 0.08099607473086136
0.07326120921596807 -0.11529938602403589 0.08106298914235369
0.0733111890761521 -0.11448652889843981 0.08113918520571059
0.07335276845941259 -0.11366810993390623 0.08123406229767804
0.07337224604441553 -0.1128582370678498 0.08133861274865806
0.0733580407027087 -0.1120291636590888 0.08141151112096916
0.07329217447779993 -0.1110897193969276 0.08155475301526896
0.07315961479415008 -0.11022609322826452 0.08139762196308645
0.07294315307973154 -0.10951294390698622 0.08085208577270696
0.07271485058808343 -0.10870890341378087 0.08077688947629849
0.07257152200247782 -0.1081052821286534 0.08111250978948382
0.07241963049758161 -0.10750469428259196 0.08145068197397208
0.07187724327893796 -0.10597763016573497 0.08089062268667617
0.07215495339843139 -0.10670585083192842 0.081383546402941
0.07191804191462785 -0.10583099851250727 0.08163946251708332
0.07162869381947876 -0.10512588101706015 0.08080559090526787
0.07142195008830823 -0.10420238935281768 0.0810920562102858
0.07123997543801935 -0.1033402635277979 0.0812999609440158
0.07107636113342296 -0.10251095509531429 0.08149612281830565
0.07090950966200961 -0.10167980558848629 0.08165547809454628
0.0707766102160492 -0.10094615556236441 0.08187450183964767
0.07019269681235422 -0.09921061574107917 0.08106459834734969
0.07052484965341527 -0.09993074077279476 0.08178010880119917
0.07025986891652725 -0.09889285248725233 0.0816498093445281
0.06992879764050822 -0.09825529322470196 0.08091121993226594
0.06973991639258162 -0.09709304916880973 0.08123162828718963
0.06949312366507453 -0.0961134221971234 0.0810591954379945
0.06942861679538022 -0.09535091969952503 0.08125568371913106
0.06937302411044459 -0.09439171502613893 0.08146800550564219
0.06922965860770969 -0.09330459909743843 0.08137033486249573
0.06915399538534851 -0.09241748440297445 0.08132879886773227
0.06913737013385902 -0.09181562774337257 0.0813967660470365
0.06904727438330074 -0.09112616402484053 0.08116617249554507
0.06929288600526122 -0.09167024233929388 0.0818937785944104
0.06891297024403738 -0.09039479993750482 0.08082162075273629
0.06915077060485393 -0.09059358616669737 0.08161942254437507
0.06904374865546994 -0.08945819984106529 0.08160405886959082
0.06891316879582234 -0.08839046291607383 0.08161152399864947
0.06875743520477526 -0.08736871743899884 0.08163719187744153
0.06857806553317895 -0.08637222378586051 0.08168524494142439
0.06840909216568167 -0.08541081676663181 0.08176051933759935
0.0682848746357278 -0.08447972870550055 0.0818500096052846
0.06817163352792258 -0.08361634855684158 0.08188624482620499
0.06799879869489289 -0.08284225696799932 0.0812029150365975
0.06800237934080665 -0.082099977750907 0.081615188879119
0.06789580626756804 -0.08106236929054386 0.08175997552943874
0.06772621340083528 -0.08000778575973556 0.08191350182731766
0.0674214828828326 -0.07911302059618355 0.08160929142825885
0.06721696276591593 -0.07868164987617832 0.08114616840106538
0.06731450000148206 -0.07856312362255491 0.08176796132869207
0.06725935196892878 -0.07811873858181251 0.08204498206864168
0.07019147301672828 -0.1357533892795324 0.08330500106592938
0.07031686032377393 -0.13519324616432532 0.08354966804745532
0.07062769525751508 -0.13416284560695915 0.0836374425623542
0.07091833545481371 -0.13320242526002143 0.08330130262487569
0.07079104780827346 -0.13351709436788142 0.08406450016389178
0.07112081910149654 -0.13260754606919195 0.08342395434774137
0.07143736062513231 -0.13169935203670213 0.08342396677241147
0.07171214587354768 -0.13065460856667682 0.08338713275698112
0.0719858414455315 -0.12953866582192133 0.08333805614359677
0.07222913415217981 -0.12861693654334294 0.08291970467799527
0.07205450547518802 -0.1288753425996271 0.08366648822312318
0.07234153441633875 -0.12800470803826425 0.08296090164312302
0.07249613881958593 -0.127158870998371 0.08293597224445473
0.07266282479040295 -0.12621557549669318 0.08290568522160804
0.07279457939089225 -0.12539798921814221 0.08288385688248331
0.07286337156924313 -0.12483724919277486 0.08292782715738525
0.07298849134766601 -0.12404863041025738 0.08255483591134279
0.07302395834831463 -0.12316251359788753 0.08261777306331812
0.07304751396792633 -0.1223598834611497 0.08273209492218987
0.07306306670041346 -0.12159046705940557 0.08286478085617466
0.07317474788999899 -0.12080095476815923 0.08206044023171147
0.07318222292596166 -0.12005701920206019 0.08220982240868532
0.07317190112679262 -0.11928784879892923 0.08237446944826693
0.07317211367517205 -0.11848004748225653 0.08254083185486152
0.07317593864228407 -0.11763676536056418 0.08265365843896913
0.07319971990049573 -0.11687209867588626 0.08182437310978342
0.07321673067627867 -0.11603140970874837 0.0818675248647953
0.07326651832857632 -0.11523563357988478 0.08191136053968229
0.07331279603272418 -0.1144413437006709 0.08201063216988089
0.0733589941128754 -0.11361770997110815 0.0821052116820034
0.07338109707673679 -0.11278392568805334 0.08219280972641022
0.07337899243095138 -0.11196843308337115 0.08229691700787857
0.07334843254167382 -0.1113066952405152 0.08248286065933827
0.07308389746392059 -0.10972751865986996 0.0817178636838949
0.07324322031775839 -0.11046571352662397 0.08228362322693934
0.07308974220910108 -0.10959968873757425 0.08248087159636606
0.07286921825438561 -0.10892305365985913 0.08164162673620765
0.07265545612030042 -0.10810425322501353 0.08198407524350802
0.0724291657940448 -0.10734170553426782 0.08218934871936844
0.07218760060056435 -0.10652855643460671 0.08236308036040227
0.07195014558058334 -0.10567951749971646 0.0825653162173626
0.07169112736579179 -0.10496010661821883 0.08180949673199718
0.0714923502787534 -0.10408309043572452 0.08199549549043589
0.07131326145568972 -0.1032304756794354 0.08215470437631034
0.07115308114454431 -0.10239979029121478 0.08231004665507483
0.07100375329899948 -0.10157793588702634 0.08247033653406287
0.07084352420573091 -0.10074075554121462 0.082594751615154
0.07071826679623422 -0.09999068584280622 0.08276887312151522
0.07013004130946855 -0.0980517017377403 0.08189413599382757
0.0704868515201678 -0.09901540346007255 0.08257447865301173
0.07001412127689338 -0.09723156632123375 0.082100162824467
0.0703174684391942 -0.09782205827041311 0.08285714752966755
0.07008407794384204 -0.09687258011126977 0.08260285687062605
0.0697672480630398 -0.09630648157258422 0.08186965000758381
0.06967031473609347 -0.09536640785630547 0.0820424402781572
0.06965020782262629 -0.09474790209835063 0.08223626686424372
0.06954018642147626 -0.09398816406200103 0.08213060973993495
0.0698219413606823 -0.09467256567324495 0.0828170049780848
0.06942259603910378 -0.09306348322993736 0.08202794838376061
0.06972489644255721 -0.09374817825255831 0.08280163330956626
0.06931693801534031 -0.09231508089239418 0.08186243556647296
0.06958162328426358 -0.09263138272131471 0.08262960111373467
0.06949606484044815 -0.09155482805645392 0.08263948014759627
0.06936924103855835 -0.09047926517458534 0.082583333088251
0.0692388326849558 -0.08940740788702893 0.08256384457837401
0.06907188295140355 -0.08836412181675098 0.08256950072227814
0.06888521937593967 -0.08734558864818572 0.08259886911771556
0.06869617300601479 -0.08634456294261605 0.08265201299408555
0.06853390438732775 -0.08537494888931249 0.0827403291281352
0.06840447592242918 -0.08432958949416218 0.08283714190306904
0.06824038155692358 -0.08345091890541424 0.08248738828134453
0.0681152392625869 -0.08296928040176575 0.08194854995086998
0.06819833355960916 -0.08280606753898366 0.08255599498920765
0.06814608282666045 -0.0819701993624532 0.08262859267549105
0.06806845764171372 -0.08106557847541289 0.08279676180784849
0.06798146599644972 -0.08019186892168112 0.083041366675562
0.0676186619484256 -0.07926261963429816 0.08236112752037196
0.06747302148348937 -0.07853228835816144 0.08263194060652801
0.06740567613477344 -0.07791187898580534 0.08303514043908895
0.06740279653744963 -0.07743123362429039 0.0835724944496639
0.07013502223470287 -0.13571158361603294 0.0842498844335275
0.07029578530259847 -0.13515022389587145 0.08453725754250098
0.07049277204534214 -0.1343804071194135 0.0846970752794052
0.07070914849703487 -0.13376768200213202 0.08481104235744105
0.07101107693840068 -0.1328328777245014 0.08443394025380768
0.07134368747986976 -0.13174818704066724 0.08441352482993646
0.07161499667161463 -0.13068905200673805 0.0843910038838599
0.07181132269385555 -0.12976218810186665 0.08436789833334413
0.07191209331537354 -0.12912319272519976 0.08440178322007762
0.07214437413634228 -0.12822222029982433 0.08397597114512474
0.07232558600236094 -0.12719677205112692 0.08393731199074618
0.07250393263239072 -0.12619427364928296 0.08391886234273793
0.0727132504546256 -0.1253512558850521 0.08349451850223773
0.07255279712737486 -0.12555387067334853 0.08425111644716725
0.07277461137300119 -0.12478181270817341 0.08352264469431399
0.07283958261083723 -0.12402687445013864 0.08353301350428413
0.07287657027947982 -0.12321415649379451 0.0836122972463247
0.07291274821851396 -0.12240535067312132 0.08370458890900101
0.07293845958008052 -0.12163246467586222 0.08382170307852066
0.07308166325227954 -0.12083467243463485 0.08301047577673945
0.07310200453715354 -0.120074821085787 0.08317125913191681
0.07311236700868665 -0.1192806817272422 0.08335255496343312
0.07311759783910504 -0.1184031004626939 0.08359938625671852
0.07314732474988186 -0.1175476298036596 0.08343281071915741
0.073178368079089 -0.11675181005442532 0.08280777569718517
0.07321549154870391 -0.11589188674192223 0.08258487513493175
0.07324727088156051 -0.11523360565328634 0.0827803151179932
0.07329907310375722 -0.1144109347818796 0.08290364535695569
0.07334330106933656 -0.11356998815568091 0.08299380901201099
0.07337010704147141 -0.11273920295782362 0.0830764228688987
0.07337358146750907 -0.11194620442601112 0.08316602177542556
0.07332618671294347 -0.11114342903885006 0.0832102476814683
0.073224510222273 -0.11030608674042805 0.08326925131740498
0.07307517878322194 -0.1094808381364356 0.0834158801574777
0.0728940898946451 -0.10878539547007293 0.08265424067066883
0.07267481678692067 -0.10799732192737763 0.08288255857051002
0.07243862261040152 -0.10721261232686517 0.08309721074875233
0.07219872894185063 -0.10638824988309999 0.08332027667154185
0.07196437599411674 -0.10552877962907148 0.08350871499861351
0.07172852985262525 -0.10481036045844669 0.08275149998112426
0.07152966719332102 -0.10394206417647783 0.08287055891411134
0.07135977812555189 -0.10311903981752071 0.08298452773409122
0.07121401033895085 -0.102304291494606 0.08314881526974945
0.07106791239240995 -0.10145733457838628 0.08329445224951146
0.07092178718969516 -0.10061008771351208 0.0834261138900036
0.07077046280417783 -0.09971694561322464 0.08349720633354356
0.07061607587284967 -0.0987626095232274 0.08358699289941603
0.07051767507171593 -0.09794346411724876 0.08376217864427855
0.06996793686931588 -0.09607308920122483 0.08268660144297647
0.07029922889697192 -0.09693756604056054 0.08346033192773673
0.06984948631322657 -0.09530373731415621 0.08265354160619345
0.07010945454852915 -0.09566915271581868 0.08344144474619165
0.07002486361982868 -0.0946042169443351 0.08359236051995358
0.06992638235040018 -0.09356735064238943 0.08358482633684736
0.06981293447454706 -0.09251157106460005 0.08355285593138426
0.06968506281661377 -0.09146126039817684 0.08353682071278548
0.06954241151892138 -0.09041049649581442 0.08351751736410501
0.06937722917818487 -0.08936916552837579 0.08351462540582408
0.06919494537516754 -0.0883404126734225 0.08352979133403274
0.06899023614308618 -0.0873175576325015 0.08356704283116019
0.06880118734873203 -0.08633292212239647 0.08364192816391554
0.06866835094677011 -0.08536998059986906 0.08375797487996699
0.06856713311444497 -0.08445697351107886 0.08395322136795823
0.06836794817156185 -0.0835714112345852 0.08323820903419032
0.06832723340388752 -0.0827974131881378 0.08343738422477681
0.06828511585490404 -0.08196247291813051 0.08361301771864245
0.0682250385290213 -0.08110978605295824 0.08381933205745867
0.06814724972532638 -0.08026978042643089 0.08405525130169281
0.06782447030241599 -0.07934529563133617 0.08331520489748268
0.06762237590542405 -0.0785177740209993 0.08358329066612535
0.06749505226950771 -0.07778015393509949 0.08389411300954745
0.06746431537509598 -0.07734261780729368 0.08426701030875104
0.07016892098174204 -0.13556412860687042 0.08496559665919363
0.07032862125795734 -0.1349687397419211 0.085500848317188
0.07053035403490289 -0.13431288277235356 0.08534853031623273
0.07049393198601595 -0.13444146203108895 0.0861024013523163
0.07073538895379056 -0.13366557853005467 0.08541822237421624
0.0709892501057732 -0.132757216139806 0.0854016264790467
0.07128458330859572 -0.13173680747279043 0.08540651287885509
0.0715153013224588 -0.13063603341740812 0.08541544485469342
0.07175403724704182 -0.12969160403931068 0.08498577920377544
0.07162181653210346 -0.12989850704243117 0.08574717370720458
0.07185286047925682 -0.12904123713063548 0.08499316767791583
0.07202130192233566 -0.12817455047754883 0.08494135046975795
0.07215840969208173 -0.1272585135451588 0.08494967415103548
0.07228103750532311 -0.1264295355960497 0.08502457643724297
0.07236141869680746 -0.12572514326737985 0.08517229111549555
0.0725994527072339 -0.12486886699516911 0.08441496450111456
0.07266736390919973 -0.12408863016356071 0.084526297741682
0.07271649033926902 -0.12324302836923696 0.08459931359525018
0.07278023837816192 -0.12242886174934588 0.08465978372890194
0.07283342034735489 -0.12167683588580007 0.08474969534445576
0.07297809367886635 -0.12088037183079609 0.08398088627758045
0.07302268339872804 -0.12010161543755349 0.0841450466639732
0.07303856822665268 -0.11931861089365103 0.08431616663636282
0.07304678081199582 -0.1186932499680001 0.08455168407455568
0.07314181348720558 -0.11705843616533566 0.08373388562110737
0.07308908058356424 -0.11784594163214474 0.08435940811817201
0.07311225343539238 -0.11693816476617329 0.08451545132214493
0.07318129759048823 -0.11617063671231065 0.083535518809009
0.07321798263420892 -0.11522808654275506 0.08371252741038249
0.0732673374026471 -0.11436396383587767 0.08380454842753267
0.07330990445143368 -0.1135244987387578 0.08388410280667263
0.0733349216637214 -0.11269659624918751 0.08396441140789304
0.07333478955216267 -0.1118768807766984 0.08403560087255392
0.0732840816228222 -0.11104285203872982 0.08410743289723732
0.07318590193373006 -0.1102041697452971 0.08421825477156314
0.07304021099869423 -0.10937537095009986 0.08436683140902018
0.07288628708904367 -0.10867354769099073 0.0835994382188836
0.07266743694032668 -0.10788730743892906 0.08380379821296483
0.07243635657209224 -0.10709952008160938 0.08403209624416402
0.07219655302992418 -0.10623179717432872 0.08436036969164239
0.07196279771029673 -0.10538715084156616 0.08429558445461234
0.07173844922951496 -0.10462253949763299 0.08374926613366278
0.07153196097941873 -0.10375459769014256 0.0835972598340953
0.07140619568308955 -0.10306296578512988 0.08383711513908616
0.07125744273676028 -0.10221158068812282 0.08400710233053146
0.07111820622665126 -0.10134363006979052 0.08414807582665035
0.07097567627288456 -0.10045681036351004 0.08427181343741087
0.07083648284683429 -0.09953922025874794 0.08437154292037664
0.07070851026115572 -0.09861687483788675 0.08445785213772607
0.07057146662003444 -0.09765960608205405 0.08445653337925974
0.07042764102532613 -0.09660457296863266 0.08440922875097384
0.07030420784538696 -0.09552650817823442 0.08443184667537065
0.07019984820122807 -0.09449010116556228 0.08446629337579507
0.07009312041310942 -0.09346175722223303 0.08446824652705494
0.0699716580098582 -0.09243107015407652 0.08446213879794093
0.06982223558416975 -0.09139713571832515 0.08445749172554029
0.06964618224910557 -0.09036540818868072 0.08446048249406057
0.06946695119346372 -0.08933655254469584 0.08447104758637121
0.06927234758980648 -0.08831357832665164 0.08449773997083604
0.06907427038449307 -0.08730662952159404 0.0845517252065666
0.06890905397492658 -0.08633320382372808 0.08464432443028326
0.06877790792210335 -0.08539167469481038 0.08478311834282468
0.06866720703276659 -0.0845011316269738 0.0849668098614819
0.06848504025631122 -0.08362882965936806 0.08419052486620608
0.06843789566658039 -0.08280579969213597 0.08439617982464401
0.06839602030969939 -0.08196907491418051 0.08459697361112689
0.06834136069206927 -0.0811322190096374 0.08481269571751188
0.06823393569736472 -0.08027171507648705 0.08504193601029382
0.06797249926826571 -0.07938544511112065 0.08429716356462601
0.06773007928438601 -0.07851068110426544 0.08454875407258443
