# .PCD v.7 - Point Cloud Data file format
VERSION .7
FIELDS x y z
SIZE 4 4 4
TYPE f f f
COUNT 1 1 1
WIDTH 790
HEIGHT 1
VIEWPOINT 0 0 0 1 0 0 0
POINTS 790
DATA ascii
0.07702649004209444 -0.10508170536557146 0.086983430343162
0.07663086516139007 -0.10421739037627009 0.08709111083652256
0.07652648533366792 -0.10362440918037903 0.08647387802800177
0.07613329160535522 -0.10267761376652107 0.0865729714500362
0.07575401686455333 -0.10194959052169923 0.08694260839049503
0.07538741968508296 -0.10114137713439243 0.08724068427976475
0.07504048214948736 -0.10035410877827186 0.08756506276639145
0.07467212128263677 -0.09955125774034794 0.08779204378464818
0.07431393760161445 -0.09866633850215543 0.08795691080022197
0.07395063893207453 -0.09770991175241181 0.08811121766801507
0.0736271278177513 -0.09668636124279201 0.08825551652695347
0.07327184568712325 -0.09563773912885606 0.08845646427716577
0.07288609708353624 -0.09459244629549984 0.08867025288276724
0.07246146667302505 -0.09357842484161395 0.08889196085599989
0.07209671384614133 -0.09259826406273097 0.0891002916477161
0.07177648418705608 -0.09160794732865433 0.08931988054793456
0.07139540903556145 -0.09054323974311224 0.08957958977016106
0.07119860985375194 -0.08968853596344076 0.08935166890562873
0.07115503965129492 -0.08919636690462533 0.08889937130554242
0.07102067981510578 -0.08904948909015033 0.0895043052516948
0.07077035652882803 -0.08819255635244128 0.08970330045011486
0.07042604031343092 -0.08725330853200433 0.08999053629941527
0.06998733372840071 -0.0862607577671939 0.09028576401887105
0.06943756434067648 -0.08528757411677047 0.09053265286733914
0.06905649199111401 -0.08443351923697949 0.0900193063928863
0.06871397880156607 -0.08367228946842203 0.09055208525868916
0.06840579284635848 -0.08283461790050879 0.09080467946927022
0.07337233578429642 -0.13158718439701036 0.08926062464910194
0.07387182390122225 -0.13047523892362087 0.0889301923190108
0.07358083495323033 -0.13104085954362596 0.08953944539399501
0.07389947948695391 -0.13029658338600697 0.08956939529511243
0.07433700884933805 -0.1295675358755803 0.08879107373666988
0.07477820146496943 -0.12864935548449297 0.08862266327220088
0.07491651426781967 -0.1281270522064172 0.08888296273612757
0.07571965132636733 -0.12658193605524334 0.08799295797436507
0.07522396463092118 -0.127260865855248 0.0887730138404112
0.07556434462429945 -0.1263784776385742 0.08863088480994993
0.07621655865164732 -0.12569470514748451 0.08779544014569045
0.07664830220541674 -0.12482701631784038 0.08759942175321625
0.07681018695144963 -0.12431813525177622 0.08777339183701288
0.0778281954532694 -0.12275298261665153 0.08674746512422256
0.07721998997980935 -0.12353845302509503 0.08752085544581131
0.07805400952179195 -0.12213011678146665 0.08690641643307395
0.07758485494657424 -0.12265648051180904 0.08777987990934744
0.07797418943142831 -0.1218884018608044 0.08747284208788077
0.0784075644751335 -0.12138216825578699 0.08661628223311245
0.07863612629009903 -0.12050779221736711 0.08687311896708677
0.07892361240987604 -0.11977001960074185 0.08657138633786324
0.07901418538163925 -0.11914888705781149 0.0867254573205868
0.07909833947676666 -0.11857941110031853 0.08697545810823058
0.07976911655278847 -0.11735223864677174 0.08608052594330735
0.0793525487135408 -0.11785418825052064 0.08687224015471817
0.07954039018710299 -0.1171261918750286 0.086689432985559
0.07988126899826241 -0.11669684335604404 0.0858916890862092
0.07974681665062221 -0.11587420945721842 0.08625706464206326
0.07978267236436454 -0.11521988695693587 0.08610201361930842
0.0797005530315661 -0.11468936490897026 0.08630263511529594
0.07961421775379943 -0.11414534171052261 0.08655779205362925
0.07980454510639132 -0.11295104808145372 0.0859060951685953
0.07959176342950687 -0.11342596503838791 0.08658800990676858
0.07955374127765465 -0.11268185584674054 0.0865922423990205
0.07976757223387933 -0.11228016797848293 0.08589452418475081
0.07942877694139962 -0.11140900843274147 0.08648745882233075
0.0792848222198837 -0.11074561269530196 0.08649347879828637
0.07904282899974098 -0.11020117166962341 0.08677947705851952
0.0787807013401103 -0.10963683211110321 0.08709736220506956
0.07852304651499863 -0.10841539441157709 0.08661861850719739
0.07850069422801974 -0.10889423837284484 0.08720968916338459
0.07820597576305939 -0.1081314896573049 0.08731602859952227
0.0781820353000381 -0.10764421236972334 0.08674235852458997
0.07782601726258066 -0.10689218952209888 0.08689680006275906
0.07750886579846453 -0.10629644818368632 0.0872721158886742
0.07715830234158864 -0.10562517890324329 0.0875830408198701
0.07681411965776572 -0.10499457975812775 0.08795972880014973
0.0762847469435263 -0.10359304498195827 0.08750463201284929
0.07639484071386404 -0.1041357473306449 0.08811882705083493
0.0759957216449638 -0.10324125745717964 0.08823507857473621
0.07587280231749717 -0.10265651433460654 0.08761954116434874
0.07548651402008977 -0.10169437505229555 0.08774505557472861
0.07515477959338394 -0.10096270670485279 0.08811481505275298
0.0747970443928861 -0.10014924741916997 0.08839942680695108
0.07442378350700606 -0.09932791647962129 0.08865636981197643
0.07405646101663865 -0.09843339576752663 0.08887495572664406
0.07369775211795962 -0.09748915837797063 0.0890644169328624
0.07337216994808891 -0.09649608278091172 0.08923879586347608
0.07299575352389061 -0.09549025310359911 0.08943771910769963
0.07259080340067968 -0.09449573180802903 0.08963960415098277
0.0722132382179698 -0.09353538371303809 0.08983439941264572
0.07188558578678624 -0.09256101166268776 0.09004668734006574
0.07154563487209524 -0.09158059667645949 0.09030844895319977
0.0712347162443088 -0.09069847118008414 0.09062168808795439
0.07111994425510877 -0.08983026011160619 0.09005822449796913
0.0709114967734387 -0.08905672181963435 0.09035474440661759
0.07064029741298501 -0.0881902669575635 0.09065400496625764
0.07027935255747964 -0.0872149857543892 0.09096054216990405
0.06970426872660612 -0.08610024124266513 0.09128292979539515
0.06924575824286713 -0.08513418238995236 0.09116078261552987
0.06904994429763855 -0.08457640827481384 0.09074034769791497
0.06889154821153702 -0.08446526333987801 0.0913969651902118
0.06858924765014328 -0.08363167535580594 0.09164352988598652
0.06841835378164066 -0.08307945348049803 0.09203632967960143
0.07349796988819755 -0.13088132575940636 0.09054915017496694
0.07411481832556119 -0.12975045413523167 0.08982475244014608
0.07368756040671552 -0.13038309342972748 0.09059624526188027
0.0740878460651868 -0.12957378796358784 0.09049868229128623
0.07445253278214949 -0.12886316532490769 0.08969535056033873
0.07474207674648731 -0.12798934556962815 0.08957134844772131
0.07486409386058794 -0.127456907796366 0.08985714867596888
0.0756862501254427 -0.1258469123353415 0.08886640377745438
0.07519429231860349 -0.1265488978431379 0.08972617020756088
0.07548347322258087 -0.12564172824421477 0.08952372748644447
0.0761792527791624 -0.12497817025414013 0.08864485492984255
0.07673619384441473 -0.12410034042436442 0.08837826954873981
0.07699070023449396 -0.12344547233362652 0.08858185836289216
0.07722161310472272 -0.1227851124102757 0.08875275137048866
0.07814609000257298 -0.12124590742997111 0.08765608761337701
0.07763508794491733 -0.12201669187120684 0.08846801045797695
0.07829304648235202 -0.12061984158852274 0.0878709732209787
0.0779098888731231 -0.12114126567950873 0.08874048454362239
0.07816953128740708 -0.12038732896408058 0.08846138605938968
0.0785773988259481 -0.11981031800193219 0.08762608496744811
0.07879992702391199 -0.11902158693899152 0.08750134082552775
0.07885858752363757 -0.11847021462432097 0.08775076354007981
0.07895212874684679 -0.11789484923885397 0.0878996857609918
0.07951850949225531 -0.11652841362303301 0.08694935901647242
0.07918778693905346 -0.11718761949037172 0.08763436033774051
0.07946735073566927 -0.11592884120069394 0.08721643757837935
0.0791916235638253 -0.11634431758173856 0.08801809748303392
0.0792696333591171 -0.11568105910733525 0.087832270230128
0.0794652781429339 -0.11520798282184862 0.08707968425212917
0.07946345645729766 -0.11450427069660284 0.0870282304060872
0.07934253921983792 -0.11394995055173691 0.08734732891010429
0.07922712209964791 -0.11335484021295379 0.08762899374300694
0.07934560620237087 -0.1120612368829952 0.08701094647425134
0.07920918464758793 -0.11268655736459657 0.08755042097778667
0.07908606383509695 -0.1114284147377093 0.087451656432567
0.07892305432883465 -0.11181772094615013 0.08813808271905088
0.07880213478338444 -0.11113820842770131 0.08812603471048604
0.07892434516054318 -0.11067854247240484 0.08748352115108742
0.07873736579479743 -0.10996891422880667 0.08755468150736638
0.07847475313429005 -0.10940337087911856 0.08786600109617897
0.07820168347102988 -0.10881511609713926 0.08818880907260014
0.07790056760784739 -0.1075847255646481 0.08772708527967503
0.07788298179332512 -0.10805534657096631 0.08832715998377169
0.07757322626486493 -0.1072684417691004 0.08845127769921322
0.0775627898516344 -0.10679249525869337 0.08786926393327359
0.07723010804121773 -0.10600261019092706 0.08802067168210966
0.07689107910573502 -0.10538866189779829 0.0884024960677567
0.07651470204708155 -0.10468095100808363 0.08872718641243947
0.07616898916300091 -0.10401517505527724 0.08913724320046577
0.07566269291195594 -0.10260260700187313 0.08866813511228476
0.07577723421680847 -0.10314121251758479 0.0892765280134457
0.07538751922984561 -0.10223888465285524 0.08939280639654355
0.07527426029278722 -0.10165518405198612 0.0887798448812046
0.07489839484253495 -0.1006832103641508 0.08890809512838295
0.07454074228018676 -0.09994573202897547 0.08926778491432515
0.0741486952274204 -0.09910601074450756 0.08953792174142075
0.07378551655953076 -0.09822159417007935 0.08980025760470382
0.0734366683818396 -0.09728943684541888 0.09000134294751182
0.07308675807236123 -0.09633788835761374 0.09019348861961123
0.07268800467052446 -0.09538042872116834 0.09039221006669731
0.07232173935802991 -0.09443032559861349 0.09057366758339613
0.07196772545160715 -0.0934770153366585 0.09078657215069567
0.07162398539255418 -0.09253105142844445 0.09101280785095259
0.07132298506981724 -0.0916225804989368 0.09126189471930204
0.07110920797552726 -0.09079754565428841 0.09152749819167462
0.07102080647992659 -0.08993250469420548 0.09094506515231629
0.07081102889351204 -0.08913750836836838 0.0913084868432255
0.0705075359194457 -0.08823389522203859 0.09166387997877266
0.0700683591555132 -0.08720463505550548 0.09198331829704558
0.06958259580833878 -0.08625958652664417 0.09226798054445316
0.06921106163969472 -0.08535215920149342 0.09184020253013768
0.06888915515800623 -0.0846478748484614 0.09240025102764769
0.06853133616595765 -0.08364655759507474 0.09272733497624074
0.06838807772659682 -0.08313373930191015 0.09308067498587358
0.07345756571710861 -0.13065791921913567 0.0913052015046768
0.07354540839514442 -0.1303688956868209 0.09150155446412576
0.0741907910868532 -0.129054458414275 0.0907746321959122
0.07379335353053834 -0.12972303320173942 0.09156882314052231
0.07405603249297207 -0.12889664217543206 0.09148288831716395
0.0744104174540646 -0.1281934401453057 0.09066351178615921
0.07474816802957673 -0.12731497660231467 0.0905669457957347
0.07478815087694225 -0.1267921358303542 0.09093344221199097
0.07564432789076156 -0.1251228884519434 0.08976036680241394
0.07508974538494713 -0.12582801086321843 0.09070913936968665
0.07552441598164536 -0.12491990639983164 0.09042500441045066
0.0762482748251539 -0.12430761944194056 0.08944974183039064
0.07672521062184254 -0.12335423951499856 0.0896640198501582
0.07717764686241144 -0.12253302198019507 0.08934167782501416
0.07741990923597573 -0.12192383176707887 0.0895436772316778
0.07761558948819136 -0.12129039175835257 0.08972678650444617
0.07821381997984432 -0.11989114854090742 0.08865529239383457
0.07787992342915653 -0.12046547884616897 0.08947587585059248
0.07808973956267519 -0.11966325218493981 0.08928159926884183
0.07845140024657847 -0.11917001285763525 0.08845189699106493
0.07853686900815483 -0.11832162145966274 0.08873658709558813
0.07878725892544546 -0.11761092599907658 0.0884701543156174
0.07884309780867037 -0.11699866676238539 0.08870821421128812
0.07882954284729586 -0.11640183780260929 0.0889951551673967
0.07916706089522492 -0.1152126570350465 0.08805689098021711
0.07892176618778209 -0.11567536159761972 0.08884046264113399
0.07895523739848317 -0.11493545150741905 0.08869649742031091
0.07916509415047387 -0.11454018853636241 0.08793683034811442
0.07896905246478661 -0.11368443489542064 0.08841646897905213
0.07896904182984596 -0.11302775271996565 0.08830326448209043
0.07881070765842783 -0.11242571978726043 0.08862170546379189
0.07860740341850907 -0.11184659179333312 0.08902859434223945
0.07859316439285607 -0.11062513821740431 0.08847989494115197
0.07844782745377724 -0.11108543032094137 0.08913396319123996
0.07829295624293625 -0.1103383592109906 0.08917919973352166
0.0784011770578657 -0.10988352825253456 0.08854846136357901
0.07818038788205167 -0.10914230411886822 0.08863693007129944
0.07788137033868384 -0.10855805448333719 0.08898136253135046
0.0775600810280491 -0.10797170445625659 0.08933909147279134
0.07726920404062453 -0.10671218980152382 0.08886963317293274
0.07725636413535192 -0.10717600400744129 0.0894720850071972
0.0769624441446146 -0.1063753618362336 0.08957609217260389
0.07695716476615849 -0.10590579182300247 0.08897100440331343
0.07658294936479856 -0.10509770016398506 0.0891369234176349
0.0762382979135807 -0.10443231957864098 0.0895901196169592
0.07587172406041723 -0.10366227029859904 0.08994286865429836
0.07554406993849835 -0.10299491044075086 0.0902849206332622
0.07507590213616755 -0.10160390016437552 0.08980539642753355
0.07518403584177806 -0.10214327728209449 0.09040324978372291
0.07479746108658894 -0.10125638172631655 0.09050164421006454
0.07468980183973452 -0.10067010400589103 0.0899020135965281
0.0742647375475638 -0.09970456227750617 0.09004088499029851
0.07390285522885011 -0.0989354983518607 0.09043770419038702
0.07350687800894155 -0.09801604006863618 0.09070915005934473
0.07315008788935587 -0.097116113090578 0.09089640540344912
0.07278264855818824 -0.09619432055867387 0.09112681222131169
0.07239595522113061 -0.09527051018334105 0.0913249194678435
0.07204730303369715 -0.09434931601569077 0.09151079981031224
0.07168593564670898 -0.09342385007982794 0.09172283439373646
0.07138537113733448 -0.09252180592779312 0.09193508833283923
0.07116644582445764 -0.09164817939367577 0.09215978867237239
0.07102831054267829 -0.0908601697619425 0.09235588571001445
0.0709469564745293 -0.0900540900563138 0.09185909866256807
0.07071529558191172 -0.08935619943577704 0.0924346859364748
0.07034689023748625 -0.08824569531937226 0.09273410309721752
0.06987776512579486 -0.08713382818629516 0.0930538468334753
0.06950057753275138 -0.0861926896339343 0.09293183256099467
0.06924282163714875 -0.08558780881969931 0.0925290815543996
0.06920512210016241 -0.08550573624248187 0.0932100841532227
0.06880921123217783 -0.08455363071185568 0.09349630624672955
0.06853015953058579 -0.08366002752042603 0.0937465032198599
0.0684436201212807 -0.0832592137628795 0.0938640078392958
0.07346154182171766 -0.13016529544146388 0.09214640929907603
0.07351427154759167 -0.12972697865988786 0.09247117070072199
0.07409111559992068 -0.1284075266510163 0.09178726562126083
0.07369847115632829 -0.12905363752961072 0.09255510006681657
0.07389200313342272 -0.1282255234489204 0.09248052283392615
0.07431575574387222 -0.12760343849464537 0.09162475163466606
0.07444991247938051 -0.12663428406430866 0.09196087038301262
0.07474318262650383 -0.12587976565768758 0.09173724511210579
0.07586689334569571 -0.12423805127412439 0.09059923616087934
0.07507224305963339 -0.12510734044900612 0.09147551004430891
0.07626039557236623 -0.1235593469754765 0.09074147487163052
0.07551872095438411 -0.12414221233771713 0.09169319535705643
0.07619741683379633 -0.12331277157383032 0.09133087745517682
0.07682497478310832 -0.1227251688926682 0.09036925400108667
0.07711905609240158 -0.12181611428106161 0.09059266974280789
0.07748629642783351 -0.12107485460698969 0.09031821419773643
0.07754866464951973 -0.12056432671120275 0.09053526917908256
0.07815806000509606 -0.11902970904127134 0.08950340527662606
0.07778653263201518 -0.11976188422301498 0.09025695265178897
0.07824568075163284 -0.11839471241402093 0.0896680262709772
0.07790448976293728 -0.11885032671281766 0.09050819412316971
0.07811532298989489 -0.11811437936284562 0.09024562765566405
0.07844054557063627 -0.11766066317525961 0.08941698730515191
0.07845575050203814 -0.11682112095740929 0.08978871775419402
0.0786225058860425 -0.11615914332256441 0.08960991481208602
0.07856069423826575 -0.11566804671822553 0.089896770609941
0.07880676287546563 -0.11430791218736928 0.08902805553284363
0.07860158121025008 -0.11493917920322586 0.0897257699393614
0.07865553564293455 -0.11367406445886244 0.08937668756411321
0.07842815267686841 -0.11405608736040491 0.0901258584112423
0.07840632489018452 -0.11340099112375988 0.09004341053567842
0.07859998643624581 -0.11295203101800476 0.0893583980493945
0.07850674334660414 -0.11223128903574552 0.08944007103416282
0.07830001013644362 -0.11163933108326894 0.08982501395726286
0.07808790093605426 -0.11100674136779294 0.09017466331400444
0.07804870855043737 -0.10982289738690022 0.0895434899239865
0.07792323788178189 -0.11026274301933556 0.0901909596536096
0.07774468702111521 -0.1095160361244362 0.09023584841680914
0.07782930943404207 -0.10906319832583043 0.0896095253698428
0.07755304632250011 -0.10831891476586235 0.08975285907989541
0.0772182186899155 -0.1077067843475559 0.09015754037505434
0.07690651619695024 -0.10704684406778803 0.09054900260367967
0.07665291463655916 -0.10580776076354925 0.08996160203161446
0.07663211183897 -0.10626271853126859 0.09058894711358212
0.07635620144172281 -0.10543860637358057 0.09065618869524643
0.07639326379990254 -0.10507014594134155 0.09000504429653511
0.07589023222296024 -0.10407553138808097 0.09062646591278781
0.07560085108887546 -0.1033373149904372 0.09069125030558478
0.07528744314327866 -0.1026737598884318 0.09107911058566186
0.07493109710607694 -0.10198429086619307 0.09143780106900712
0.07446493706334906 -0.1006437878219 0.09088391991331003
0.07457188765889602 -0.10116775091317577 0.09146826944158346
0.07417965419848573 -0.10029103892914008 0.09155823777183619
0.07411223849364255 -0.09978887605883889 0.09093070154134732
0.07356423376688405 -0.09867218878552131 0.0915061672127398
0.0732301102385582 -0.0977504933622282 0.091490360676066
0.07287910765540903 -0.09697074618054807 0.0918214425950924
0.07246572736332273 -0.09603563070933602 0.09205003277414565
0.0720972567079291 -0.09515238824709998 0.09221150794459865
0.07177181370979908 -0.09426859029231742 0.09241947847530574
0.0714601824444451 -0.09337064062516492 0.09263250551073388
0.07122929217695462 -0.09248662585871796 0.0928341973723924
0.0710357612419019 -0.09157541894967375 0.09304730217178529
0.07092998985214821 -0.09082308229760573 0.09297531080660489
0.07088858786340256 -0.09027019664161691 0.09260364359180201
0.07077645374678602 -0.09032796179985761 0.09337649636600921
0.07054262527541307 -0.08926994086202414 0.0935354592092803
0.07020529318190817 -0.08822427840579032 0.09377957095567749
0.06995026724107986 -0.08733553697306008 0.0940270542865056
0.06959686256175117 -0.08643209658246169 0.09363494227588394
0.06928695809342887 -0.08570281701030502 0.09425296686455654
0.06885750462376679 -0.0845607040222615 0.09454207185855232
0.06864033127674767 -0.08380661087401825 0.0946824099885256
0.07337075863182038 -0.12951209480650144 0.09310596459996166
0.07341815399662883 -0.12905275739108543 0.0934298283554313
0.07386995223907739 -0.12753033731915445 0.09278378912840887
0.07356426343877967 -0.12837190587139513 0.0934755134964458
0.0740149690347261 -0.12680931695795708 0.09302541801762623
0.07367194658209231 -0.1273656932259551 0.09388287075048986
0.07396675882194838 -0.12654783939500525 0.09362095748227203
0.07445683184657066 -0.12587273793805023 0.0926762786929531
0.074855074825973 -0.12489327064779229 0.09238569801849639
0.07506178294203368 -0.12436411825756212 0.09269703797624745
0.07651720576440117 -0.12259482349804042 0.09141578593469527
0.07573027331728012 -0.1234689777345129 0.09238112412122483
0.0767602938346249 -0.1218996458622197 0.09152634337137865
0.07625675410631527 -0.12241051859829276 0.09243638900132317
0.07667826226629579 -0.12163489674010193 0.09208515493337552
0.07713845956533683 -0.12118683660369259 0.09124289717365057
0.07736934658037938 -0.1202776117540474 0.09139567003304493
0.07761237497398134 -0.11948077994171859 0.09112933079241385
0.07759868856647545 -0.11895998187741093 0.09145996083737246
0.07812246745472103 -0.11748506501805155 0.09047420794382573
0.07780646429704362 -0.1181864607042665 0.09122879177886233
0.07812578690337048 -0.11686598631207828 0.09072581802456818
0.07786112172124193 -0.11728131349716364 0.09150140323716875
0.07797720805559127 -0.11658309500641549 0.09133205309872244
0.07828937844420274 -0.11620334471225108 0.09054433004853145
0.07823473175188188 -0.11533866953058718 0.09087754335371115
0.07825799270672561 -0.11460715502545424 0.09070157631774309
0.07812754747490093 -0.11409602616737761 0.091061764823811
0.0782546555451426 -0.11292110327572458 0.0903551105742298
0.07809449084467975 -0.11337736672539556 0.09105681997488065
0.0780252361415304 -0.11263018010764081 0.09104448232018132
0.07820738166304074 -0.11224736366328367 0.09035183252927842
0.07788684300114623 -0.11136003513858209 0.09091293604699967
0.07777269666877847 -0.11069466200893933 0.09085587225742009
0.07754484385784212 -0.11018845278098996 0.09116918605130056
0.07746547811762809 -0.10899846233437777 0.09060746193608174
0.07735023803101791 -0.10943274828041084 0.09123154573837287
0.07712708480338566 -0.1086689227177663 0.09129554356859576
0.07724552796804768 -0.10831277126747044 0.09062177468543293
0.0768074323505686 -0.10739156877719626 0.09122724338927085
0.07660019353099484 -0.10669743335415653 0.09123991783779666
0.07632552115051325 -0.10613203513726956 0.0916401684953673
0.07602676831601649 -0.1047116858175246 0.09110857895880721
0.07611088539271481 -0.10535894265176396 0.09162620011416397
0.07569476188345323 -0.10401001089632818 0.09152503894973535
0.07566672500506244 -0.10435210889227121 0.09216909587358092
0.07542791297479866 -0.10361865331251142 0.09218743798164239
0.07543030535697315 -0.10328059160867818 0.09153643013843496
0.07492853186148431 -0.10229884473618574 0.09211969319101176
0.07464483864779733 -0.10159036745501207 0.09211110133737097
0.07434162835769545 -0.1010274566582865 0.09244971967713125
0.0737601021964348 -0.0995173493006504 0.09199942240445654
0.07399857510715493 -0.10026432437026152 0.0924631954643697
0.07338738929579582 -0.09874340972757777 0.09242036192610577
0.07345352325976677 -0.09919836754726148 0.09307621506337738
0.07311759966441152 -0.098368719953635 0.09308057878425179
0.07305993236190819 -0.0978571902084841 0.09239667857059676
0.07254753049203991 -0.09674591186747535 0.09286800753663946
0.07219632719797439 -0.09581410398669939 0.09279832746046265
0.07189696052200636 -0.09508429664276515 0.0930717044532178
0.07157863548734765 -0.09418256732930255 0.09330393347853994
0.07129414015075623 -0.09328822804651894 0.09350605535446467
0.07108750195684232 -0.0924081725416835 0.09373920602557947
0.07093530740384982 -0.09168003876148793 0.09375920926388417
0.07088054759922605 -0.0911299470005124 0.09348044683899999
0.0708113767116922 -0.09125779979921908 0.09421661119060784
0.07062555838046183 -0.09022294690825919 0.09439886950890125
0.07037557488523753 -0.0891732860425212 0.09459300919305237
0.07012173959466404 -0.0881366277451094 0.09476335309924792
0.06992720503266185 -0.08731279449008054 0.09467063220293148
0.06971365046488932 -0.08670716660531835 0.09433470013606957
0.06965843131226632 -0.08673006246967355 0.09511377704973983
0.0692568250552512 -0.08561154415738535 0.09534086931137921
0.06893293686533164 -0.08454181232585284 0.09557591652674151
0.06874460762649955 -0.0840020169290441 0.09548681973352288
0.07335694341829814 -0.1288482619326711 0.09406989710902791
0.07345219177319631 -0.1280738675198612 0.09463598022368185
0.07354238247125772 -0.12740860890552036 0.09469192156281145
0.07414199515963386 -0.12598513447565288 0.09374468631767488
0.07374009179398885 -0.12660239272406731 0.09460011120018942
0.07409044859870059 -0.12568725312255224 0.09428157180198722
0.07451725366919706 -0.1251325461161002 0.09340091632986494
0.07493914891713045 -0.12418923316469628 0.09348755015851001
0.07550091304808061 -0.12319538719292658 0.09351890096218804
0.07597617856540685 -0.12245305001622322 0.09324943868906103
0.07686638084201136 -0.12099770854677734 0.0922325525951954
0.07629835960683334 -0.1217305320095538 0.09303885485548953
0.0770506375941361 -0.12034844360618245 0.09237708541496575
0.07659355304586059 -0.12079260997848279 0.09325090538306109
0.07692965389115027 -0.12005507286467534 0.09293197049098213
0.07728475669519978 -0.1195968846540539 0.09208785565013142
0.0773610573910927 -0.11867355754419807 0.09233093312023509
0.07757990712719764 -0.11790657512684335 0.09211421000700637
0.07755270604506409 -0.11737970459457134 0.09247522697124022
0.077943039800728 -0.11596716208358851 0.09160351304857714
0.07769091103395949 -0.11662199741999259 0.0923084352967964
0.07790333719703672 -0.11533762393441402 0.09190205668185947
0.0776312574553163 -0.11572528579786526 0.09268575283695019
0.07768552570764434 -0.11504944045835212 0.09255348828349502
0.07794172112788042 -0.11460019871744281 0.09177140826588721
0.0779149303280184 -0.1138730248759144 0.0917298127400959
0.07773817426545038 -0.11337326254347138 0.09211716585646347
0.07778731371399197 -0.11198903153786002 0.09145616127902395
0.0776912068819063 -0.11263126366082483 0.09205408763066321
0.07754884464559167 -0.11134281901887957 0.09184186600151001
0.07739770781206372 -0.11172218123398947 0.09255634003048377
0.07727121284381878 -0.11105045669944576 0.09251311762548817
0.07740767199961436 -0.11062589775106374 0.0918362853499036
0.0772517441449513 -0.10989478010449662 0.09184391247631256
0.07698437912408174 -0.10935372418654665 0.0922647203654112
0.07682541376511004 -0.1079984322798132 0.09172639068698958
0.07680909402683538 -0.10861013988799541 0.09224389464656632
0.07653890766238641 -0.10733603685882173 0.09214785626458726
0.07643854192532837 -0.10766676614904809 0.09279194973686608
0.07628705001971903 -0.10697587637460687 0.09279488898379147
0.0763505813989105 -0.10665078509216548 0.09211807388709334
0.07599056739201619 -0.1056904917881284 0.09259838296380903
0.07576505906038208 -0.10492984706429202 0.09258063810096161
0.07548270446203491 -0.10432309028794208 0.09305678531273362
0.07508039811579387 -0.10292131844178762 0.0925924271398491
0.07520354564008776 -0.10353672797827912 0.09309342170948176
0.07475092647850884 -0.10221313925283726 0.09299753902197662
0.07477213642575352 -0.10255009453478305 0.09363419360450691
0.07450220033070684 -0.10183658411581356 0.0936590113214717
0.07441608832073021 -0.10143638574141249 0.09306352494309066
0.07404493935632153 -0.10064713976265684 0.09310637097050885
0.07366754947139909 -0.09989628630673243 0.09354238591262144
0.07326807725181682 -0.09914592227490464 0.09398284314508272
0.07276365836193849 -0.09760251379698939 0.0934454765068732
0.0729619842713462 -0.09834050022675381 0.09397462857277282
0.07241967358912543 -0.09683321113942053 0.09379053135040902
0.07250393840468568 -0.09726586226588922 0.09450297459329984
0.07218059710989991 -0.09644667895601049 0.09440207505559056
0.07209771948278693 -0.09596248990502618 0.09366744768650369
0.07171901991743622 -0.09496186745858297 0.09396470240316719
0.0714001302181491 -0.0940350766518678 0.09416349827912016
0.07118189344932356 -0.09320398806506724 0.0942786105982448
0.07104953396957377 -0.09258203699240643 0.09442326563433498
0.07095204965746749 -0.09202524464849583 0.09424015209327921
0.07091919611116645 -0.09220539646850877 0.09496898735353784
0.07069042608855598 -0.09116252329587807 0.09523115738185689
0.07043657095895643 -0.090111618774289 0.09545656539687698
0.07019204436465205 -0.08905613995160255 0.09563756750114645
0.07004616274063041 -0.08817090458818162 0.09551424827996825
0.06995366889347421 -0.087588981778302 0.09517570144447338
0.0698455484790505 -0.08757303260916216 0.09583067376304283
0.06957812720203241 -0.08667180486362062 0.09610934238138934
0.06929361437157819 -0.0855763079707876 0.09636476676956762
0.06905634712382208 -0.08475382699808301 0.09634115923291231
0.06887875724451215 -0.08431171896304282 0.09607111878310305
0.06905782794301756 -0.08475922690061308 0.09671671243840839
0.0733656261059792 -0.12848213835993966 0.09486830155271135
0.07341119830147126 -0.12801577089318833 0.09532738191284969
0.07344949037382335 -0.12759036732925405 0.09577720157499213
0.07349807309758967 -0.12738309266717404 0.09536283504612443
0.07363306967807916 -0.1264854627384176 0.09569702183170246
0.07436014136051713 -0.12491758681827449 0.09435366963062701
0.07391588106098675 -0.12570574202286125 0.09511503344642458
0.07471965012185476 -0.1240064588729292 0.09443183477880902
0.07418884564335766 -0.12477505786824261 0.09534119359985005
0.07508034885166659 -0.1232912389815842 0.09450306696552044
0.07455044637766825 -0.12380066740582756 0.09545586047428231
0.07501579484534017 -0.12298973725886721 0.09504445321382884
0.07562195796217246 -0.12248539097913691 0.0940848222722565
0.07598013869015306 -0.12150187433389383 0.09424196587394998
0.0763091391439767 -0.12082439439025007 0.0940842331775337
0.07700427769184684 -0.11938369361874239 0.09309801538379965
0.0765352769679491 -0.12013629757704758 0.09393515267648406
0.07704820191664428 -0.11872486315979906 0.09328989185255082
0.0766756660909722 -0.11916755707225092 0.09417899041692004
0.07692995651475962 -0.11842266714662346 0.09388328954888225
0.07723713736110575 -0.11799069869628165 0.09306842219630027
0.07728305707150877 -0.11708733794050907 0.0933987034781563
0.07742728798948903 -0.1163251130750978 0.09325428910880243
0.07729972906078676 -0.11580538867877295 0.09366697619893351
0.07758543996377715 -0.11457585334218427 0.09280830792642618
0.07730848363238585 -0.1150187119694835 0.09356557324591333
0.0773429202923316 -0.11429738742966553 0.09345912470773607
0.07760714638717423 -0.11392329668252421 0.09267099693356148
0.07738415480507307 -0.11303866310664223 0.09309208395892665
0.07731326176176012 -0.11230544841913377 0.09304737321370567
0.07706640066448893 -0.11176735996223597 0.09352586657395374
0.07705232875955534 -0.11055893637476143 0.09281476390686746
0.07694415422514402 -0.11098758516307967 0.09353226173045107
0.07682420284657482 -0.11023711801087847 0.09345562215803663
0.07696012129950054 -0.10988117917907858 0.09274881787156329
0.07663901495756152 -0.10895579953701172 0.09320437444643549
0.07647321252139638 -0.10821644528509457 0.09319054456858623
0.07621141908268661 -0.10766824070070308 0.09364914552747904
0.07604613339848888 -0.10629751608086467 0.09316068023989033
0.07603520355288093 -0.1069031964349673 0.09371003521438447
0.07577079493015737 -0.10560549689118834 0.09352577975233155
0.07571689795781861 -0.10592307408788072 0.09421231274632273
0.07552532840494305 -0.10521997736502886 0.09414737520421873
0.07556615076077948 -0.10488189483168076 0.09349032258978174
0.07515652570210739 -0.10389751424800783 0.09399164282392637
0.07489334583320277 -0.10311272561115195 0.09401557795508007
0.07460833769657776 -0.10250938573794127 0.09451734276529596
0.07420409873388653 -0.10128930008515263 0.09400587808738715
0.07426938134453268 -0.10168829371695733 0.09461219403947069
0.07395319656790014 -0.1008984695563844 0.09466525226414399
0.07389652900354654 -0.10056197604259365 0.09400575126087983
0.07335707720337373 -0.09950750157040232 0.09461622513190517
0.07303195947639267 -0.0987382290689435 0.09461786312343802
0.07272236567663669 -0.09798063120532292 0.09500847853998261
0.07237246521785212 -0.09719584262372083 0.09544224788537116
0.07187293331399591 -0.09567196066572144 0.09462645713228915
0.0720699007139222 -0.09636599360358318 0.09530099482885623
0.07153935573554585 -0.09471284278589866 0.094843219665757
0.07169810154710755 -0.09534800755455321 0.09552228505049598
0.07125873916312904 -0.09377678884427877 0.09494263581725487
0.07135491881916933 -0.09437479412917327 0.09568234994630612
0.07109530334498301 -0.09301483829411111 0.09487124550047993
0.07107791180066364 -0.09323037115720738 0.09569526401514498
0.07078743855484884 -0.09210683766172612 0.09601753692463601
0.07051836828991295 -0.09103963952747651 0.0962669399929381
0.07021959881961169 -0.0900024505971792 0.09652886475221598
0.07005666638544035 -0.08917949776459769 0.09648990329417606
0.06998220423454583 -0.08845220824501449 0.09619454846313909
0.06978773941752588 -0.08784541778681516 0.09683983261395751
0.06955092986605448 -0.08668441123880279 0.09713758492356799
0.06936504241052288 -0.08581078281351627 0.09710444400247026
0.06920033024182086 -0.08519203108171111 0.09683043823586984
0.06926518370107639 -0.08560043116298394 0.09738657881507251
0.07354945065190747 -0.12696777557252723 0.09614470443626055
0.07365789488027556 -0.12638752971776182 0.09643572463165312
0.0736470120237702 -0.12644386117897363 0.09685720531251119
0.07372372535118239 -0.12600968458815617 0.0968804711082511
0.07380774470879399 -0.12564044125841212 0.09618260531540662
0.07405213914885875 -0.12457890977683769 0.09643210370463377
0.0743064162457414 -0.12385425027101557 0.09629358732230275
0.07526447051441539 -0.1222860781447835 0.09514912542359133
0.07467358433297788 -0.12310469022124287 0.09606834562977218
0.07554847034091236 -0.12161532784925205 0.09529633077461265
0.0750463838534607 -0.12211007333658579 0.09625119682602844
0.07548613109516063 -0.12133302439247198 0.0958924513810946
0.0760051284326599 -0.12084711743330863 0.094930552057692
0.0762229384258303 -0.11986430127781204 0.09515164790942938
0.07640674003441118 -0.11917316145253852 0.09502431216885097
0.07697688033134377 -0.11777133567495222 0.09412325250936159
0.0765820774915493 -0.11849356587829783 0.09492273812202741
0.07695624189959015 -0.11712726314308315 0.09438052698165492
0.07666116538868932 -0.1175595767881797 0.09525132604963593
0.07678704015028265 -0.11683157434951831 0.09502770891729773
0.0770612763621418 -0.11641178237807236 0.0942314588191163
0.07697616545915031 -0.11554583317616875 0.09458826583132893
0.0770056479629766 -0.11492889450304206 0.09447186344765592
0.07720666722592211 -0.11366920338821301 0.0937716482277534
0.07696900930525938 -0.11430994746981898 0.09446242071525843
0.07703344232190813 -0.11304134029773377 0.09410315631587703
0.07677196877425016 -0.11339412550310082 0.09488263675925457
0.07679475275216155 -0.11271975174749084 0.09476302970673016
0.07698654908651836 -0.11235186658536296 0.09400153316751059
0.07673703306608518 -0.11146148462704557 0.09446312010706365
0.07664877394230894 -0.11085747546433622 0.09443510303603325
0.07660854269999479 -0.10956127207105783 0.09380492690837529
0.07654245611113136 -0.1102091626342649 0.09442753473648068
0.07636534529373866 -0.10888501704039086 0.0941347007827484
0.07620176869278338 -0.10920480203509028 0.09488563853703093
0.07610417218272583 -0.10851150360723717 0.09473074333266446
0.07623531513202184 -0.10820498094435381 0.09406064798338624
0.07596518123091348 -0.10735858632356571 0.09445489665838806
0.07568091304850166 -0.1064394391372121 0.09489733584490911
0.07551995064213816 -0.1058017889395082 0.09497075015111178
0.07525424598054509 -0.10450580836485497 0.09453422715723442
0.07533822540350402 -0.10514776475752255 0.09505031325439911
0.07498276122670867 -0.10379334948428849 0.0949093580418325
0.07492011915979485 -0.10409832092523486 0.09562010596897103
0.07473205998194338 -0.10336729524648541 0.09554857306683183
0.07475223836068186 -0.10307030916749789 0.09488948105111768
0.07432826281579318 -0.10210120019133935 0.09542268131056966
0.07410207863689407 -0.10147923320978797 0.09544020690165873
0.07358333338895719 -0.10014195245995665 0.0950952949767615
0.07381277769348954 -0.10078920316802255 0.09555483667743606
0.07321749812441597 -0.09938262230118555 0.09550335342885338
0.07328333526579545 -0.09968770476467267 0.09615241372107411
0.07296882134821657 -0.09893195991927363 0.09612529834853803
0.07292514840789732 -0.09863109329181892 0.09549265129421909
0.07250232563095574 -0.09766015457722756 0.09597020869674032
0.07209553394310961 -0.09666939977578302 0.09630277817298812
0.07181253862632134 -0.09583414100290905 0.09614208616078654
0.07149957942899897 -0.0950068094758615 0.09640463108036246
0.07119207274132207 -0.09401800275621658 0.09656718400655813
0.07090156402203349 -0.09298237318998046 0.09676151137022339
0.0705905622880879 -0.09192825866630824 0.09709453264786069
0.07029682072669187 -0.09088218046979907 0.09718051659935167
0.07011504845590523 -0.09022795931077822 0.09734271515042593
0.07002651343021006 -0.08953491817055975 0.09716237670673433
0.06999263871684819 -0.09000179839761364 0.09793377079115717
0.06993920237472999 -0.0888036300758439 0.09688816672468037
0.06984546452161414 -0.08891156506562753 0.09777075585071567
0.06963439829454476 -0.08773879220800564 0.09796507073454815
0.06949287419659238 -0.08689123900303146 0.09792902220289995
0.06942196269201477 -0.08626881730188572 0.09760967251223998
0.06943195568368234 -0.08665042361549298 0.09820402623327364
0.07383584064148402 -0.12532685629188786 0.09706722020152292
0.07374804506688044 -0.1258061484556336 0.09731845173792919
0.07393717929880834 -0.12464079643916791 0.09728827260523404
0.0738908673348042 -0.12493515449175963 0.09771021109192317
0.07399785168101551 -0.12428932463148963 0.09776168507792904
0.07415931585576771 -0.12387342662657994 0.09707283601430439
0.07450662600328374 -0.12287957572981568 0.09728691777786111
0.07480043716026373 -0.12216132509519657 0.09713603821716538
0.0756544866627888 -0.12064283129003174 0.09604716301287085
0.07510080940783033 -0.12142878389404274 0.09694239850824735
0.07585149071901036 -0.11995416373803819 0.09621233611086169
0.07536606735879918 -0.12042113487258532 0.09715743188130337
0.07572290539283985 -0.11965494115595555 0.09684542814232656
0.07616076095520231 -0.11918367658833921 0.09588936654783235
0.07625173342180584 -0.11822885186768585 0.09620741254515576
0.07637323762142734 -0.11756536556163683 0.09612696929282301
0.07672104284098262 -0.11621153881286578 0.09532341872163974
0.07641667950302815 -0.11690837367510076 0.09607956880293389
0.07659860476653134 -0.11558273598644771 0.095561953000007
0.07629887348115628 -0.1159909644898114 0.09643025460893676
0.07634407876839613 -0.11527851381646242 0.09619043777869975
0.07664331416847961 -0.11489037105584905 0.09535595677407689
0.07648976689679411 -0.11398349029530282 0.09572982871341854
0.07650176532738533 -0.11334395491901951 0.09570131005965742
0.07666234169542631 -0.1120678646326035 0.09508764702899872
0.07647833742677565 -0.11271421943103899 0.0957283710716038
0.07651284329908745 -0.11142250876856451 0.09539281927677688
0.07634691947701859 -0.11174395118858307 0.09619749575016774
0.07634925760443406 -0.1110601449586975 0.09597647398101579
0.07641964935148161 -0.11075478600838165 0.09521880060694475
0.07617769053216544 -0.10986614416905435 0.09555471134786664
0.07591018269401117 -0.10903456267508566 0.0960023120296611
0.07592225093692506 -0.10785511209505891 0.09502943245294669
0.07587649899777457 -0.10840132766131888 0.09554388908657821
0.07568590927779799 -0.10704439086153851 0.09545094103088526
0.07563600702271431 -0.10758712986691712 0.09603862346641102
0.07545052451897831 -0.10636752516642341 0.09578896087064127
0.0753322123918137 -0.10666586829743196 0.09650825225148991
0.07521533400055841 -0.10598172656234045 0.09637639204632034
0.0752975690648175 -0.1056865843214927 0.09571449457599535
0.07498022325509304 -0.10476479229756686 0.09618542751217651
0.07462582637996658 -0.103885200872375 0.09675302151940214
0.07440484156041349 -0.10265832754299704 0.09594372617389949
0.07449795804074578 -0.10321087019999109 0.09640452689519535
0.07412508464052438 -0.1019546897258186 0.09632926994078717
0.07406576289348579 -0.10224353555272057 0.09703594181150434
0.07384812915820012 -0.1014909163594954 0.09701570657046939
0.07392388223539421 -0.10127600890450855 0.09624952319741885
0.07347945454460185 -0.10031003269233219 0.09670414476504875
0.0730557884526157 -0.09939155352424027 0.09726212738618052
0.0726287105954516 -0.09818121351532165 0.09650873010510491
0.07281654428375865 -0.09875771783073896 0.09692196790913388
0.07225380547990028 -0.09728709661797723 0.09692078612426322
0.07239502143121034 -0.09784657790927687 0.09744776891240853
0.07195356163644154 -0.09652001775998854 0.09722524800507952
0.07196082152154501 -0.09683525341281482 0.0979316832067886
0.07168185940287658 -0.09604964239951301 0.0978274875243438
0.07166879883122751 -0.09572713398319888 0.09705546266882764
0.07130200432149382 -0.0946721413650966 0.09730615954376623
0.0709984827787473 -0.09368655654191094 0.09749217849312974
0.0707372806017353 -0.09279924876076438 0.09765216270493234
0.07055442483571206 -0.09215650309406727 0.09788275245054145
0.07033425091252984 -0.0914149195147698 0.09785772734349546
0.070387011928042 -0.09189616559796261 0.09853779513270419
0.07014036354288848 -0.0906816186116597 0.0978068559363757
0.0700722527383655 -0.09085040667474344 0.09858270091825574
0.06982677414115747 -0.08971831547878809 0.0988535165141926
0.06968535147207695 -0.08862331986253938 0.09872954679640902
0.06959631786733327 -0.08791566963663922 0.09876153890626045
0.06952224932961537 -0.08732200278691736 0.09846148978060727
0.06952940305592197 -0.08767466934657542 0.09911300143379723
0.07416113086359512 -0.12363233616481886 0.09796783624126146
0.07404261663529149 -0.12414477311845662 0.09820178147760852
0.07429314270871791 -0.12296839789899114 0.0981694038217773
0.07417212535692397 -0.12339160010553361 0.09845595945606235
0.07431284939778476 -0.122607657341496 0.09847834652473011
0.07456548488953937 -0.12216479056883002 0.09792202547985661
0.07485563437891014 -0.12112025035821994 0.09811718271805141
0.07510082479095072 -0.12042631349130495 0.09801863162238159
0.07580320432963687 -0.11896805693801239 0.09705093511035985
0.07531915295119615 -0.11973433474854736 0.09788528786407659
0.0758523661271042 -0.11829688670956573 0.09727111571872055
0.0754121629953733 -0.1187278008514653 0.09818850817445508
0.07569556728150978 -0.1179765918646349 0.0978742620092991
0.07605346218884572 -0.1175622497956146 0.09699235777937094
0.07594050341686143 -0.11663230968744667 0.09736702467316237
0.0759217592369974 -0.11598912581252868 0.09732110216886022
0.0761862262487147 -0.11464335728157915 0.09650161851212036
0.07590231838275494 -0.11533853162773693 0.0972751312576351
0.07600167106912677 -0.1139993133990569 0.09678546862992123
0.07564778838748384 -0.11438110797226801 0.09770864688281931
0.07573747259888768 -0.1136543040882623 0.097424886650616
0.07615609379025817 -0.11330182245539697 0.0965615631159641
0.07612082800438552 -0.11241641202749 0.09691915913952047
0.07601612096943958 -0.11159442085752176 0.09741646567436171
0.07618018237777799 -0.11039823169020936 0.09624961348950384
0.07615218341146815 -0.1109564357406593 0.0968654844302684
0.07593428806201402 -0.10959498853002317 0.09659429412323908
0.07592869294668367 -0.1101374383130265 0.09730182563704032
0.07572262221985845 -0.10891858244508251 0.09685769999441014
0.07565366984919297 -0.10921244966413488 0.09765058367376536
0.07550634771108955 -0.10852724925554263 0.09742698022365003
0.07560233988209544 -0.10822975489006548 0.09665887500249433
0.07532541620289272 -0.10731697358297265 0.09710882920474342
0.07501584365176195 -0.10649069424992923 0.0976288176828491
0.07495704347258879 -0.10529276125158864 0.09675266083938
0.07496202153799846 -0.1058525096808098 0.09723564916733332
0.07462098784626331 -0.10445391741554218 0.0972674721930089
0.0745520369891857 -0.10500950755697917 0.09783012741623674
0.07433637871900205 -0.1037322015109508 0.09765873406861074
0.0741356919699225 -0.10402686217199061 0.0984198872025672
0.07394296980970293 -0.10327749823522972 0.09836508146707805
0.07416594480652643 -0.10300953421902764 0.09755121797842396
0.07380578069709592 -0.10215028606962959 0.09804640186459386
0.07353839813987795 -0.10075959470756579 0.09733176827294279
0.07351644412893266 -0.10123799490087196 0.09812055246022283
0.0731960308003338 -0.09990567369475514 0.09770977302628406
0.07325195984059449 -0.10032422846815613 0.098190727364459
0.0728708716389633 -0.09918804150674806 0.09808694504514831
0.07285108988679789 -0.09945411080866785 0.09876290893765802
0.07260410231583538 -0.09870877356109534 0.09871684686023834
0.07260319432561246 -0.09848611373400913 0.09798085109210385
0.072163389237848 -0.09750902863154068 0.09841724966735474
0.07175394807483128 -0.09673796468467191 0.09881934564098081
0.07139085785009251 -0.09525165408014324 0.09803615207975158
0.07146604467962535 -0.09590287329813979 0.0987344205289529
0.07109326206447217 -0.09426864641158275 0.09821915506024037
0.07110954127367917 -0.09480824419530268 0.09900145558288047
0.07081230048047836 -0.0933177709381751 0.09832526043604524
0.07083241413319638 -0.09378259822009155 0.09913171580415099
0.07061999087835306 -0.09259091859096062 0.09830665748978273
0.07054070339020818 -0.09266955456506171 0.0991470654113861
0.07017164264067956 -0.09155501050303566 0.09941337782474123
0.06992566212261708 -0.09058512118923187 0.09953104889569502
0.06979392023731443 -0.08985978947178141 0.09973235261817501
0.06968708161895358 -0.08910508136166403 0.09958239788298517
0.06973362083206908 -0.08954618631808485 0.10039437750902692
0.06961000571931147 -0.08835093048576674 0.09933566643168515
0.06960064250796007 -0.08866883106867435 0.10023219612281414
0.07451263855842066 -0.12178306586105875 0.09855353576319643
0.07459605934021511 -0.12103702226168415 0.09887826888633522
0.07459183018314758 -0.12055968722027945 0.09925591214439367
0.0748195034768378 -0.1203839026343708 0.0987798364169741
0.07502231211814216 -0.11948130520173202 0.09895439817935375
0.0750663965300875 -0.1186744658778759 0.09933871846368766
0.0756576243894198 -0.1173217580330704 0.09812565026209819
0.07531954677769491 -0.11796836606826967 0.09882499751845188
0.07551534791135685 -0.11669009373472679 0.09845178254724007
0.07516120650105121 -0.11710823763469687 0.09933329501824689
0.07523455731835288 -0.11635466718206974 0.09914826800055351
0.07553637053428315 -0.11598024869073957 0.09822050217597837
0.07535683974708476 -0.11509494301161233 0.09857129436031453
0.07515389547021481 -0.11429123189518609 0.09906721083807146
0.075761109966969 -0.11298801208744515 0.09771982183509695
0.0754201227212414 -0.11359916130892589 0.09841268834440008
0.07574549412168854 -0.11218175169904807 0.09810640381947698
0.07536178243371207 -0.11277712009887976 0.09888239372728552
0.0757095489030971 -0.11149713302302428 0.09836322031797647
0.0753151430140789 -0.11183214526480555 0.09926142622517452
0.07550339698503246 -0.11108723538202717 0.09897422564752428
0.0757945273002933 -0.11078524244577205 0.0980537674609164
0.07560787327195388 -0.10985914786393282 0.09839895932177571
0.07530769452830131 -0.10905100488556448 0.09883745534974286
0.07526903008852426 -0.10785402163017543 0.09773270364736929
0.07526195779801513 -0.10841605445850723 0.09832000562378096
0.07498754362035694 -0.10705496855875928 0.09817365507647544
0.07489732669318128 -0.10759752590282629 0.09882942585117478
0.07472504591907382 -0.10637262079480528 0.09850973515752776
0.07456439686012734 -0.10668152691750987 0.09931629820068638
0.0744192175086296 -0.10595501546875181 0.09921562451373282
0.07455807151474222 -0.10566275542509466 0.09841471257860748
0.0741527573864759 -0.10471071765362788 0.09894846078933077
0.07382655945868227 -0.103927605662194 0.099453016604392
0.07367446436484526 -0.10255320633336694 0.09866097573189354
0.07356696106053522 -0.10304037733754308 0.09948484499936454
