# .PCD v.7 - Point Cloud Data file format
VERSION .7
FIELDS x y z
SIZE 4 4 4
TYPE f f f
COUNT 1 1 1
WIDTH 790
HEIGHT 1
VIEWPOINT 0 0 0 1 0 0 0
POINTS 790
DATA ascii
0.06293206821672878 -0.0947192324670673 0.06496044279400531
0.0629300147895741 -0.09376932084766229 0.06501025146634529
0.06296456901789203 -0.09282695179652953 0.06503423729759904
0.0630699212377909 -0.09190620076606416 0.06505557464872373
0.06320047320329569 -0.09102415899270178 0.06510249081743173
0.06290924574904634 -0.0901656690607707 0.06430715291511947
0.06302783611196869 -0.08929860976552134 0.0644095431844819
0.0631001579581112 -0.08844291522961803 0.06449527955016932
0.06311645650387425 -0.08761267371224724 0.06460554617521957
0.06310408636167572 -0.08680111455212698 0.06476549204167632
0.0631359107768421 -0.08606155371030236 0.06504373643294051
0.06789344623174635 -0.13215108226600142 0.06600814563457147
0.06783397637308979 -0.13187492243088186 0.06590525137896193
0.0676022008023393 -0.13060215844123413 0.0655773519705014
0.06780778666196399 -0.13128025493943957 0.06596340472196764
0.06793195279355482 -0.13039518000848926 0.06636024995108893
0.06762668755851095 -0.1297493200700137 0.06562460684759
0.06787672611524276 -0.12868025948013376 0.06607439465920449
0.0681870469213212 -0.12766129965170028 0.0664801966630379
0.06789168929935264 -0.12691950415415673 0.06586401416892437
0.0681671120652385 -0.12588636535917574 0.06635562938250664
0.0681500090945249 -0.125044784130364 0.0664021173704701
0.06788067513735926 -0.1243703489089313 0.06599243982267551
0.0678242456207825 -0.12358923636681866 0.06596644468916758
0.06795524397064813 -0.12294580354959007 0.06632865812087153
0.06805122879763753 -0.12216152640672298 0.06668266476871924
0.0676394233591245 -0.121485345699405 0.06603609019355573
0.06769721699467293 -0.12067718507347852 0.06633276765110752
0.06773438608006824 -0.11985674091886427 0.06660554078514204
0.06779299561162414 -0.11901542869574715 0.06682546915306227
0.06735337421483173 -0.11828715659252652 0.06601957278191299
0.06740568345155218 -0.11742975123794094 0.0661083615183915
0.06747622254915697 -0.1165652327412651 0.06617717789811244
0.06751993506805258 -0.11570445900822544 0.06625161237937362
0.06753282144378435 -0.11484861082725314 0.06630388051046043
0.06745290885088244 -0.11405001480689944 0.06630588927400662
0.06736985414847024 -0.11344191957401746 0.06634773855855415
0.06703150887939624 -0.11264263854625803 0.06599604236044203
0.06690621104865066 -0.11169740475636392 0.0661309189547451
0.06681544254972838 -0.11087688311980078 0.06635171085500702
0.06674572747990799 -0.1101186632809981 0.06658330468856978
0.06627750572595473 -0.10932665025716562 0.06584217454795514
0.06615090540903255 -0.10853662036323224 0.0659894417819605
0.0660177672891116 -0.1077037231984273 0.06613677613331388
0.06584813135369898 -0.10678159004128837 0.06627443196341898
0.06553403354967025 -0.105973220672248 0.06594740268948318
0.06585733320663088 -0.10610872821125637 0.06667379080961974
0.0654522317628711 -0.10536435323430486 0.06598391760185787
0.0653224089411581 -0.10454858563658859 0.06598624806909358
0.06520982982331895 -0.10365200495762716 0.06602802463258209
0.06510734471519973 -0.10273601041661763 0.06605307709331451
0.06500636294378001 -0.1018134195281451 0.06606330091265758
0.06487875875198948 -0.10089735804471961 0.066073049338163
0.06470521790760983 -0.09999287908211157 0.06608116408838238
0.06447579370207719 -0.09915814897874052 0.06604771273249295
0.0643041525115965 -0.09852376832567972 0.06605480171508209
0.06388539562647688 -0.09765658087447031 0.06566932651802172
0.06364050192588083 -0.09664296462446233 0.06576070906936732
0.06347239741516984 -0.09569393203979741 0.06586494535154265
0.06338348495485227 -0.09474563113598493 0.06595005672178056
0.0633322237952544 -0.0937900938739934 0.06598728837700298
0.06338362726658567 -0.09284557208404885 0.06599166600281522
0.06347477096433614 -0.09193313073038288 0.06599935253281045
0.0635872423089262 -0.0910840538320632 0.06602431442958831
0.06332129712970323 -0.0901896643734342 0.06518618107746921
0.06343512784287449 -0.08939224476698746 0.06533113311800158
0.06351016589587762 -0.08854639648880588 0.0654684424676935
0.06350096699798491 -0.08763728164755624 0.06554873043092556
0.06346072185929233 -0.08674331428691683 0.06565125318816634
0.0633957775770609 -0.08586801733791526 0.06580595258091315
0.06316023309275835 -0.08522547524925368 0.06541072522427603
0.06316295071013701 -0.08464757627650109 0.06566088639737973
0.06812705114185671 -0.13236914711112133 0.06659268344256992
0.06843651558015895 -0.13239996573556617 0.0674280092751845
0.0680993753915105 -0.13195167169983577 0.06659347403108302
0.06821851582030475 -0.13108147693784503 0.0669827416966391
0.06842022308208189 -0.13011431226969597 0.06737671075956357
0.06814611313843151 -0.12940568470447542 0.06672296641869467
0.06844340500786159 -0.12837630651809662 0.06712823242633231
0.06871722575996599 -0.12739699317104602 0.06747467409857309
0.06843928922412093 -0.12670951957960108 0.06688355001571106
0.0686459141391037 -0.12597812379354734 0.06723772733980993
0.06833030017572433 -0.12454074653650443 0.06681346948269522
0.06858112469294061 -0.12520630075294334 0.06721022123652935
0.0687395859381915 -0.12436952121058661 0.06758466340041369
0.06830444388735885 -0.12373855376410606 0.06684736601007
0.06844438226659505 -0.12285203763103993 0.0672927999855228
0.06854036446005443 -0.12203371797911654 0.06765394766655841
0.06811276798080453 -0.1213608601870413 0.06701027126296386
0.06816533184285035 -0.12055576295842964 0.06730598713990579
0.06821994856593713 -0.11972777696975752 0.06757306629707954
0.06830808980222881 -0.11887280902787471 0.06776287537340003
0.0678638129421877 -0.11815415901803264 0.06698061656573652
0.06792005382050051 -0.11729209325118276 0.06704096424655485
0.06795437746163573 -0.11646569575820177 0.06709363302518503
0.06800653451040663 -0.11563051721694066 0.06719671421631739
0.06798413602279996 -0.11468924003584206 0.06728682919287542
0.06772930043076142 -0.1138938879881789 0.06689949713220625
0.0680599428013412 -0.11400069353698127 0.06765535068446911
0.06763229441914889 -0.11329547984236697 0.06694911561757708
0.06748059385152173 -0.11252296946862571 0.0669988868487978
0.06736509997619143 -0.11171395839886686 0.06715248337083723
0.06727093254524044 -0.11092936288193148 0.0673453427107163
0.0671595126594813 -0.11015803054958724 0.06752770865409552
0.06664381155306108 -0.1093487264444085 0.06676972010857238
0.06653494124886797 -0.10855223427204051 0.06694072932537455
0.06640460465025873 -0.10773336056869982 0.06712342843727172
0.06630404617609167 -0.10694597086483965 0.06735274963811783
0.06623189835205955 -0.10618798799794915 0.06759139336135592
0.06578611988597696 -0.10536498159014586 0.06684084329744844
0.06569433993869861 -0.10453808790232987 0.06692594300513255
0.06560165779769853 -0.10365917160622021 0.06698771989952326
0.06550771898226718 -0.1027526817571011 0.06701669463172127
0.06540023246692364 -0.10183301481628786 0.0670347869963254
0.06523562301925197 -0.10090033562951504 0.06704792572750855
0.06503304035307307 -0.09989488828606105 0.06705961199335911
0.06467645870154391 -0.09903281906472844 0.06663850677698989
0.06497712650732024 -0.09917961064803468 0.0674115172454653
0.06449705602105194 -0.09839593184782393 0.06665420192352038
0.06423888277702777 -0.09755553706793943 0.06666573986545685
0.06403267137761912 -0.0966457611506183 0.06675783932067805
0.06387241021937226 -0.0957184856972522 0.0668578524533475
0.0637803165740405 -0.09477396390709743 0.06692650697241251
0.06375742268457565 -0.09381798948836216 0.06694073745160611
0.0637997550661313 -0.09287175049698365 0.06692901177617169
0.06387270646356198 -0.09195755778608337 0.06689080803584584
0.06393443975539818 -0.09115187276851898 0.06683651804841248
0.06372585970583863 -0.09033301789729489 0.06611831718795307
0.0639263600479276 -0.08967388727645334 0.06647672987573727
0.06395322016016368 -0.08863487615342525 0.06648927891739342
0.06390588063421676 -0.08767757295021728 0.0665272594341214
0.0638290475352498 -0.08675883794537126 0.06660395024156272
0.06375498090768916 -0.08586942320493941 0.06670678574068604
0.06335030969838706 -0.08504634725108279 0.06599285711641346
0.06335727503724922 -0.08439015097821814 0.0663152409808008
0.0634499415866116 -0.08386847615778176 0.06678605426330357
0.06873783169328901 -0.13278191449179116 0.06824124003170158
0.06880540283301229 -0.13238173255922542 0.06839353138953193
0.06851035093356425 -0.13174476388683337 0.06766874907206151
0.06869244424972391 -0.13080702789023593 0.06804495821017098
0.06892520821916258 -0.12982179174200548 0.06842713708255449
0.06870774470002881 -0.12909303100527522 0.0677818074771347
0.06903702541984495 -0.12802610144318743 0.06824248670504392
0.06913436263380501 -0.1271529665503879 0.06827079988844748
0.06897475051472723 -0.12646437275597516 0.06787333359145084
0.06893918309420397 -0.12568959374967892 0.0678401179469604
0.06906777842021594 -0.12502617982750322 0.06816946068258241
0.06920903299490826 -0.12420962844572893 0.06853795522481085
0.0688419520124293 -0.12353937028417365 0.06791010186980835
0.06894065210279335 -0.12271314907290085 0.06827445866123222
0.06900645901924554 -0.12190555820463211 0.0686037392920475
0.0685848999679691 -0.12123715417584267 0.06796592424384498
0.06866498895502439 -0.12043484764182642 0.06824853172793793
0.06880928480756347 -0.1195573588054407 0.06858715108043201
0.06876184919129799 -0.11873309941628234 0.06852638167911265
0.06843208673672845 -0.11797496811890468 0.06798575058879253
0.06831917272632955 -0.11711464096442797 0.06780096807905928
0.06842904407330573 -0.11644497697496914 0.06801862566172175
0.06845730520697178 -0.11561128119339194 0.06818519838052003
0.06845598963413131 -0.11480116620883125 0.0683815212119231
0.06841860807052727 -0.11404305289187473 0.06858331202707317
0.06797474024912774 -0.11327768102117956 0.06782804036532394
0.06785668795285625 -0.11251151074913299 0.06796486458286335
0.067764871398583 -0.11173347531464949 0.06813142891054322
0.06766157022413231 -0.11095846783825851 0.06830765733330577
0.06755861764500445 -0.1101842773999041 0.06848096988176566
0.06705182806222622 -0.10937905276157667 0.06771458894247265
0.06694462803601878 -0.10858946265303346 0.06791595470416915
0.06682374578535176 -0.10780198616702011 0.06811457378413559
0.06671527876797803 -0.10702308400022664 0.06833400963642726
0.06660973773700724 -0.10623431598521905 0.06852289860570017
0.06615021792701224 -0.10539410722192319 0.06774686236391135
0.06606707756366824 -0.10455299509291585 0.06785545289043513
0.06596785889676764 -0.10367319499318478 0.06792541191824414
0.06587187593047235 -0.1027696346358003 0.06796470616361171
0.06574326236921905 -0.10185275745029103 0.06799678011628979
0.06560407789586367 -0.10093281992298694 0.06805079809261294
0.06546481134526275 -0.10006433110057872 0.06819150078448528
0.06530572239760671 -0.09924340731951284 0.06836092629541939
0.06479782194039753 -0.09839804089302112 0.06753670400631455
0.06459087675652492 -0.0975465773591352 0.0676353771416394
0.06441233704868723 -0.09665584041377458 0.06774146582132301
0.06428509521489026 -0.09573806388414197 0.06782058543155621
0.06422939438519343 -0.0947987091868676 0.0678721187803007
0.06421290248704736 -0.09383677948828101 0.06786649015856165
0.06425505624032914 -0.09286755272724555 0.06781879951810985
0.0642712542086421 -0.09189106573824987 0.0677036406125242
0.06417751633798888 -0.09112511728321585 0.06738544033466595
0.06401916333740303 -0.09057853249670862 0.06688646045682091
0.06433089731637844 -0.09063853304575004 0.0675840939309611
0.06434449729663613 -0.08964956533936717 0.0674903034577846
0.06433597104574477 -0.08867336388464649 0.06748713096999993
0.06428029225478626 -0.08772769919500342 0.06752479838735082
0.06420582779694771 -0.08680223604059684 0.06757499301737795
0.06412098865635653 -0.08593328928394765 0.06765669489331895
0.06366499205274778 -0.0850440097093802 0.06687232677752021
0.0636505957858787 -0.08429982753432008 0.06714698814456736
0.06370330987396568 -0.08364523247898407 0.06753552073615074
0.06378406231118236 -0.08309155184258613 0.06798200556656095
0.06906608674767033 -0.13298329647397475 0.06919722656894425
0.06919379701138706 -0.13227000609988288 0.06942612678648036
0.0689537967068502 -0.13152809758067857 0.0687246304214237
0.06916117150484835 -0.1305437299944808 0.06910770876832154
0.06940773542724811 -0.12956752202985095 0.06943014402248737
0.06923155855430436 -0.1288483193565333 0.06880434424458941
0.06944710457848523 -0.12810497738694065 0.06913197371464867
0.06934714827030845 -0.12662448783802496 0.0686752962697291
0.06948063905729165 -0.12732275200454027 0.06906985723731182
0.06967795334083532 -0.12646320369701963 0.06942428531293994
0.06934279443705262 -0.12581819739754227 0.06869622085035691
0.06954437404492742 -0.12490605870591392 0.06912686289477132
0.06967294957523866 -0.12407639495807386 0.06950138058627195
0.0693290366825998 -0.12338685638324005 0.06889933608124879
0.0694300863305745 -0.12255975483329319 0.06926269061905922
0.06949732477399059 -0.12175966458991624 0.06953448689556753
0.06909453755916499 -0.12111270661951574 0.06889119885314517
0.06919319257658804 -0.12033525852653504 0.06915182389174027
0.06928973013827619 -0.11973760064922685 0.06942809265175018
0.06891330120420254 -0.11824073416588286 0.06886737071064734
0.06920192028938724 -0.11898267513151167 0.06935946615446119
0.06925016536987307 -0.11812285756248385 0.06961110526570098
0.0688044742180465 -0.1173767201081661 0.06874500722585027
0.0688743465273681 -0.11645634114897375 0.06899925057460797
0.0688881427954338 -0.11562121043648593 0.06917991924451632
0.06884935129149845 -0.11482344681950374 0.06936105940487773
0.0687823081040198 -0.11404930232135635 0.06952236911607976
0.06833006914242655 -0.11328334857799853 0.0687489942251719
0.06824307606394918 -0.112513677172519 0.06890086324761431
0.06816307704312669 -0.11174126969170209 0.0690628923798887
0.06807526550748419 -0.11096755327605501 0.0692424676650581
0.06795871795392149 -0.11019390192502526 0.06942559138924306
0.06744897893242316 -0.10940680751650679 0.06866624637747132
0.06734939741706629 -0.108627496656226 0.06886430609323113
0.06723185801309009 -0.10784690538774018 0.06907733789104797
0.06710115737822243 -0.10705762330801821 0.06927626868299529
0.0669817279652903 -0.10624891819513388 0.0694503010459306
0.06650790862700344 -0.10541601505888858 0.0686724233460696
0.06640094338945025 -0.10456150501840984 0.06879174216648248
0.06630461713320744 -0.10367944338252132 0.06885945065903679
0.06619742925095115 -0.1027812306644035 0.06890833330525202
0.06608342265644347 -0.10187726065197499 0.06895334105460083
0.06595171388147572 -0.10098644287544567 0.06905369773053513
0.06579520418821173 -0.10011295296546406 0.06919252540580523
0.06562306777909706 -0.09924336473408418 0.06933501909885895
0.06512128049160777 -0.09840157784006325 0.06848733626390005
0.06492849066423033 -0.09753110229256519 0.06858533352203605
0.06477474302653446 -0.09664499221206625 0.06866601065153398
0.06468898840932048 -0.0957422055994463 0.06873664494405358
0.06467265659703737 -0.09480751712409836 0.0687778831848948
0.06469112945916128 -0.0938342606765857 0.06875936229925952
0.06472278860353 -0.09281427160022539 0.06869844037261155
0.06461280272043847 -0.09196302668608224 0.06836648739379954
0.06441005219479062 -0.09140565685465063 0.06790404604339055
0.06470940866162223 -0.09144474070155098 0.06846700497897253
0.06475554808573335 -0.09064323004888246 0.06848003396025745
0.0647343862956359 -0.08967490962940416 0.06845963510083923
0.06470264759561195 -0.08871105989980134 0.0684739967149837
0.06464488918725711 -0.08776164009290023 0.06850352087859073
0.06456300609947713 -0.08683275221881041 0.06853537854377073
0.06445440327311065 -0.08598245213182623 0.06852560113555128
0.06404619373754514 -0.08514504457430633 0.06780354825166027
0.06408129756787269 -0.08445580408943132 0.06821768972352085
0.06400725899750967 -0.08352688258977528 0.06839106433553925
0.06403389638893943 -0.08297201350039522 0.06868248912316949
0.06932982679521091 -0.13368639851405248 0.0701873820942695
0.0693733289751806 -0.13305309158133674 0.070176929158222
0.0695566680599742 -0.13214735374421918 0.07045434920109027
0.0693816780057068 -0.13132632910079187 0.0697830092117623
0.06964223388961446 -0.1302831243345961 0.07022999292731043
0.06977951742172239 -0.12936129524388923 0.07022996063541484
0.06969932748843657 -0.12861082400118656 0.06979474722799894
0.06971987787442739 -0.12781338618685703 0.06972667816280459
0.06989928645068404 -0.12713110755573892 0.07003145808137795
0.07007944437475369 -0.1262991667473872 0.07036797891317238
0.0698343249655616 -0.12561638194482116 0.0697306066368789
0.06998121345242408 -0.12477392262001473 0.07009441745525784
0.07013039402808768 -0.12396249407002413 0.07045463697316263
0.06981134196752278 -0.12325335917154728 0.06987732232085236
0.06994564793109714 -0.12239218980085373 0.07029902427428196
0.06991240310143935 -0.12161590138989209 0.07028854994933299
0.06963530656865508 -0.12094186943478194 0.06985789756237061
0.06955694376699334 -0.12019992814099803 0.06985415020645075
0.06962041953051226 -0.11961166657655871 0.07010473431745806
0.0696358941899501 -0.11883598860943348 0.07029944504060649
0.06964128408496857 -0.11801349217532688 0.07051654934932557
0.0692645142512394 -0.11726370732527758 0.06977445321979531
0.06927159568034896 -0.11642044484013962 0.06995900573574483
0.06926089457145868 -0.11560772032726804 0.07012375271050404
0.06920486484766453 -0.11481622804129799 0.07027919170098991
0.06914877134979128 -0.11403074131765824 0.070429227101243
0.06871091032746882 -0.1132739095321415 0.06968095968202088
0.06863490507907798 -0.11249949671908707 0.06982261461324785
0.06855238689627029 -0.11172668637966549 0.06998152512721469
0.0684366592325698 -0.11095571304459154 0.07016768577649078
0.06832260279647454 -0.11018641262634782 0.07034212193901422
0.06784615526533855 -0.10942129452175782 0.06960030571835907
0.0677356937335684 -0.10864501776553769 0.06980471181995447
0.06758777608933474 -0.10785840517124241 0.07002524598283577
0.0674538510505306 -0.10705326082347148 0.07021336805211525
0.0673180078749962 -0.10622140857264485 0.07038536018645068
0.06686349532751731 -0.10540981432092353 0.06960130425481145
0.06674141379792241 -0.10454325764206664 0.06970443816554818
0.06663441246822707 -0.10366507078929878 0.06976983264877834
0.06651201280049467 -0.1027807288475411 0.06981927167829435
0.06639325669136383 -0.10189400825237063 0.06990351308055465
0.06626530817470756 -0.10100210554172331 0.07003237729705215
0.06612542457044887 -0.10009286273224711 0.07018135894902093
0.06594089593177832 -0.09916893497715906 0.07028134748220516
0.06543793700457753 -0.09835663719469603 0.06944120092178646
0.06525300429863794 -0.0974700534577004 0.06948001508740434
0.06513692368451442 -0.09661687220535857 0.06952976076681552
0.06511702291722862 -0.09574697341065812 0.06962162615222714
0.06513514472824283 -0.09480870410211752 0.06965290120094692
0.06518947011170415 -0.0938390298577401 0.06965094056637887
0.06513974978530895 -0.0930116560636565 0.06944698423247207
0.06494616263874932 -0.09227690007948904 0.06902212363335497
0.0651733852157952 -0.09177283295371495 0.06943720896308236
0.06516998407908664 -0.09071003198768247 0.0694347391079413
0.06511784046706873 -0.08970543514527383 0.06942207303354174
0.06504709642806365 -0.08873247399282386 0.06944072060910214
0.06498000535643647 -0.08777095831455059 0.06947349918170244
0.06490054269660515 -0.0867634248550674 0.06949323300487667
0.06468654425820572 -0.08590086100693033 0.06912422047897247
0.06438919539094734 -0.0853438543172324 0.06856441293863262
0.06463105732396751 -0.08527762291440909 0.06919040286922086
0.06448489694340884 -0.0844036898073856 0.06923153561515968
0.06438102563582164 -0.08349568177386005 0.0693463145529861
0.06436296015759982 -0.08276596210173333 0.0696560737376319
0.06444421118154169 -0.08220176239224714 0.0701313696238821
0.06945279971196022 -0.13414565972813952 0.07085291527301366
0.06951132135140718 -0.1337669659114581 0.07094705312608522
0.06965509490596537 -0.13297466887461537 0.07117095651647633
0.06984942171732321 -0.13206268834460524 0.07145453624209223
0.06974673435376591 -0.13123647366495753 0.0707962225254838
0.06996191909612967 -0.1305015885217633 0.07115688683267135
0.07000182274392444 -0.12882509685931906 0.07062135524445923
0.0700568917124886 -0.12961522136707773 0.07109355701655465
0.0703009796613274 -0.12867358954906832 0.07140771789903275
0.07006015571257514 -0.12796215452463514 0.07060599165462825
0.07028820292156794 -0.12701421713823002 0.07100344781293308
0.07046742715842429 -0.12617511822504893 0.07133189731461642
0.07025344397232952 -0.1254704799008556 0.07069916840746136
0.07040072792389629 -0.12465477040916709 0.07104354725098289
0.07052718463467836 -0.12386692166706272 0.07138360039077188
0.07024520125672469 -0.12318244430972207 0.07082580046956302
0.07037745039250934 -0.12256877920654545 0.07117667007356754
0.07006983634993127 -0.12115052191608378 0.07066445160077633
0.07030112833470388 -0.12181409356723788 0.0711235199643574
0.07035861573234294 -0.12100431769071475 0.07141763568376547
0.06997467228554807 -0.12037780361517238 0.07064407332196151
0.07001408537249573 -0.11953329113833629 0.07096078515694673
0.07001995163801636 -0.11872649755970252 0.07120647520392208
0.0700025776175152 -0.11792624505951614 0.07141669653102284
0.06963453932947405 -0.11719128923151298 0.07070452912542022
0.06962702071008507 -0.1163836320182669 0.07087133925972106
0.06959347228771695 -0.11558236143367445 0.07103093047282565
0.06955798927848014 -0.11478625905867555 0.07117705527192819
0.0695147877963984 -0.1139826693121345 0.07133326233411882
0.06908949457989368 -0.11324168255979286 0.07058302023107432
0.06902106290244325 -0.11245729849270239 0.0707242742982837
0.06891735335169964 -0.11168636334421836 0.0708857535703812
0.06879732131207478 -0.11092386271360034 0.07106753446266054
0.06869328448719852 -0.11015703753418929 0.07124474976528095
0.06822952806560821 -0.10941389832321449 0.0705225092002124
0.0680941841265188 -0.10863145503700279 0.07073970819300564
0.06793997393533074 -0.10783284101868934 0.070953022906813
0.06779911206038623 -0.10700491036901275 0.07116083647795066
0.06764807053123717 -0.10614205602322979 0.0713093570762488
0.0671860976868288 -0.10535641519331303 0.07052466033207183
0.06705167774246061 -0.10447738711532942 0.0705865382343354
0.06691873724457312 -0.10362571761387541 0.07063202113698398
0.06682290864443945 -0.10277523884113796 0.07072114414542345
0.06671209107623655 -0.10189176044896872 0.07083835216799991
0.0666044260790304 -0.10098645111140157 0.07099722679181406
0.06648833188516977 -0.09999072446003843 0.07124490131811742
0.06621509763831525 -0.09903618412840198 0.07103901483073483
0.06578148849833645 -0.09822113422793123 0.07038907719262902
0.06551135875564737 -0.09732902187240428 0.07017061513200484
0.06552605998936842 -0.09664616080266274 0.07035226246968336
0.06558330164832715 -0.09576395554939625 0.07053568847149565
0.06552399198706689 -0.09478042287521593 0.07039698973205835
0.06555909896521483 -0.09415109138799883 0.0703961343756794
0.06546119922793463 -0.09344072450444482 0.0701154220346175
0.06579270722415617 -0.09401469057370225 0.07087218639636352
0.06529817391703271 -0.09268186930820539 0.06971136996224113
0.06566241908442658 -0.09291788534347797 0.07052714274008118
0.06561956452364841 -0.09177983259435632 0.07043525182091812
0.06556130246575051 -0.0907273305445627 0.0703911083813583
0.06547686188214984 -0.0897299157878198 0.07039196167831754
0.06538973713705014 -0.08875318261713036 0.0704180962187597
0.06533118161442682 -0.0877949485919076 0.07046314475692113
0.06530570549405484 -0.08694269423113545 0.07049151078700464
0.06498953905279918 -0.08611787017697316 0.06984196921661022
0.06505261268728131 -0.08546394303839691 0.07018977685409639
0.06489323324430542 -0.08443437116703743 0.07022358118380588
0.06473857955874197 -0.0834870034610396 0.07032402635284431
0.06464393278791272 -0.08263182103897561 0.07051330035025014
0.06466489928861777 -0.08195545759122036 0.07083780296973724
0.06958069038053931 -0.13423246704902722 0.07160376844194694
0.06968541707109242 -0.13376732162890084 0.07192289831721957
0.06987586420413636 -0.13292475286172192 0.07218005092012694
0.07007055033444823 -0.13201700735031832 0.07243698235782643
0.0700542777428199 -0.1311797587328978 0.07173881748900596
0.07023056209028868 -0.13031481222751407 0.0719442727531731
0.07043915907720616 -0.12941683375466564 0.07213236568521535
0.07061713989047023 -0.12853116792133454 0.07238661308549063
0.07047365222721491 -0.12777932161590333 0.07166808905127048
0.07064618886063569 -0.12691456279704627 0.07198416248606733
0.07082599503834378 -0.1260841871320478 0.07229989676656892
0.07063318024081282 -0.125342896032943 0.07166806362732232
0.07074589086798166 -0.12454803441141837 0.071995466427761
0.07088307239426712 -0.12375687751920623 0.0723027223247225
0.07063331824498316 -0.12311396852411668 0.0716972923520805
0.07065061852346655 -0.12237857163478032 0.07191382014870468
0.07064418035272796 -0.12162497298598937 0.07209132153931307
0.07066468330284298 -0.1208638425232819 0.07232042498838667
0.07035881970684292 -0.1202142956366454 0.07163430778100462
0.07036659444766598 -0.11942021314256077 0.07188194739667451
0.07034905338197096 -0.11863985618226759 0.0721066865548576
0.07033634144688476 -0.11786600610557464 0.07229719713292733
0.06999511534940259 -0.1171380007281791 0.07158746602269256
0.06997492309203125 -0.11634430671822274 0.07176082044268461
0.06995245701774684 -0.11554237414991744 0.07193008541594474
0.06991498246613143 -0.11472994785298633 0.07209288395546944
0.06986889421794336 -0.11390029764571438 0.07222876943559385
0.06945159379961499 -0.1131718882640631 0.07149553524511629
0.06934545897560569 -0.11237748196984744 0.07160471618553076
0.06922191510206431 -0.11162833778839813 0.07175134966274539
0.06912675616436563 -0.11088279178550352 0.0719607659763916
0.06902508611162653 -0.11010000718430929 0.07216307564566757
0.06856331513973568 -0.10937633664014591 0.07144984245407396
0.06839753171366564 -0.10858296554389826 0.0716726806786657
0.06825253796504246 -0.107776323505719 0.07188448922133768
0.0681324260587406 -0.10689523571905231 0.07217634584577945
0.06789540004166632 -0.10603249499797981 0.07206836372774483
0.0675197631948336 -0.1052255629719649 0.07149703722683395
0.06728274202404994 -0.1043273797922649 0.07130162384104445
0.0672306070043377 -0.10362530103824219 0.07148966969989988
0.06713396678105704 -0.1027585987199941 0.07162712310888975
0.06703474408371064 -0.10187980319571727 0.07176303954862855
0.06693927417900906 -0.10101442201678613 0.07194279767166477
0.06689145746626632 -0.10029966272170318 0.07218158893618315
0.06619766416622254 -0.0984870417009301 0.07124920610423963
0.06664908713220606 -0.09926476797196723 0.0720047419326535
0.06637682346047408 -0.09825609497393095 0.07176257665570879
0.06595326488957336 -0.09760418917289948 0.07099901378983982
0.06593195947098668 -0.09673424601113839 0.07114526341243774
0.06598471001772388 -0.09614737901271052 0.07130930666250387
0.06588157404199559 -0.09540959152445498 0.07112697978689687
0.06625207484420984 -0.09607152876887885 0.07186919502659678
0.0657809797880813 -0.09467085114232077 0.07089876857892145
0.06614331140146372 -0.09499968902131616 0.07165817926422442
0.06610909297998552 -0.09391579505404607 0.07159520535759185
0.06603510001890178 -0.09282638947639038 0.07146321617568965
0.06596045575599754 -0.0917617188634612 0.07139101581349999
0.06588832192337907 -0.09073864781609227 0.07135954492921164
0.06578843439713378 -0.08974810190105063 0.07137181911597267
0.0657269718335901 -0.08877461163508747 0.07141824145242659
0.06569883096744777 -0.08775445239273273 0.071483849674454
0.06554014141794945 -0.08687405986686583 0.07110945070257199
0.06530245995503095 -0.08633476794019641 0.07055631039094805
0.06551465439145368 -0.08625275011124192 0.07115218480807257
0.06540587954468352 -0.08540650247164465 0.07115433098344678
0.06528751601227116 -0.0844654226352204 0.07121053781381892
0.06513207775321062 -0.08352746414997105 0.07131089871835136
0.06502923428683137 -0.08263480187088229 0.07144615160895736
0.06495563512181962 -0.08182024001743372 0.0716160703346734
0.06475130410340738 -0.08142726089288455 0.07126387385322289
0.06969154234886496 -0.13504043916691633 0.07360730751717727
0.0696943899395271 -0.13446075272698382 0.07275124477442999
0.06980461416327247 -0.1338290023948201 0.07295809378030257
0.07001295203276774 -0.13294361938682203 0.07319067014165562
0.0702417351804056 -0.1320116291691953 0.07341767440540348
0.07029299847398562 -0.13111683750878972 0.07267022719314063
0.07050493478610874 -0.13021343725152662 0.0728892866216885
0.07069303220385315 -0.1293250548891656 0.07311466501119078
0.07087514363167946 -0.12846531060072244 0.07336712598412709
0.07080054939210972 -0.1276706321182028 0.07266800131028972
0.07095132414385392 -0.12684284303682683 0.07297569362984434
0.0711200546390309 -0.12602245592085268 0.07328303802064859
0.07095373825627889 -0.12526469942907875 0.07262833599360408
0.0710952321288832 -0.12445035230783179 0.07294945415984014
0.07117020619156605 -0.12364107774203371 0.0732220614516579
0.07092152515994204 -0.12297752016251881 0.0725816483259484
0.07092416972777335 -0.12222305045193309 0.07276865039366635
0.07092023891742709 -0.1214984311166121 0.07296460473318338
0.07093177727323048 -0.12077964122896317 0.0732238433328177
0.07067003800289401 -0.12010443374741292 0.07255769324207521
0.07066617652432437 -0.11933998488258866 0.07278921277815623
0.07065322816583593 -0.11857903400478716 0.07299700782670747
0.07063486740714572 -0.11782328674809216 0.07318302979709729
0.0703284380248433 -0.11709242643992655 0.07247138972496482
0.07030063598942164 -0.11630361393235945 0.07266386602007305
0.07027344429677816 -0.11550215868730204 0.07285414512305396
0.07028724681247736 -0.11463783866681745 0.07308892858686167
0.07014753906148045 -0.11380180657253341 0.07296924278868473
0.06981112575626246 -0.1130465953574019 0.07244587484959611
0.0695928901526407 -0.11223557774878597 0.07232442801136021
0.06954910760450317 -0.11161364490199488 0.07262109135323168
0.06945360217399532 -0.11082127559728573 0.07288759448092778
0.0693067181265214 -0.11000016485308056 0.07309602862974353
0.06886860807629974 -0.1092967030100861 0.07238559803500506
0.06868797864104964 -0.10849840528640654 0.07256160976370143
0.06855999771306932 -0.10775175834143075 0.0727610622766407
0.06850742966658806 -0.10714580827847468 0.07305466592870209
0.06789889960224213 -0.10551201022748458 0.07238446696269296
0.06827267336330073 -0.10629032087421515 0.07294746970552585
0.06812930118710046 -0.10532890655664165 0.07314154738345818
0.06765160182828796 -0.10458085378658136 0.07222946257862418
0.06753638373109969 -0.10358138166806337 0.07238920041655893
0.067424731092185 -0.10270368036310198 0.0724964168241508
0.06733855071634665 -0.10185917379020466 0.07265354488841796
0.06724908377899029 -0.1010229151605239 0.07280857748871346
0.06713371202278537 -0.10017616411285539 0.07288756725378126
0.06705943931172785 -0.09942286324178605 0.0729904305978304
0.06631735372968078 -0.09747727615763054 0.07182885525773408
0.06677850396044804 -0.09840442530837161 0.07264258559458668
0.06622425483732532 -0.0967156869858312 0.07176429726824658
0.06662747370011424 -0.09711548448767314 0.07256925889757719
0.06660150109174225 -0.09600769631915214 0.07263605209364765
0.06652721785865526 -0.09492476212759188 0.07256472415442197
0.0664467850036249 -0.09384924440592764 0.07247849959523833
0.06634405240575154 -0.09278848204438958 0.07239265459125471
0.06626026589170134 -0.09175707041910906 0.07234417718268762
0.06616341105047162 -0.09075921430969032 0.07234375148525275
0.06608032776117433 -0.08978300165905215 0.07237321122829818
0.06603743958391692 -0.08884147069464199 0.07245400926803272
0.06607486244011279 -0.08798362905504653 0.07261061401389146
0.06581385406204816 -0.0870702239867553 0.07186595481361939
0.06583268493368505 -0.08631076519519586 0.07201807425954793
0.06577833910788848 -0.08544742587351915 0.07211416600340305
0.06569577263141511 -0.08453230056092707 0.07221350957316618
0.06556325292659984 -0.08357895141432249 0.07230119019169472
0.06541918852698181 -0.08263099027596124 0.07238572699417807
0.06526677875308404 -0.08177249917346291 0.07242371190774069
0.06497761294260375 -0.08121713114631064 0.07192922391900038
0.06516016858889709 -0.08078724229700006 0.07254269425390464
0.0697198399670072 -0.13524064002235642 0.07435099121005632
0.06974891611476813 -0.1346988874646747 0.07375625959517888
0.06990407103622677 -0.1339242987848573 0.07400185232515205
0.07011868623374545 -0.13296899023607037 0.07420975455160715
0.07033607094859581 -0.132032907159375 0.07442248225674561
0.07047274787501782 -0.13107738223287008 0.07365055730976812
0.07067272699192183 -0.13017663205740976 0.07387955958960919
0.07087715895103412 -0.12928159348836987 0.07409106716621863
0.0710396860473899 -0.12847273318101396 0.07432803703260267
0.07104064457828131 -0.1276450929311794 0.0736788963012523
0.07120020265402494 -0.1268271483825784 0.0739923983110128
0.07135540181980125 -0.12598415063538854 0.0742795864793007
0.07124743523015713 -0.12519144408389565 0.07361241620837582
0.07137608152758225 -0.1243378247797268 0.07399859368417636
0.0713723707956062 -0.12353000361817514 0.07398589827168997
0.0712104657470884 -0.12282647070476418 0.07354810340026716
0.07113027760602941 -0.12205961677599171 0.0735077276346421
0.07116319016459503 -0.12147733864868114 0.0738421666227693
0.07119314566073666 -0.12074159381542529 0.07413780196157944
0.07094367925179196 -0.12003404985222901 0.07346983919212915
0.07093341413270769 -0.11928425566328854 0.07369819846578515
0.07090206462982221 -0.11853986168764169 0.07389906308340506
0.07088971762081905 -0.11779241567598962 0.0740808114731684
0.07062257433149208 -0.11705403911363738 0.0733725945650932
0.07058985170930213 -0.11627643469243575 0.07356707450271847
0.07058466712098771 -0.11552039292606792 0.07375319942978249
0.07061742765904556 -0.11490650457490141 0.07398294178465102
0.07016591936177898 -0.11332493713343139 0.07330724600837266
0.07046757174503857 -0.11407929027028378 0.0738341367886261
0.0703742752579871 -0.11320156760908506 0.07406204175527133
0.06995710906759836 -0.11248237369194455 0.07322462738147491
0.06986429503500062 -0.11158847149711935 0.07356488090948027
0.06976500754850298 -0.11069223943701291 0.07390794810662332
0.06952096428384028 -0.10986971640385738 0.07385887575930518
0.06914729567529694 -0.10914590973871495 0.07336871252409316
0.06889896620593715 -0.1083514024189425 0.07328219268778945
0.06884119120201139 -0.10774794963884617 0.07357250616734494
0.06872132319389924 -0.10696499469906177 0.07376550518222977
0.06859073366425084 -0.1060242742149578 0.07400516564170984
0.06835211168753735 -0.10512339284557955 0.0738948202172745
0.06798426559500019 -0.10432389111963926 0.0733045169594669
0.06775765851454991 -0.10339033461899493 0.0731384202697151
0.0677066158597978 -0.10266340638219218 0.07336161991886812
0.06760701988593838 -0.10179683183014257 0.07351860512960816
0.0675058760565001 -0.10093581115064602 0.07362739363064566
0.06739986847116905 -0.10007921191743846 0.07369636826702633
0.0672595786393883 -0.09915937167935265 0.07367439020776932
0.06711965228179129 -0.09810984134016713 0.0735925228649748
0.06703256659478855 -0.09701455044567227 0.07357070884609346
0.06694971901456592 -0.09593706594457545 0.07353401203260489
0.06686065788332315 -0.09487312936565442 0.0734696454869574
0.06674851468539236 -0.09381869794752801 0.07339616683314111
0.06661952325600563 -0.09278309446591029 0.07334044531153727
0.06650799116737006 -0.09177259430241207 0.07332010715491294
0.0664049521224312 -0.09078611238743163 0.07333199579660854
0.06634206118633612 -0.08983456740454891 0.07338499663766698
0.06633092408891986 -0.0889304819145287 0.07347893123848163
0.06636077322194477 -0.08809430159988137 0.07359719680474423
0.06613765773136082 -0.0872078739052742 0.0728060179064283
0.066167308158179 -0.08641523766785074 0.07298716739671894
0.06615094582689662 -0.08553983517962217 0.0731331155374639
0.06606141697097233 -0.08458229518187728 0.07321940220668473
0.0659564939784203 -0.08360204822581206 0.07329937227763277
0.06582961024273234 -0.0825394683673787 0.07337016388573264
0.06549650629662902 -0.08161941888411077 0.07299340788778685
0.06520975569241085 -0.08117729275027849 0.07251291213156727
0.06544492558901312 -0.0810535340015556 0.07308897970801516
0.06544218538401109 -0.08061533818025664 0.07332048821435755
0.06972872346356492 -0.13539081036906464 0.07498768462340405
0.06979582263631134 -0.13488928587045138 0.0748313156654219
0.06999055086110316 -0.13395222240622506 0.0750482166510165
0.07018762654758073 -0.1330038792394498 0.07522377030092284
0.07040596503123302 -0.1321179735791619 0.07542386375995325
0.07057374467091042 -0.13111961382218815 0.07468334891524442
0.07081112628477058 -0.13016457686518537 0.07491527309221113
0.07099998332008114 -0.12923888572230985 0.07500591085235582
0.07114461973470193 -0.12858190854294632 0.07508627798850706
0.07125545955098703 -0.12774564561398172 0.07479280536088867
0.0714014716481272 -0.12679839118454217 0.07501697113169523
0.07153337887291614 -0.1259773005803608 0.07525570360542212
0.07146515871503867 -0.1252050590498289 0.07457921490050574
0.0715459625852294 -0.12459515961957782 0.07489942799609242
0.07141358297541271 -0.12309542355922987 0.07437282027441629
0.07152994102263105 -0.12380883612386374 0.07481787521490595
0.07154184545528253 -0.12305511718168534 0.0751156307733411
0.07136260145993861 -0.12232979819249105 0.07439535745715037
0.07140780356242192 -0.1215019068207457 0.07480244409874995
0.07139919135149295 -0.12071477947683587 0.07508116658295749
0.07117822368306627 -0.11999023543388128 0.07439119951173288
0.07115946479983765 -0.11925184042894582 0.07460463168513132
0.0711276057488655 -0.11851648059506036 0.0747983453102715
0.07110796142204365 -0.11776897709844965 0.07498319310351265
0.07086640064664275 -0.11702967385883911 0.07427317690128823
0.07084552273284718 -0.11626708728764855 0.07444831080905923
0.07084458932173976 -0.11552584647862604 0.07460204861993744
0.07079936413312277 -0.11475389895974673 0.07470722877425454
0.07070219651121452 -0.11391278047941943 0.07482339255934256
0.07061349706470534 -0.1130560631739449 0.0749835066561841
0.07026227226364136 -0.11234763666431984 0.07424326834090857
0.07016323123854933 -0.11153104954316846 0.07449047049056463
0.07010259312974512 -0.11088873139133591 0.0747736759266857
0.06950709443128332 -0.10937474698310581 0.07420284751794776
0.06986676654018915 -0.11007813864317086 0.0747015631192282
0.06971584787769504 -0.10918089184608606 0.07493932701974367
0.06926087331956256 -0.1085413152492341 0.07413466372839915
0.06912150567214848 -0.10764425011237831 0.07439425745149295
0.06900417098754551 -0.10685100437821353 0.07459599403528999
0.06894610197706802 -0.10619160563724775 0.07488037618423894
0.06834817517028223 -0.10454307836824228 0.0742122341085336
0.06870515976694422 -0.10530822400336373 0.07477849284374215
0.0685510894279793 -0.10428477220653411 0.07498481073737744
0.06810686102517415 -0.10358591480399319 0.07406730134323083
0.0679776837015178 -0.10255367854851011 0.07425174784044358
0.06785187459647314 -0.10166801258416132 0.07434603244022524
0.0677525219859656 -0.10081661831439764 0.07444786281344468
0.06763875621569036 -0.09992540232857623 0.07450182313681754
0.06752371350782803 -0.09897789858564442 0.07451751192474929
0.06742271735795403 -0.09797036603890927 0.07451241567807808
0.06733585935526272 -0.09693739170360909 0.07449851207599734
0.0672363805944502 -0.0958982924676661 0.07446104747002459
0.06712905305513396 -0.09485993951143892 0.07441004323312733
0.06698921928218353 -0.09381862326164855 0.07434540458737121
0.06684440107567727 -0.09279507241333732 0.0743055535570207
0.06671397014457137 -0.0917973518904419 0.07430547350276047
0.06662063062470558 -0.09082199140372282 0.07433413617326469
0.06656809163320394 -0.08987586074773586 0.07439393937258386
0.06656951791134531 -0.08896207069730744 0.0744653269947872
0.06658342278837999 -0.08812792273294702 0.07447756041893082
0.06641661415842237 -0.08733484042310745 0.07375116591553431
0.06649487638907096 -0.08661482214191532 0.07410714380450256
0.06645240929362455 -0.08558091699251452 0.07415374929820778
0.06639228088125304 -0.08461388723094589 0.074225258170486
0.06631774528736951 -0.08364578035632708 0.0743206874159839
0.06624278608623867 -0.08272115550727463 0.07447730996787516
0.06585126997403686 -0.08178043371694266 0.07372984788767163
0.06579267087193551 -0.08104870041256992 0.07392862841458893
0.0657433854480669 -0.0804054733166508 0.07425789551860049
0.06577100703573828 -0.07989639174120879 0.07472465147595411
0.06976792710239557 -0.13524656858657141 0.07537607037149466
0.06991118042210843 -0.13469458192196507 0.07579020564442637
0.07006442820239965 -0.13392249447705315 0.076114011801693
0.07025431905134262 -0.1330263641295424 0.07616581992315691
0.07044778978025851 -0.1322969115619157 0.07623870599875764
0.07065039600482195 -0.13128739473228712 0.07588538356246212
0.07096311321070853 -0.1300465243032632 0.07600916118130831
0.07112907744947557 -0.12909093573509847 0.07563999413226263
0.07120879822311 -0.12924052232724242 0.07643246245962629
0.07129628480339427 -0.12843927108226605 0.07571801012129593
0.07144069137830708 -0.12761746513585634 0.07581787195174691
0.07156230878340224 -0.12678219898751691 0.07600971506006411
0.07166983917886276 -0.12597173684524712 0.0762214489048775
0.07162016450960355 -0.12520754461267475 0.07549908869576172
0.07165393548093713 -0.12445026683087816 0.07565789297058402
0.07167034519642762 -0.1236924109330909 0.0757223935633781
0.07167988935850425 -0.12309616298165807 0.07582834470655322
0.07159750506758036 -0.12235737939136399 0.07555894746523714
0.07159308795969813 -0.12146369733694888 0.07579621625210456
0.07158493878875997 -0.12068585455735194 0.07602249651558608
0.07139059972127869 -0.11996333457032515 0.0753118290448745
0.07135140729242133 -0.1192260780299139 0.0755224547053613
0.0713130865679442 -0.11849309502178719 0.07571519362701927
0.07129149885022631 -0.11774524009117669 0.0758996019535321
0.07109052657808444 -0.11700657911959414 0.0751618882070211
0.07107347145451104 -0.11624059665908702 0.0753199731746691
0.07104540652438707 -0.11545660558507616 0.07546145600976366
0.07098625680193911 -0.11463476081808589 0.07560384511780165
0.07091665376634518 -0.11377146553879909 0.07576403020529089
0.07083352299035778 -0.11289517799280172 0.07590009077116582
0.07051246654161154 -0.11221255921845105 0.07516925869565359
0.0704079928057035 -0.11142637385922043 0.07532414091841703
0.0702772000215101 -0.11067307299003012 0.07546364567786769
0.07015245410685642 -0.10980028276207156 0.07573472752422666
0.06992145561330002 -0.10896365291992723 0.07567924474074787
0.06956012519493203 -0.10825759919042768 0.07517961215500558
0.06932531958411836 -0.10742732553821484 0.07510621176513801
0.06926455879562035 -0.10677203116868185 0.07539845027762046
0.06914068303671843 -0.10594137393083441 0.07559066128908247
0.06899564671767212 -0.1049438457133207 0.0758539156883188
0.06875618668291375 -0.10400777861187474 0.07576550965634109
0.06839533427303904 -0.10322619968640935 0.07516817302702358
0.06815651487526693 -0.10228739623086774 0.07499923033598968
0.06808291271860585 -0.10153940026601355 0.0751669686996013
0.06797033299861692 -0.10067563209659515 0.07525225972626276
0.06786800309847363 -0.09979387418011387 0.07533602642822039
0.06775684025296426 -0.09886284939072595 0.07539329101415286
0.06766692722711316 -0.0978944308112452 0.07542271803868096
0.06757303617794615 -0.09690021352918511 0.07542807846308076
0.0674572674170139 -0.09588574312519324 0.07540143026169273
0.06732567071813537 -0.09486365904972036 0.07536168599552001
0.06717560884966893 -0.09383784159294858 0.0753174971510585
0.06702996551679616 -0.0928255951193228 0.07529896341000078
0.06689198561571708 -0.09182642001632514 0.07530501483162101
0.06681173713710305 -0.09084823334282266 0.07533914709349637
0.06678255836421723 -0.08988405577358714 0.07540025033514546
0.06678348271441197 -0.08886467814700433 0.07546577690451692
0.06672620843525552 -0.08800046768019049 0.07507756691630654
0.06660502513810869 -0.08749323864538869 0.07450517228000765
0.06674081637715004 -0.0873585466472111 0.0750992429268299
0.06673518868986907 -0.08650492238573303 0.07508959700991943
0.06670671252021594 -0.08557257391856395 0.07514168355455274
0.06665540288144357 -0.08463338434030969 0.07522438525242475
0.06659492710632815 -0.08369530143735922 0.07533364481395631
0.06653437807189265 -0.08279886233619405 0.07548269851209514
0.06618361467001949 -0.08187626329022082 0.07467321917292864
0.06609127642597996 -0.081051477832697 0.07485993209892255
0.06595987388132545 -0.0802689504773002 0.07507958365263513
0.06593638901995452 -0.07978225259586764 0.07540574822542129
0.07000648240094821 -0.13475555924109875 0.0771435898385359
0.0701799196582768 -0.1338445569489781 0.07719824134552124
0.07035606701845404 -0.13290702743312544 0.0768266722754086
0.0703699396884787 -0.13315396744769714 0.07762125542975372
0.07053668070862786 -0.13221435843916549 0.0769379831872478
0.07079402118355518 -0.13123769779790334 0.07703538849966755
0.07107133382174052 -0.13023130701133384 0.0772077189565632
0.07126284786493359 -0.1293714281360731 0.07742473534805862
0.07137442137304502 -0.12845750346155407 0.07663564386240333
0.07154409223230421 -0.12763352072620673 0.07681561183982694
0.07165204493448052 -0.12680208728820402 0.07700592303344413
0.07174917586712588 -0.1260030186279982 0.07720133673214674
0.07173098616646008 -0.12517117072797831 0.0764343950086613
0.07178905364142983 -0.12428847996858228 0.07662171041689306
0.07177144400987077 -0.12350431836974173 0.07632950272288269
0.07185046793537299 -0.12360735099803402 0.07706675800713779
0.07175801310119351 -0.12292467869373809 0.07643457700737513
0.0717538818903609 -0.12218910604978006 0.07654559048231181
0.07175300336106025 -0.12141185365572393 0.0767437040583023
0.07171659373413805 -0.12066426368472732 0.07696129678925041
0.07155545433674933 -0.11994330126672317 0.07624189320172378
0.07150676210478177 -0.11921265796943024 0.07644973551156166
0.0714591243128149 -0.11847758422218202 0.07664707582949722
0.0714160559796997 -0.1177274780286948 0.07683218263602834
0.0712558066158871 -0.11697893987869909 0.07607433651736807
0.07123906472319161 -0.1161965325576137 0.07622478116938439
0.07119817272501038 -0.11538571115165852 0.0763818426363432
0.07115609254153311 -0.11454024959819989 0.07654958352512183
0.07112521846923156 -0.11360772343234452 0.07679179008202563
0.07099997262175954 -0.11273513674714736 0.07665040724062921
0.07075128268577109 -0.112011198808252 0.07611207639741954
0.07057104757329753 -0.11121647418325448 0.0760012009783872
0.07051378533118637 -0.11058684607591593 0.07628551474871026
0.07045838591665776 -0.1099439402627134 0.07658510358949557
0.06990351094965723 -0.10841958082214795 0.07601884009672215
0.07023928071831198 -0.10911471181432 0.07652279081440955
0.0700869340513448 -0.10816553443137203 0.07677028054258521
0.06966358609941858 -0.10755551319252249 0.07595571557544617
0.06951512271106088 -0.10660244423224284 0.0762194775543211
0.06938421025756958 -0.10577354455428896 0.07641869827065775
0.0693190451646876 -0.10509392503229402 0.07671239785966046
0.06872266725163655 -0.10338701928430426 0.0760747443566155
0.06909296521982825 -0.10412891714352386 0.07672356763930474
0.06885496560618812 -0.10313435854285706 0.07668642197764516
0.06848304651465364 -0.10237008653180829 0.07598704914366244
0.06826523142620013 -0.10133371211806207 0.07588391687137329
