# .PCD v.7 - Point Cloud Data file format
VERSION .7
FIELDS x y z
SIZE 4 4 4
TYPE f f f
COUNT 1 1 1
WIDTH 790
HEIGHT 1
VIEWPOINT 0 0 0 1 0 0 0
POINTS 790
DATA ascii
0.0747599514061025 -0.10729516024038258 0.06994978101049819
0.07445960996088115 -0.10653670964004906 0.0700933755097506
0.07416733448589528 -0.10574502321000191 0.07023223605379145
0.07386963146606977 -0.10496697097822964 0.07041810821873401
0.07366615925820041 -0.10431971615403925 0.07064814965471773
0.07233448827317644 -0.10262469689550374 0.06998745392067215
0.0731196797850585 -0.10336165784622545 0.07055404501901448
0.07253292937104451 -0.102420447056994 0.07041923730310105
0.07183026426808178 -0.10177821417542454 0.06982165098842118
0.07160903255059378 -0.10094778459816878 0.06997388509854081
0.0715490898750071 -0.10038717998610173 0.07012805521668372
0.07125118972082832 -0.09964407572242799 0.06998871855194763
0.07188404057783715 -0.1003185622116079 0.07058515431015856
0.0709517735583629 -0.09889558693738196 0.06980286479609739
0.07150028853137684 -0.09923513376558203 0.07041737416366038
0.07120703264725392 -0.09814870255052212 0.07038017132231103
0.07084355490167835 -0.09706343765757562 0.07028292349232201
0.0704798668860047 -0.0960121299817941 0.0702415647993318
0.07014891818735615 -0.09499791894432551 0.07023237557647458
0.06978818308449014 -0.09400510663104242 0.07028190071417299
0.06948759641716154 -0.09302344439589452 0.07035292128659526
0.06921647610572902 -0.09198681726247246 0.07043852345975582
0.06881050103073517 -0.09106262502724354 0.0701348676412079
0.06838096132312772 -0.0904776344662629 0.06966090452677057
0.06862962648694601 -0.09042297010567547 0.07018511652846589
0.06829059966077733 -0.0895347320058369 0.07021047904196231
0.06792869650401523 -0.08854271943976783 0.07027632479936795
0.06751649042478042 -0.08756336191752835 0.07039585239412885
0.06720537608945683 -0.08663685719483616 0.07054578952976906
0.06694527365052201 -0.0857865233963121 0.07072082746750366
0.06660583084111016 -0.0853553600125355 0.07040934661319923
0.07454623809450721 -0.13316406716125412 0.07144297990974134
0.07472353912837967 -0.13267150172130532 0.07078247257141528
0.07509174568756775 -0.13204642662651817 0.07093425877464136
0.07570803864991424 -0.1311824885601249 0.07109498001949398
0.07635568603745246 -0.13027319822128286 0.07124314714893518
0.07668314487561619 -0.12947655830219787 0.07068465736829128
0.07727871635355746 -0.12861271436140992 0.07081788805239125
0.07783206537496179 -0.12778161623860582 0.07096084669577116
0.07836657496460324 -0.12699100599333987 0.07111141363989469
0.0784630113424088 -0.12634166356311538 0.07057010882671282
0.07894617508916216 -0.12560715695604374 0.07075916583736891
0.07945150059798683 -0.12490772831269369 0.07093409889759525
0.07938291866219191 -0.12431768990746099 0.07046520667632186
0.0798143648782688 -0.1236499397042704 0.07066117030146275
0.08011369586480849 -0.122992416294867 0.07084484531624663
0.07986635972507675 -0.12247500009842613 0.07040681687185915
0.08003642533891168 -0.12185491190609692 0.07052521749243289
0.08017390608552041 -0.12126906482437128 0.07065632653367306
0.08032478269783082 -0.12069558747453786 0.0708254492527808
0.08007145536769858 -0.12017120873852022 0.07033848787232343
0.08019689617470163 -0.11956096465724714 0.07048182093730765
0.08030181161765293 -0.11895808383113167 0.07060276442846153
0.0803890241247991 -0.11837634304591221 0.07071235383101163
0.08001860305963235 -0.11783871962950909 0.07022568255247173
0.08003970748106683 -0.11725247966286287 0.07036645254831392
0.0800533733182541 -0.11665122076544568 0.07050020281235458
0.08010654510370178 -0.11603023479096833 0.07064303083721588
0.07990772341213519 -0.11543774061493557 0.07057198137840878
0.07942094188782044 -0.11487370442537097 0.0702340687661069
0.07909623801619556 -0.1142592207068637 0.07017900304641451
0.07899721112036373 -0.11380057432103 0.0704327253323098
0.07881592944045193 -0.11320330402948467 0.0706659311642774
0.07853855350165681 -0.1125944903950938 0.07087659735731146
0.07786744650804427 -0.112051011492423 0.07037640578784811
0.07752542778333726 -0.11143038496513168 0.07057779509549982
0.07725884598733344 -0.11083715627468951 0.07077571761346108
0.07711406968346768 -0.11033827539901682 0.07103708837887121
0.07602844398558761 -0.10895906698678338 0.07058060874148396
0.07666083362032913 -0.10962673325188335 0.07098702024339906
0.0763084319129992 -0.10881988660601684 0.07118633141807901
0.0755233059429461 -0.10815455374747145 0.07050545510267839
0.07518750360337542 -0.1072826622749522 0.07066426499572238
0.07486895017263902 -0.10650886135214015 0.07078350161588429
0.07458557848791467 -0.10575669107929613 0.07094159636754861
0.0743055028780912 -0.10500048789368953 0.07110531078456994
0.07397233331421699 -0.10422383869481329 0.07120903757833466
0.07370065245877082 -0.10353957284644406 0.07132945580890362
0.07229059069413275 -0.10167613992040085 0.07050102167760455
0.07310266682201834 -0.10257280772471943 0.07110726315267103
0.07198587323505763 -0.10094979345185431 0.07048382434203777
0.07261707063711799 -0.10133762107986671 0.07110124860558172
0.07233427522630216 -0.10025021823047257 0.07118406990545963
0.07198431725424737 -0.09917291296514455 0.07115192567139215
0.07163016907307719 -0.09810404027126207 0.07110660747385457
0.07121859091535993 -0.0970606639684867 0.07106021228022745
0.07086119702230728 -0.09605222976603259 0.07104029621042111
0.07050945707783535 -0.09507056355603137 0.07108027826274829
0.0701897517531204 -0.09408859586115535 0.07114293292049848
0.06990728158681662 -0.09314386966367788 0.07124860809751533
0.06975453728483058 -0.09227833474852642 0.0714042507347499
0.06920144079791805 -0.09130495913177662 0.07078811170674634
0.06905463353150705 -0.0905227818945292 0.07094074402976965
0.06878093825373723 -0.08961599162247276 0.07104612733779944
0.06846231917978012 -0.08866542589523639 0.0711621916016222
0.06808730036396583 -0.08766576233358551 0.07127580022191368
0.06770079858213637 -0.08667454824266158 0.07138683686370162
0.06732352036923665 -0.08577542786638127 0.07145405481704324
0.0668504450297925 -0.08516573360031965 0.0710220069905554
0.06699831355954336 -0.08473806874776747 0.07158688930546786
0.07453001150477227 -0.13331194054263662 0.07201832631330411
0.07474339207224047 -0.13282984684085009 0.07154701481861059
0.07524007052972027 -0.1320806911055497 0.07172072886816284
0.075869067273648 -0.13114891816971322 0.07184889177418133
0.07648996903208997 -0.130237085920469 0.07199344557344699
0.07698651421888213 -0.12936319589376305 0.07139456530294297
0.07756272115356279 -0.1285077989115052 0.07154548256246879
0.07813740086695968 -0.12767369254117594 0.07167184137902936
0.07861820824131147 -0.12693621080162745 0.07181674733711847
0.07885874038035932 -0.12625545277634592 0.07130867721280187
0.07934370285729461 -0.12554075927940633 0.07148168134030719
0.07980342955016902 -0.12483133235414094 0.07164431888022085
0.07985349903058901 -0.12420904412031862 0.07114046692306898
0.08025872291195149 -0.12351422888732183 0.07138620395751444
0.08042747994418946 -0.12287096258682215 0.07136537869411955
0.08033381943129667 -0.12232562323270128 0.07107289356969118
0.08036633054625981 -0.12170243943787713 0.07103895550365404
0.08052067424242372 -0.1212323698342812 0.07126077882678651
0.08068935473702052 -0.12066094476017275 0.07143558602329014
0.08047548523222367 -0.12010364122410422 0.070961685272462
0.08058530940542623 -0.11951401564586757 0.07110044363250917
0.0806619353100638 -0.11891928339201749 0.07121847198232972
0.08074158212393426 -0.11834232585228202 0.07130918369303874
0.0804426327137199 -0.11780268033405615 0.07082986705482607
0.08044434039349636 -0.11721463040655745 0.07097444540941496
0.08048013463947264 -0.1166632129846542 0.07109945692605314
0.08053780387270633 -0.1162291903154268 0.07125301284435066
0.07990858182455617 -0.11508721611896863 0.0708483799683868
0.08033145397330753 -0.11562786180170753 0.07117721660792337
0.08017111768574407 -0.11496571104387816 0.07140011013921467
0.07959543453120217 -0.11444217891318018 0.07083151752069944
0.07941409628250544 -0.11377831003009575 0.07113809101832372
0.07921471085238664 -0.11310044974342386 0.07144177194043515
0.07881242427731178 -0.11248368609772068 0.07147036734524741
0.07823356199499837 -0.11193353354554836 0.071156274278154
0.0777972257402833 -0.11131799725118707 0.07114431121205578
0.07763854974352742 -0.11083473383205614 0.07140616230603392
0.07736500652667277 -0.11019169661879356 0.07159056010800816
0.07702841510382344 -0.10941624327842928 0.07182058844982694
0.07655700792639586 -0.10865509880989549 0.07178048663937733
0.07592582752640299 -0.10795589566046612 0.07135651623279136
0.07545212056912391 -0.10713773646848687 0.07126644366100811
0.0752402546131984 -0.10649266034627024 0.0714707338657567
0.07493300167731091 -0.1057214143686402 0.07163887041204245
0.07462985934641418 -0.10493915937049543 0.07176337028216395
0.0742948133753505 -0.1041595455913924 0.0718596799651736
0.07389963662301184 -0.10331102587854352 0.07189615275754227
0.07347678637994536 -0.10231545281808292 0.0718716954636447
0.07312463912509923 -0.10125925048474199 0.07189240601833063
0.07277049277050239 -0.10019387606999122 0.07189466377533808
0.07241101594329435 -0.09914341062260905 0.071874603191552
0.0719972288514943 -0.09810926828679795 0.07184865863236096
0.07155249785394012 -0.09710330225944848 0.07184401702318008
0.07118247556385833 -0.09611624218381437 0.07187045279586089
0.07083420567637268 -0.095137399829557 0.07192648604113702
0.07053045177239488 -0.09419017415364486 0.07201116319115633
0.07030050114521293 -0.09328317799085897 0.07212577578887049
0.07013157472499501 -0.09243934602538768 0.07225677838503677
0.06965256426563537 -0.091492258959074 0.07159517145505848
0.06950265646940236 -0.09067335737726755 0.07177759830569547
0.06927306271843435 -0.08976517074957167 0.07193666950341683
0.06893587881685609 -0.08876199635176549 0.07205280512106853
0.06858464711113942 -0.08773744605048371 0.07215884967375019
0.06820070210746372 -0.0866275256448181 0.07226147974824393
0.06758821396959584 -0.08563681788813403 0.07196548099959706
0.06713813189350772 -0.08515187881761474 0.07155328413626362
0.06741097166760235 -0.08504181980998793 0.0720657432247191
0.06730808803111248 -0.0845926185722592 0.07228805350016342
0.07449449666152122 -0.13341847268064208 0.0725128600638916
0.07476473244489075 -0.13295960228428363 0.07238573107266018
0.07537155837940172 -0.13206490236954394 0.07251768017735327
0.07596094490307631 -0.13114430471963057 0.07262856491925411
0.07656387615618826 -0.13028287013134404 0.07276005170340646
0.07712988918567762 -0.1293541844113856 0.07217545272944287
0.07776710269352677 -0.1284460057468618 0.07231635992151113
0.07831937036459435 -0.12758551832885937 0.07235792999967665
0.07874355902714364 -0.1270007407838559 0.0723791596542776
0.07915634882577928 -0.1262933994698189 0.07210461610784721
0.0796250604005318 -0.12547431636884546 0.07221034924161827
0.08003647576758743 -0.12478908372321135 0.07233371518478839
0.08016540563216222 -0.12418135671071324 0.07181870143136136
0.08042027779652425 -0.12367584182886426 0.07201727622577313
0.08056029596901967 -0.12250205755038249 0.07164500475923105
0.08056952305665309 -0.12305706345017599 0.07195910624774411
0.08072626408309828 -0.12244530366315756 0.07216730219858895
0.08063351350109668 -0.12190127286678076 0.07166403458382013
0.0808276596567145 -0.12124769009718853 0.07190431071422992
0.08093499368784803 -0.12063051035535327 0.07207056945297768
0.08078927424306104 -0.12006583409576277 0.07158876253501768
0.08088534070959179 -0.11948156472793982 0.07170136747825594
0.08094992300031807 -0.11889650775518089 0.07180666104039422
0.08099304860797037 -0.11832125657333721 0.07190597574137748
0.0807604218474082 -0.11777562631515351 0.07144417234798121
0.08077103718151185 -0.1172045718348175 0.07156554995964266
0.08079781593740645 -0.11666594142917547 0.07166621084707113
0.08073713552265903 -0.11611019181724419 0.07176908497128165
0.08058921830418106 -0.11546980640171593 0.07191138807552556
0.08044529956424704 -0.11481881815774965 0.0720800756757976
0.07997932106483374 -0.11431988780184138 0.07158238786763621
0.0798007956957281 -0.11370139709285186 0.07181525760564038
0.07966178696327852 -0.11322401449789388 0.07207219265289326
0.07873655279115703 -0.11209585590407439 0.07176145348314406
0.07927267416507919 -0.11261992150185458 0.07208150177256444
0.07896139562733505 -0.11193375567005039 0.07232128495725876
0.07830364608380672 -0.11145060914626116 0.07176856817953323
0.07798395521152625 -0.11074234254634162 0.07202486917655412
0.07769534131360485 -0.11010897589163583 0.07222338751805919
0.07750723488529206 -0.1095575069005819 0.07247960381496603
0.07643775952808513 -0.10816156110688462 0.07204951785149516
0.07702534488705347 -0.1088188991304642 0.07245192209530044
0.07662859710823916 -0.10794271500127613 0.07266958634049522
0.07594365617991883 -0.10731859178075778 0.07198418307725439
0.07556353401418545 -0.10641247884566168 0.07217859428152966
0.07522303142103709 -0.10561938394018254 0.07229886762313963
0.0749052504377288 -0.10485652480027717 0.07241953777893707
0.07456172833152196 -0.10403578793407363 0.07250878765263216
0.07418201802839387 -0.1031617826361657 0.072569409251174
0.07382683549401604 -0.10220421092975385 0.07260821224411086
0.07348545262837 -0.10120538400665086 0.07263424087622711
0.07310830124262353 -0.10019191690720688 0.07264231121558375
0.07272575802894278 -0.09917930488214628 0.07263978554387965
0.07228688783754202 -0.09815193680271159 0.07263094835821247
0.07184455361462899 -0.09715247445283837 0.07264998940173549
0.07144633174347124 -0.09618030655753673 0.07270991648158533
0.07110988571620029 -0.09521582869857037 0.07278580872262039
0.07081753781221664 -0.09427149944567015 0.07288391318761797
0.07059395958662842 -0.09335332207220044 0.0729810999557449
0.070412150318601 -0.09250592836805507 0.07302664875970938
0.07002750618053949 -0.0916669185804596 0.07241706612833484
0.06994649965239139 -0.09093038152759514 0.07275697228231767
0.06965231501179694 -0.08984785878933185 0.07284008022574492
0.06934688008972002 -0.08883816806676327 0.07293713722283482
0.06904432302062476 -0.08782623648995784 0.073059800710749
0.06874915007198057 -0.08685545666388729 0.07323583048071103
0.06806798653477182 -0.08583691809165882 0.07260583810120946
0.06783720614790882 -0.08507816797433762 0.07281177845225381
0.06763080479930662 -0.08440939088392703 0.07313763434965415
0.06754553449152226 -0.0838867688184288 0.07357722737216207
0.07460324911678384 -0.13326697371502025 0.07281162360247459
0.07500661479375637 -0.13273956794889402 0.07310964583937998
0.07546752490101477 -0.1319924714716478 0.0733327157095375
0.07603571867613207 -0.1311312745323627 0.07334927504810634
0.07655243816075111 -0.13042443079271485 0.07338118316273126
0.07716051635037878 -0.12946661930225026 0.07307755510222694
0.07799643609442901 -0.1283019300603732 0.07312112157574663
0.07855136643217217 -0.12743716906193375 0.07280552996667704
0.07857673563082841 -0.12755491232300867 0.07337497427003313
0.07899944059639824 -0.12686789275939367 0.0728096317863095
0.07943439936561096 -0.12615635892858448 0.07283694940934027
0.07982583320582501 -0.125440693600533 0.07292819763981195
0.08017573288446005 -0.12476498370333015 0.07303718344792046
0.08033752005310459 -0.12415070092327675 0.0724658392410676
0.08055830681643095 -0.1235344199420579 0.07255791675048302
0.08074245098138029 -0.1229326246908065 0.07258404210383156
0.08086301251320974 -0.12246013925963921 0.07263624566502551
0.08089865477773867 -0.12189773503265308 0.07244426801205515
0.08101862874759068 -0.12120931312926254 0.07257406735075544
0.08111682468625057 -0.1206094363462231 0.07268575383326517
0.08103593584303935 -0.12004916915709837 0.07218980479639078
0.08108426649119789 -0.11945980791480587 0.0723038946963581
0.081121438820983 -0.11887688827524008 0.07241256412121364
0.08115084353720321 -0.11830690848800295 0.07252811857090391
0.08100804206930015 -0.1177493893904383 0.07202042994418362
0.08101956222038528 -0.11718142617363422 0.07213996067901621
0.08099791352881763 -0.11659976140949471 0.07226497193344417
0.08091754155007237 -0.11597841273625792 0.07242358320448765
0.08080572726919401 -0.11532050624225404 0.07260295479709453
0.08066372364612039 -0.1146566616882528 0.07275850803146307
0.08026825214820561 -0.11418474258546975 0.07227538035257328
0.08008053061887528 -0.11359549790760641 0.07243266968473286
0.07983843386090461 -0.11303601118397703 0.07259223257787487
0.07956238935168058 -0.11237908476857718 0.07285531543577908
0.0791689694740613 -0.11174236051875847 0.07287635816747012
0.07862911675011854 -0.11120684183275865 0.07256752837253497
0.07819408645950149 -0.11056316603431934 0.07257356904301909
0.07799646659592542 -0.11003048607652638 0.07284077244839102
0.07768009208283332 -0.10933965575861952 0.07302931166332946
0.07728329128226921 -0.10850296239144137 0.07329392277460033
0.07679162799778201 -0.10771152296373396 0.07328319689893958
0.07620766349248305 -0.10701909051661031 0.07286604052669068
0.07572250377086298 -0.10618728603052237 0.072789989371763
0.0754684105514145 -0.10551610982356346 0.07295509601525912
0.07513706553894726 -0.10473514460794627 0.07306690890475576
0.07479934036489762 -0.10393195060954853 0.07317957226321099
0.07442837524348347 -0.10307535125153501 0.0732836161865382
0.07409271672430333 -0.10215954882546856 0.07334711549517735
0.07375001303574483 -0.10120417834442266 0.07339258708785897
0.07336496773834225 -0.1002131100212586 0.07341495419161106
0.07295104938722896 -0.09921690794445204 0.07342978977606396
0.0725081613356996 -0.09821209456150803 0.07344617377749833
0.07208577549360164 -0.0972265817530587 0.0734924730861258
0.07167630322966749 -0.09624195710633726 0.07356741286120445
0.07134810937558544 -0.09527076493813776 0.07364947808233774
0.07108036302849621 -0.09430621075671562 0.07374914206998007
0.07082324322111617 -0.09327819402290448 0.07386118647927524
0.07055258426580494 -0.09239242639553377 0.07355909639912868
0.07028756033388842 -0.09185602351317625 0.07307547210782736
0.07041372469104143 -0.09173172444694774 0.07360401388718486
0.07021378063424316 -0.090842686726849 0.07363039536057411
0.06995583855296506 -0.08986552935185677 0.07371166841629977
0.06967387973929146 -0.08888447502454455 0.0738241701795719
0.06939259538360137 -0.0879008390380643 0.07395705090781377
0.06910530753119953 -0.08697343985063524 0.07412409701096079
0.06848453252900369 -0.08597909940387691 0.07344430447989796
0.06819350425038077 -0.08511954462895323 0.0736496698913326
0.06785141768878647 -0.08429317044095747 0.07388075212466724
0.06770877802778716 -0.08379105223787263 0.07419681585257322
0.07512198697154249 -0.13274732092853944 0.07416850186531913
0.07564376819117624 -0.131871667072837 0.07418237593978406
0.07621079366986695 -0.1309904368511282 0.07385954435928688
0.07612416478900547 -0.1311957381927097 0.07450053263650469
0.07668886711082322 -0.13032226508222508 0.07392632802857317
0.07735177418133815 -0.1293907889308006 0.07395547028197424
0.07804347655282327 -0.12844790312158386 0.07402283741973645
0.07855078807072621 -0.12766019853447017 0.07413608247161448
0.07903680864229466 -0.12685962843754542 0.07348103454627367
0.07950433833882009 -0.12615089868052468 0.07356418595528098
0.07985549886345307 -0.1254359734409966 0.073657860674531
0.08018654283357077 -0.12477497700674782 0.07376507599364664
0.08043695913717278 -0.12410486116853572 0.07315643605893862
0.08070188809852408 -0.12339606381816008 0.07324171959548406
0.08086278632301888 -0.12277572453648115 0.07298857263232929
0.08087391718627973 -0.12285401455189511 0.07352650091176152
0.08093546425163443 -0.12231513063221458 0.07304275174937479
0.08104200448846333 -0.12175491222795945 0.07308662301507866
0.08113973859037994 -0.12116292210876102 0.07318190038791589
0.08118718271709716 -0.12058163932056334 0.07331681271956844
0.08117602933833826 -0.12003229992415679 0.07281098379957124
0.08119706172687557 -0.11944815521113605 0.07293176312352381
0.08120653425698147 -0.11886442173475144 0.07305947112967504
0.08120981694125654 -0.11827636225497166 0.0732023334552976
0.08114527950545335 -0.11771815244770335 0.07266650370935848
0.08114973439880618 -0.11712998979885662 0.07278667377896034
0.0811043473186543 -0.11651642713863496 0.07295302456863274
0.08104742839713795 -0.11585928822197486 0.07313085824865807
0.08097141437699405 -0.1151484848576478 0.07336854575471265
0.08080730350675576 -0.11450465908637417 0.07332457965765593
0.08049910554078968 -0.11400282906283048 0.07297822214942525
0.0802255586034511 -0.11341922361643345 0.07294561963032904
0.08007624677625572 -0.11294223182845209 0.07320720726688976
0.07990587374347546 -0.1124657797811754 0.07348127527579064
0.0790526421830361 -0.11130973525429205 0.0731652689099276
0.07953731575931074 -0.11182881499539966 0.07349041700652732
0.0791909605675324 -0.11108984411682371 0.07374585703662502
0.07861733985816359 -0.11063152794979804 0.07318584690021443
0.07824442027116736 -0.10986860274021622 0.07345816034555484
0.07790622916345172 -0.10919458125161242 0.07366695264891074
0.07767263046714568 -0.10861983067906168 0.07393545741046673
0.0766165394282918 -0.10716870958545743 0.0735600586087236
0.07718684907295559 -0.1078025348710172 0.0740129670032417
0.0767025300307911 -0.10693424472652234 0.07405466472270245
0.07610976305336006 -0.10626228862559042 0.07355432947154524
0.07563188008158335 -0.1053303091518426 0.07352620471145375
0.07534898607500852 -0.10464809413029365 0.07371933555954424
0.0750092012292343 -0.10384208417444941 0.07384782134269306
0.074651789564484 -0.10302019554662989 0.07397328957285756
0.07431423294941827 -0.10213308455429183 0.07407503553749664
0.07395543030924814 -0.10120241958842964 0.07414771928404298
0.07355914337844062 -0.10024418834472208 0.07419276610838543
0.07313418186531302 -0.09926977351550709 0.07423332348737198
0.07271279219205082 -0.09826445555400691 0.07427275624634479
0.0722843529459974 -0.09727199276063268 0.0743399796028265
0.07189373449752044 -0.09628061686312639 0.07441514511014284
0.07156776599597339 -0.09531230762012305 0.07451483711602448
0.07132242337226806 -0.09435593711473937 0.07463894076967113
0.07114489289421264 -0.09346505838131534 0.07481569296299367
0.07076927744158076 -0.09255218593119377 0.07420765833164439
0.07066368611897057 -0.09174961073896488 0.0743555334121452
0.070473000318701 -0.09083385516794566 0.07446174813139617
0.07022284309884032 -0.08988072336285735 0.07457373145492101
0.06996943840092536 -0.08890527689422824 0.07469082263591513
0.0696651613280608 -0.08794143727472069 0.0748296397587681
0.06936328834967331 -0.08702611846852389 0.07500184267322654
0.06881791394013612 -0.08606544615755075 0.07430847622518011
0.06847734834102658 -0.08514952766251567 0.07449349507228245
0.06812651690455129 -0.08428670110811778 0.07471592974541368
0.06787126400961149 -0.08357100918189836 0.07507428919681193
0.0677284877166473 -0.08300475878963559 0.07554801008196538
0.0743188930275884 -0.13426130702628888 0.07535904102529467
0.07460075359063117 -0.13371830101609744 0.0751699420982847
0.07512060206501195 -0.13287149881375163 0.07502819672690784
0.07562354337615433 -0.13204066437266954 0.07505706689044746
0.07604161247917135 -0.13145384366724386 0.07515507962050191
0.07667529497382423 -0.13052522243027137 0.07482450418877508
0.07746142176921889 -0.12942108179823764 0.07480692162540865
0.0780160197535339 -0.12853659229758554 0.07482884201731964
0.07847826325064684 -0.1278064944220717 0.07490155800668989
0.07898919649372178 -0.12695006505868184 0.07425915175432228
0.07940710179172461 -0.12621463161528657 0.07435805330127951
0.07978852259268585 -0.12547950559033377 0.07441138279914922
0.08013122800269155 -0.12484988290408061 0.07449121961141927
0.08046195605889347 -0.12414149730676409 0.0738984470297389
0.08065821198734834 -0.12351581892947569 0.07407490769056271
0.0808600944014926 -0.12291548329356194 0.07419814553368674
0.08099420909238679 -0.12229794524646849 0.07363274378524438
0.08110210671678826 -0.12172701911982668 0.07371679535814307
0.08114786509002068 -0.12114164580707572 0.07384469263942281
0.08116771068651531 -0.12057189362806221 0.07399288136134224
0.08120967796755203 -0.1200116211593427 0.07346247652817652
0.0812080071752964 -0.11943376860701532 0.07360974221377384
0.08120506114540588 -0.11884817163066506 0.07376239818790727
0.08118554541689893 -0.11824552084460124 0.07390542710301394
0.08120242335812866 -0.11768288178883589 0.07334489369675426
0.08117864546500814 -0.1170648456378269 0.07348798008895507
0.08117294447161262 -0.11643846503272046 0.07364337366999318
0.08113973848944311 -0.11580510355445263 0.07381455821357531
0.0811145909277735 -0.115281312237014 0.0740275592219731
0.08076227629519908 -0.11411281172253257 0.07358953602279912
0.08099019338239652 -0.11464338056592838 0.07396025956159663
0.08084335134794901 -0.11393090440255112 0.0741519790564195
0.08050212620103693 -0.11350066574577838 0.07357756135343238
0.0802782617491077 -0.11283856876305327 0.07382165404333416
0.08001393731915918 -0.11224540439495806 0.07401361039912267
0.07970840163630756 -0.11152830041606752 0.07429869901636595
0.07931294712399362 -0.11084744875442606 0.0743199774342319
0.0788212758767919 -0.11030461380419006 0.07399376131514657
0.07837399688730497 -0.10963060904057308 0.07400463917546835
0.07812304871027677 -0.10909488597038451 0.07423843448572183
0.0778106201551338 -0.10845469658579149 0.07442886191838063
0.07754841305332705 -0.10786940782341049 0.07469877879096803
0.07649271096168735 -0.1063559242103962 0.07430960836763631
0.0770593490368049 -0.10700625514436292 0.07477976590988714
0.076554458915854 -0.10610929490669777 0.07481331399415232
0.07598516401475948 -0.10542437487987544 0.07430561262164441
0.07548531133534998 -0.10447474703017079 0.07430961558534545
0.07520033252947017 -0.1037760110055861 0.0745153992881437
0.07482966397164859 -0.10296542759327985 0.07467027824754996
0.07449070050242065 -0.10211232312543955 0.07481070057949529
0.07410444526391446 -0.10120898957186612 0.07491050933215646
0.07369984828852903 -0.10025902096058845 0.07498107453669386
0.07328072915342483 -0.09928672114989472 0.07503911085880137
0.07287367818469394 -0.09829878787846455 0.07509710593115493
0.07246603978560434 -0.09730178045783315 0.07517404859852392
0.07208966137928662 -0.09631173946658426 0.07526521755339542
0.07179189822681074 -0.09535265348101007 0.07537500014020035
0.07156870749707286 -0.09442019880042724 0.07550576318422127
0.07138508201636265 -0.0935577241601043 0.07567175356918235
0.07103339481602587 -0.09265028635649009 0.07501490682133279
0.07091925983981302 -0.09178984697538832 0.07517079932141314
0.07074941031922369 -0.09085973861528449 0.07529867538219272
0.07050839988787766 -0.08989543783181261 0.07542192882492675
0.0702033854477969 -0.08892166904336206 0.0755499552853708
0.0698835522981338 -0.08798059321551957 0.07570403088168437
0.06957800657535664 -0.08706805718438672 0.07587738865120841
0.0690688560212171 -0.0861087155735468 0.0751791725691707
0.06873966842050694 -0.08519977295601049 0.07537666166012107
0.06840375040589745 -0.08428909164006494 0.07559096017959366
0.06802658713009307 -0.08344089267586259 0.07586350646581434
0.06787040800853114 -0.08287578498959974 0.07620493185015756
0.07436415145706438 -0.13415044636308687 0.07550230207917197
0.07466241658747606 -0.1335774001313987 0.07570631026695741
0.075204325364524 -0.13281788779482578 0.07581642124570634
0.07571611387605139 -0.13203613433220304 0.07557773795384068
0.07556785421723089 -0.1323194679854261 0.07604480004573962
0.07609408769744856 -0.1314846132780779 0.07577490432141848
0.07680223624022334 -0.13044052815455276 0.07567380903124515
0.07746782408864385 -0.1294454165244248 0.07560468068948692
0.07798268029508211 -0.12861818657956803 0.07553084724564625
0.07829284099257151 -0.12804056870634464 0.07555276521837927
0.07875414272066673 -0.12716937001896045 0.07519178557040096
0.07925049747108039 -0.12625871028393712 0.07516209313419872
0.07969989365764704 -0.1255030334023258 0.07508522254534565
0.0799556226106551 -0.12497296778738197 0.07508079427546326
0.08031113006963897 -0.12431510831006201 0.0747850523846375
0.08057042116260588 -0.12360035466122726 0.07485645896249224
0.08075279349046355 -0.12296427543647076 0.07492909160831343
0.08097103567407432 -0.12231558784712449 0.07429339220726612
0.08105065945108526 -0.12172901946028103 0.07440713871997817
0.08106818216877415 -0.12114054537677121 0.07453988584119542
0.0810753046249959 -0.12058060428080995 0.0746885907299104
0.08116238371983707 -0.12000516186393625 0.07415047540252392
0.08115071810476081 -0.11943310195884063 0.07430854428074603
0.08111980632119006 -0.11883039460935715 0.07446557880693637
0.08110314960585206 -0.11822055575631472 0.07461282350484882
0.08117209154854363 -0.11763299616630687 0.07405164685639024
0.08117764442372927 -0.11701464712883439 0.0741892850726376
0.08118357624230073 -0.11638571094272078 0.07433174195408111
0.08117251675621091 -0.11576202214646339 0.0744853189852997
0.08114012914971552 -0.11512305784109098 0.07459158048118059
0.08105445051474482 -0.11439606220678862 0.07477921201185915
0.08090961912084368 -0.11374307684777409 0.07471441390573384
0.08063957702269293 -0.11324740510740475 0.07436107579162628
0.08036261249220761 -0.11262879418008952 0.07435290840858982
0.08017683172536103 -0.11213039965721203 0.07464009608655482
0.07997857184535122 -0.111608560934107 0.07493961722958693
0.07913351191624987 -0.11039822470936744 0.07459812057590547
0.07958000825292023 -0.11091267741049755 0.07500443847185884
0.0791659554219989 -0.1102161852757718 0.07505996225837654
0.07868962635906739 -0.1096707013310525 0.07465516652734062
0.07823331067849577 -0.10893952308768608 0.07473528144517379
0.07799606657430178 -0.1083735580309976 0.07502521949865112
0.07765015670177554 -0.10767625151940852 0.07526620762100636
0.07735725657445582 -0.10704530091750834 0.07552106377080003
0.07632796178981457 -0.1055351191559568 0.07508199777206526
0.07685488943491595 -0.1061798961127908 0.07556736637713467
0.07635770286143864 -0.10528822197361544 0.07559562129997263
0.07581376711441742 -0.10459591301689776 0.07509126431430338
0.07531664563218937 -0.10363197271207364 0.07511048176784292
0.07500755721385143 -0.10292727784786283 0.07537180455219086
0.07461907884599107 -0.10206096248381841 0.07554740592501466
0.07420634281813729 -0.1011661485229415 0.07567131347635303
0.07380186403487568 -0.10024495518280405 0.07576042302739114
0.07340918989718197 -0.09928621346078483 0.07584000618284427
0.07301285165277945 -0.09831096159400118 0.07592263280269708
0.07264754970531194 -0.09730767461623607 0.07600208616200856
0.07230001235337243 -0.09632077830148177 0.07609103038984383
0.07201311538873952 -0.09536604438238908 0.07620306989108988
0.0718005927049571 -0.0944537948672364 0.07632920690778905
0.07162621488343747 -0.09361752328438852 0.07647335931182807
0.07127758383288957 -0.0927272624740559 0.07583977939085051
0.07118350924622906 -0.09187614640227197 0.07601503591121059
0.07102170681285426 -0.09095460987722728 0.07617521341077227
0.07074309660711585 -0.0899470688475033 0.07629351455381744
0.07038748856108817 -0.08897567025111906 0.07643267290146571
0.07007732418270987 -0.08802971759324445 0.07658494135816331
0.06977544736856536 -0.08710163930160095 0.07676002251722785
0.06931379987827052 -0.08616161893233958 0.07606415907390543
0.06899968632117774 -0.08524216375285205 0.0762654817154949
0.06866863709438248 -0.08432192231250539 0.07648289643164986
0.06827938840077175 -0.08340854432176513 0.07674321026410472
0.06805732884847326 -0.08269794583209204 0.07714789083714124
0.07464380719079171 -0.13355450810163694 0.0766924544920278
0.0751508110192638 -0.1328947977805718 0.0764611437736032
0.07479804519926816 -0.13318228953018563 0.07708726942090383
0.07549046281869615 -0.1323062259291655 0.07656850551976098
0.07602395887547968 -0.13141123541437452 0.07656777608418369
0.07672913172293104 -0.13040268865182864 0.07647986297259492
0.0774334790102618 -0.12935238688583706 0.07632206050308264
0.07793004092435601 -0.128569357485094 0.0759986360107451
0.07765614360041966 -0.12881833524547273 0.0764792907776092
0.07809370133656882 -0.12808575350416518 0.07617601201533282
0.07860387132303623 -0.12713886457878978 0.07604465372185029
0.07915350248091632 -0.126180707856164 0.07593467898463255
0.07964154331231502 -0.12539760477994027 0.07554636447983128
0.07937973703628516 -0.12560906249422413 0.07616230364464759
0.07983081636960745 -0.12491786057478589 0.07558516161829491
0.08013383366364725 -0.12431533305257945 0.07559171809854558
0.08035516792568215 -0.1236381119813281 0.07561869195617318
0.0805127015092173 -0.12300881008177696 0.07569752819428659
0.0808566301235569 -0.12235541265704682 0.07503809123791963
0.08092630184660658 -0.12176076716523382 0.07514857750418802
0.08093798087383762 -0.12116671918202791 0.0752582588185587
0.08093080463849926 -0.12062153206207211 0.07538974433987021
0.08104363893744188 -0.12002317160867479 0.07487364419075228
0.08102777231064894 -0.11944770716625534 0.0750440662013004
0.080997712726276 -0.11882289793460922 0.07517688198494489
0.08097896712083252 -0.11819279670543567 0.0753027840339061
0.08109754927943781 -0.11759259725649412 0.07474512896282232
0.08111663253947277 -0.11696861929767005 0.0748736752938573
0.08113029245937273 -0.11632083792836968 0.07500621975466697
0.08114221997421316 -0.11568590732809089 0.07512628570246525
0.08112600058223983 -0.11503554738306535 0.07526008223902338
0.08110561215056787 -0.11451050739090839 0.07546007544524894
0.08083148782174218 -0.11332955080878217 0.07498691385189561
0.08100637738020008 -0.11384515756297486 0.075373463594045
0.08084369359446669 -0.11311543746693449 0.07557782800141973
0.08057103312712109 -0.11269371265845647 0.07498599283316898
0.08030333312340171 -0.11201025807169762 0.07527323732700157
0.08002074430042365 -0.11143427004481611 0.07546165719967592
0.07978330162759711 -0.11092786294236748 0.07569536951692234
0.07896819771544931 -0.10974801420692175 0.07533382896136767
0.07938062183756872 -0.11030207308350637 0.07568788656718535
0.07896278990529691 -0.1095427855220772 0.07594885139746523
0.07851469563731617 -0.10904390036492016 0.07536119468641299
0.07811751802285581 -0.1082390984526007 0.07567328274273613
0.07775492277765778 -0.10753119589072789 0.0759029747667747
0.077398098484714 -0.10683468756671746 0.07609586252410024
0.0770897245731965 -0.10620144683984067 0.07633664339112932
0.07611243689414492 -0.1047063376271349 0.07589547385618887
0.07661323332848059 -0.10539155952310005 0.07631190562552803
0.07612163929437203 -0.10441303393799552 0.07658480231865732
0.07561037336738045 -0.10380209770067556 0.0758694445891379
0.07511533514452769 -0.10281690167528457 0.07613780552628666
0.07469531695184203 -0.10195003650248677 0.07627819417533936
0.07428928731913899 -0.10109708209320255 0.07641329157240342
0.07390268560762274 -0.10020040523425602 0.07653264170249179
0.07353689831275975 -0.09925057856833579 0.07662370555710374
0.07317504073767016 -0.09827588629191668 0.07671282093646707
0.07283069410835732 -0.09728880738469779 0.07680157172979071
0.07249661129501053 -0.09632018082126691 0.07690674610276399
0.07224681883935072 -0.0953592607047635 0.07701098458305622
0.07202858023483771 -0.09444848738998843 0.07711913009422729
0.07184423150804267 -0.09363396276899875 0.07718811828705051
0.0715297138303863 -0.092832215151064 0.07663376110597048
0.07147170921577105 -0.09210549447336251 0.07698134138878433
0.07123101805723919 -0.09101907339836783 0.07708161672303078
0.07091708591418944 -0.08998668638471248 0.07718284775212918
0.07054369528877309 -0.08900990944980562 0.0773173222448334
0.07023753211256649 -0.08806287375003831 0.07746614271101387
0.06993891379642864 -0.08714690854335269 0.07764538424226551
0.06950395869406088 -0.08619678530979061 0.07695544196079332
0.06921829141976325 -0.08529410312129591 0.07717008106412247
0.06891804852460605 -0.08435874781233535 0.0773942032988219
0.06855322818191685 -0.08342615634806487 0.07764854666657882
0.06825023489618234 -0.08263600284084197 0.07795512802909277
0.06796048887885806 -0.08220767933943504 0.07766949886130406
0.07424257655523868 -0.1340013153041633 0.07721763195206226
0.07429528701398266 -0.133833822219976 0.0774646567233045
0.07440274881610216 -0.13350572364058874 0.07774399672679132
0.07500866968138131 -0.13258262061900114 0.07744861239541316
0.07579927672296075 -0.13146948779586604 0.07739995100816834
0.07658034659402632 -0.13033733036402945 0.07731343549188435
0.07724049044052801 -0.1293998460288862 0.07694552724453756
0.07682198631465542 -0.1297105366759473 0.07762083719366339
0.07747601586450242 -0.12885940128566284 0.077017700080795
0.07786452736665117 -0.12807433265226534 0.07696864401766122
0.07838342653522777 -0.12713959269639127 0.0768530169905771
0.07878614921504236 -0.1263462815538342 0.0767734181895262
0.07906666983019933 -0.1258357259689041 0.07677530400066777
0.07951818645928596 -0.1251262938077686 0.07641604340274157
0.0798525808808898 -0.12436425102409437 0.07638180149722593
0.08008167558349699 -0.12368258952143761 0.07639240754424356
0.08023888424157152 -0.12308988317444325 0.07645508862605363
0.08062533461505456 -0.12241770211247437 0.07582211222157832
0.08070234398342074 -0.12179501231148517 0.0759303514579104
0.08076222542299473 -0.12117741206458539 0.07594705368311314
0.08078983407632093 -0.12071896311057431 0.07596667313471833
0.0808509639605375 -0.12011801686852752 0.07569359837120215
0.08086017280622042 -0.11944510643145416 0.07579551651427943
0.08083776855711035 -0.1188047586767407 0.07591250847203532
0.0808202197865256 -0.11816179938278569 0.07603040187642965
0.08097160260273463 -0.1175466207184025 0.07542905686042722
0.08099562694516492 -0.11690486250065943 0.07555856154996245
0.08102856177393157 -0.11625609280928352 0.07567599881375221
0.08106425363323966 -0.11561279467834645 0.07579937410557239
0.08108243760852081 -0.11497528889896987 0.07592393171301051
0.08106747219314109 -0.11433131610193367 0.07604144564867892
0.08097496278026181 -0.11356699298721935 0.0762257919483888
0.08083183891972807 -0.11289684812181952 0.07617767174728216
0.08060053608235747 -0.11239312241411138 0.0758119491553531
0.08030128102086655 -0.11180254112411953 0.07581482944391896
0.08006998458867334 -0.11131554121536713 0.07607444115194237
0.07974288224043449 -0.11070692984235085 0.0762797325320598
0.07933727596397697 -0.11005191564773392 0.07648958011473724
0.07892950598825639 -0.10932342877837573 0.0767017870069596
0.078537805038324 -0.10879710341824028 0.07616556126533947
0.07815538701192573 -0.10804963859458831 0.07635768497955876
0.07778763439785072 -0.1073691253947868 0.07654102460885069
0.07745459980989848 -0.10668082590442562 0.07676333428436377
0.07706679823506148 -0.1059199373241931 0.07697225888110538
0.0766073188282094 -0.10496831331285827 0.07727966492021764
0.07611933140587415 -0.10409748516468291 0.07727587563176758
0.0756325134669637 -0.10341691526136382 0.07683618271772424
0.0751186431362573 -0.10254823248411901 0.07677921878842947
0.07477652969754098 -0.10183890016642723 0.07697858499722032
0.07439744305488152 -0.10099619532515239 0.0771251022776427
0.07401775526078722 -0.10010614852279086 0.07727300946499312
0.07364534082898681 -0.09918208676101956 0.0773898439782358
0.07332283783648015 -0.098222335372864 0.0774966412637953
0.07299989367258021 -0.09724667682438705 0.07760398639749777
0.07269654351984776 -0.09626870437569132 0.07770989624222711
0.07246076070878532 -0.09530563307778611 0.07780560474663954
0.07223804226199475 -0.09434768737361797 0.07788975322922057
0.07199244113137045 -0.0935389880090635 0.07767901347654955
0.07173970411554069 -0.09301135971326187 0.07726432665467706
0.07187171670560695 -0.092945488166603 0.07778938447352088
0.07167341454857959 -0.09207090659272997 0.07787895163533629
0.07141233682577092 -0.09102843601698912 0.07796299462468848
0.07106207912448519 -0.09001940636896262 0.07806610343341297
0.07069100378747878 -0.08904502606348828 0.07819664661409025
0.07038969976732909 -0.08810739417185226 0.07834695615922571
0.07009632465485238 -0.0871857387716783 0.07852507881223902
0.06969247896119794 -0.08625911577659832 0.0778476353065282
0.06944802654079586 -0.08534318275954568 0.07806829813971357
0.06916528646873342 -0.08440935423522589 0.07830397131041501
0.06882955224679277 -0.08349107521527241 0.07855070363534841
0.06848804669325148 -0.0826440746941212 0.07880489206431907
0.06813630847342404 -0.08214898899458226 0.0783061891320659
0.07405369312347751 -0.1339385314750134 0.07813458956733099
0.07384110701806712 -0.1340965869697 0.07863380010913
0.07415938003163323 -0.1336008703133883 0.07841965133391875
0.07477062400316827 -0.13258815711433652 0.07833958129693329
0.07554722665662171 -0.13150963699851625 0.07826023383063085
0.07611971049566019 -0.13060033988518197 0.0782272681095627
0.0764034921918641 -0.13004631634788075 0.07831211323940919
0.0770134111492011 -0.1291542742480402 0.07792815306178881
0.07755444200029236 -0.1281164608838156 0.07781613359852545
0.07810171002922318 -0.12713192136165447 0.07769315068788349
0.07861784998081159 -0.12632802771594448 0.0772845751843685
0.0782890050449746 -0.12656432841513884 0.0779078867624996
0.07887029720748741 -0.12581871841220535 0.0772762318320982
0.07919355630864125 -0.12512493245816647 0.07721664478905328
0.07952082272342456 -0.12438498487801383 0.07716858859313348
0.07981458566769102 -0.12372837721055598 0.07709249510103051
0.07996718951662735 -0.12323956829864492 0.07708384826466068
0.08023732077882548 -0.12255510474676448 0.07673482875327745
0.08039345787738106 -0.12174238621208508 0.07674794221914794
0.08061817762107808 -0.12108464946268499 0.07641276299342963
0.0803393028372668 -0.12118822828381373 0.07701168388306545
0.08061993264936174 -0.12062039808319931 0.07642547738801361
0.08063549179579026 -0.12003531642929521 0.07645420543673405
0.0806440369617946 -0.11941839546976861 0.07654891012585487
0.08062434175153149 -0.11877851789544663 0.07666319703120514
0.08062213945756407 -0.11812832015850562 0.07678219027461027
0.08081526214332448 -0.11750353423106306 0.076151364471088
0.08084646676291717 -0.11684741285713349 0.07626311215249824
0.08088926516260805 -0.11618277259119623 0.07636941139699405
0.08094363072871455 -0.11552978895745199 0.07646724532880642
0.08097876203567383 -0.11487824288388647 0.07658533390002246
0.08098322941233532 -0.11422244446264515 0.07674143904224333
0.08092749097157827 -0.11368041797404531 0.07694854682058354
0.0807009801926942 -0.11246233796639543 0.07646199060318204
0.08083159918791882 -0.11299673176351344 0.0768641734654985
0.08060409229994807 -0.11227726485714662 0.0770671739292471
0.08041187335612218 -0.11183793619767385 0.07645313262514115
0.08005619528284702 -0.11114405311375042 0.07673188581303586
0.0796879928110581 -0.11052460909810578 0.07695722824525528
0.07926999303299054 -0.10983203630155966 0.07730315002194145
0.07886408338608417 -0.1091627597144167 0.0773341773601545
0.0785059140137524 -0.10855918679020342 0.07697203792817113
0.07811546107878738 -0.10784205819936465 0.07693789900808264
0.07782313507462443 -0.1072676994979225 0.077209266892709
0.07746734002827763 -0.10653051029967575 0.07746598360944715
0.07709705129434637 -0.10575980856302362 0.07772574899110019
0.07680503889652819 -0.10506627746809856 0.07802835789989582
0.07585683224477462 -0.10350602376635361 0.07757686662839326
0.07630901255476745 -0.1041552694557597 0.0780901557217757
0.07581549301767997 -0.10324616648978592 0.07810453325813584
0.07534982520354543 -0.10259395101406238 0.07757227326452013
0.07483136622187599 -0.1016483620387831 0.07759110958590347
0.07451169626661683 -0.10088657272959169 0.07785180082130548
0.0741087903648236 -0.09997158252718051 0.078007700219487
0.07376962647226655 -0.09906985749471396 0.07812815902171773
0.07348750085581705 -0.09814116657409454 0.07827924294611646
0.0731773193736956 -0.0971644221801789 0.07839625286570343
0.07290628331496304 -0.09617717848714503 0.0784641282381378
0.07269613387322188 -0.09524416178864374 0.07858780611110273
0.07248184469432205 -0.09444766410592743 0.07852009532740453
0.07221265597933449 -0.09375831205487221 0.07822973846513617
0.07217769394239652 -0.09319219055584987 0.07864395041205557
0.07189245031489372 -0.09208495531617235 0.07874813231934064
0.07154850790620171 -0.09103990620016214 0.07884103762418423
0.07119754685950706 -0.09003834285771053 0.07894438907535783
0.0708297255439927 -0.08905188453307852 0.07907088510271129
0.0705068172553305 -0.08810614220995991 0.07921819827335565
0.07021799245252157 -0.08719918978507003 0.0793763493540217
0.06985799398873213 -0.08629865723600487 0.0787280313073142
0.06965273334487335 -0.0854207900319174 0.0789845692781657
0.0693831469483199 -0.08449495370311837 0.07924908363571893
0.06906460256528762 -0.08351252433558459 0.07945805894751225
0.06865486333256025 -0.08259350925995662 0.07960368959638357
0.06829410857884485 -0.0820050344220463 0.07918383010913028
0.06821291382659432 -0.08155051412627565 0.07986528192266003
0.07367343348380831 -0.13406650986317703 0.07913614330589334
0.07389456883539 -0.13354429993082273 0.07924173481248431
0.07452282652952019 -0.13257543576828368 0.07921580164870494
0.07519861011376354 -0.13148333942477936 0.07910397550115665
0.07586479346186761 -0.1306651018756167 0.07878705567693478
0.07541550325438098 -0.13099345911491003 0.07931197631814949
0.07608601147108424 -0.13018612975227922 0.07897956262519866
0.07669735796965037 -0.1291667149098832 0.07881791950497292
0.07723349121220342 -0.12817889934411236 0.07869147121674214
0.07768536275937322 -0.1273503019787262 0.0785722833785979
0.0779517928294077 -0.12678807947795825 0.0785449144140856
0.0784174557527565 -0.12601804497963692 0.07814282666758204
0.07883088134033968 -0.12517121808091636 0.07805730290189755
0.07920186304668504 -0.12434274462461119 0.07795665751868724
0.07961654157187169 -0.12365923027741176 0.07757587533808433
0.07925348982591492 -0.12383290601786644 0.07820072246341515
0.07972744057065523 -0.12319651478716165 0.07760061237754703
0.07985419128575393 -0.12255503722445114 0.0776018733508406
0.07992633054997995 -0.12186725963793728 0.07766544783062812
0.07995474065730328 -0.12124035967080271 0.07779115777731568
0.08034500377655819 -0.12061479961556283 0.07711939629110491
0.08037110923447162 -0.12001923772094185 0.07721686953001901
0.08038396278767983 -0.1193991641938338 0.07732851793073706
0.0803867592667886 -0.1187537300050586 0.07745272874723262
0.08038280109079489 -0.11807936485044031 0.0775565265546155
0.0806175219994033 -0.11744946381419155 0.07688647152696834
0.08063992575006684 -0.11676500980539246 0.07697391412735531
0.0807099180661694 -0.11610196254882331 0.07705535780597088
0.0807842558263415 -0.11544644231099041 0.07716076653884368
0.08083616262847737 -0.11479320413191865 0.07729462018885784
0.08083684318696316 -0.11414725756930294 0.07743351264592092
0.08079977438842846 -0.11349601250659093 0.07756238808370698
0.0806625867538989 -0.11275719229662651 0.07775588513465438
0.08049826292620399 -0.11210250625203287 0.07769753420510073
0.0802966543275231 -0.11156523012615902 0.07730303334791075
0.07995762307567875 -0.1109528819695871 0.07731272984966867
0.07966272695487779 -0.11046258040610109 0.07763843443672372
0.07936782554783936 -0.10995847240904441 0.07797807427047045
0.07863080160786105 -0.10873259044280295 0.07765795174172589
0.0789713202470581 -0.10930979137681877 0.07800240623830364
0.07854547401646121 -0.10856018588636807 0.07829075748668345
0.07823770750656069 -0.10799677714086933 0.07765155054927833
0.07782358761133412 -0.10717691318184268 0.07796023822937367
0.07746033397424254 -0.10639228718951611 0.07820452601811445
0.07711618355128867 -0.10563323887542961 0.0784372939598329
0.07675833911395888 -0.10486968857689052 0.07864436937784648
0.07644930600966161 -0.1041990453504574 0.07890080416719385
