# .PCD v.7 - Point Cloud Data file format
VERSION .7
FIELDS x y z
SIZE 4 4 4
TYPE f f f
COUNT 1 1 1
WIDTH 792
HEIGHT 1
VIEWPOINT 0 0 0 1 0 0 0
POINTS 792
DATA ascii
0.07303597240430441 -0.12335374539117197 0.10925084718366523
0.07185738603043608 -0.1218129777109107 0.10922617511293368
0.07267725974537052 -0.1222885286502512 0.10941697071414384
0.07150069454327548 -0.12079445411938967 0.10949120823134936
0.07233138904788723 -0.12126747688180312 0.10965427392244174
0.07120698334207366 -0.11983228947219483 0.10980131238678671
0.07199485270581588 -0.12028424116275528 0.1099573947028834
0.07101090901710827 -0.11911270672138938 0.1100222498663725
0.07170894650550208 -0.11937876710377471 0.11026614900554271
0.07164958214787728 -0.11879821485191253 0.11051405538630056
0.09332487865078891 -0.17940199355578432 0.10853542963822735
0.09332911247599364 -0.17988283620284956 0.10881162935553669
0.09356760388885212 -0.17867037610989983 0.1085815153595927
0.09378845665230076 -0.17890619484795034 0.10919944990311731
0.09381228036334423 -0.17823518774331407 0.10886627248063147
0.09372754861648452 -0.1779531488532051 0.10822934701779402
0.09409976541106495 -0.17631002272787827 0.10702880307575749
0.0940376175382939 -0.1768960188356451 0.10783668898421832
0.09433282016550511 -0.1757755792080407 0.10700195965919324
0.09439323354662103 -0.1759003207669293 0.10749631950501087
0.09448552344134578 -0.1745206755559925 0.10619490522017408
0.0945680987181399 -0.1746960490961656 0.10678647794293418
0.09450527927493964 -0.17530086315516122 0.1071483331981857
0.09461929110851845 -0.17411957719624266 0.10650907396422638
0.09449625564151609 -0.17402892906968054 0.10600856263709729
0.09422475382759567 -0.17303110990996126 0.10545571471798411
0.09450833744270433 -0.17316040719556247 0.10600331334375324
0.09388976587454913 -0.17196004118442326 0.10508195588922525
0.09407071147406157 -0.17221583796184461 0.10532793563697021
0.09430751038215973 -0.17253102989220334 0.10568464761326722
0.0940544165312005 -0.17166551630891344 0.1054692195868018
0.09382212983962843 -0.17141960207686083 0.10518591361570626
0.0934304305384432 -0.17009177648570858 0.10494682081655717
0.09376715293084063 -0.17055306398880046 0.10535487080775462
0.09345295900449714 -0.1695884910358244 0.10510625603157253
0.09367324331148014 -0.16964594484139411 0.10544207685780545
0.09292059811403368 -0.16825695560233314 0.10475114487306439
0.0932282182665545 -0.16866439002853534 0.10503379523869043
0.09350087263119211 -0.1690952180435609 0.10531562218160218
0.09294273239964047 -0.16775263021784223 0.10493326966815734
0.09327744428057201 -0.16779665370030725 0.10533329444125251
0.09231336943787939 -0.16657609266649379 0.10456202040267898
0.09262147349167106 -0.16691239897866514 0.1048050642347835
0.09295402617908553 -0.1672549686078626 0.10509664680968371
0.0923360116061275 -0.166150807212456 0.10471303060348172
0.09259859813294219 -0.1662407849556732 0.10495842712048958
0.09155926340857927 -0.1647920045924014 0.10439653014306906
0.0919911859921749 -0.16524680393090402 0.10467003788961056
0.09238027908757493 -0.1657161499470205 0.10489982605733729
0.091414462939753 -0.16393451112362653 0.10456383278999493
0.09194731583798109 -0.16441324835524804 0.10489675884886752
0.09100514137297058 -0.16332826544344753 0.1044007232394801
0.0913961199787576 -0.16312077048348347 0.10481716543079252
0.09184764237367449 -0.16355459043483592 0.1050781545580392
0.09099798552610139 -0.1625185392824196 0.10468625192210246
0.09141180645793097 -0.16257198458279593 0.10501919864556081
0.09171062802211125 -0.1629022192501967 0.10515999588944114
0.09090613775384786 -0.1619688807448153 0.10483759334988099
0.09124685008920502 -0.16204859795581897 0.10508917574051116
0.08988285504935477 -0.1605022761296313 0.10459352264300299
0.09041343584310732 -0.16095149408068904 0.1048396458268372
0.09090591331953307 -0.16148126094813584 0.10503395332346885
0.08960287415682235 -0.1595627488404158 0.10482138295768738
0.09028506103023896 -0.16009237358430883 0.10513731986968965
0.08903046491539902 -0.1589108607933069 0.10469108812623387
0.08948265710641183 -0.15864172981879465 0.105222554412496
0.09015544069815074 -0.1590942493428135 0.10554163058377447
0.0889397879082195 -0.1580048036769909 0.10513923212266177
0.08941825234829398 -0.15800688488633233 0.10552466025138783
0.08977587059956024 -0.15834153452919486 0.10562550517574577
0.08875980891817542 -0.15738400945634576 0.10536394121746205
0.08920286471911103 -0.15734159954987254 0.10576495248230776
0.08760780025523321 -0.15602219055380806 0.10524749434535532
0.08812129571061728 -0.15643368453361933 0.1054106755804473
0.0886460840266193 -0.15684344906727782 0.10560001848160425
0.08753380100955907 -0.1555337371639799 0.10551293395964
0.0879675565296707 -0.15557011418851324 0.10585759718939479
0.08650635657504371 -0.15451263412647503 0.10543140011423313
0.08697669664639969 -0.15461773618589722 0.10574573610365243
0.0874544789133697 -0.15511973646301694 0.10576740053676405
0.08543665543655593 -0.15326334326736696 0.10553996555203539
0.08594838894257606 -0.15363267719151438 0.10568724825004726
0.08645747712635701 -0.15405586175223984 0.10576121770831579
0.08532367491381837 -0.15278615845912877 0.10579320322187045
0.08581321504645265 -0.15281767389768958 0.10618217759119034
0.08409864199218053 -0.15147050622689734 0.10578234498308622
0.08465335609395888 -0.15187383714165834 0.1059356386878822
0.0852216485693283 -0.1522883933862409 0.10608432324812846
0.08398026391484809 -0.15096262751787706 0.1060580107912073
0.08447643170770554 -0.15098194428836842 0.10645603759496212
0.08285838888455666 -0.15013647017104528 0.10583085579343136
0.08324682570980409 -0.15023376223152596 0.10605768037347643
0.08382995872608454 -0.15044892208173455 0.10634731910651761
0.08173779712778385 -0.1487560246499207 0.1061846822974712
0.08231827332470762 -0.1492069931142432 0.10621845510125791
0.08286844270235089 -0.14969490118153467 0.10620429058247019
0.08168164604419581 -0.1482431153940658 0.10658877132809426
0.08222622612294049 -0.1482815635809097 0.10697438214401297
0.08044872677133713 -0.1469789881558114 0.10658823957947212
0.08102995481623129 -0.147142742810841 0.10699548303006959
0.08161272106062163 -0.14771876866515193 0.10699529056266101
0.0805667538765052 -0.1465157069892333 0.10707667180269209
0.08010716260450988 -0.14639659318310397 0.10672140571336097
0.07911239102375324 -0.14495776854758843 0.10669115173114017
0.07973373097133861 -0.14546863103667318 0.10700128432259332
0.07900505323586896 -0.1442591098526833 0.10701044403513853
0.07941413616551132 -0.1444748377373859 0.10731100206567222
0.07915340952205224 -0.14382611315306218 0.10743222877206184
0.07873733756157514 -0.14360993842955733 0.10711102226847012
0.0777228301697421 -0.14200169766910192 0.1070169147200323
0.0783737296889403 -0.14257340246956018 0.1073580038955335
0.07759805321322316 -0.14123761501623075 0.10728700999724569
0.07803086363792376 -0.1414795758254334 0.10760852090170027
0.07775868406454672 -0.14078341776802825 0.10768292730643558
0.07729934344802183 -0.14050561002658418 0.10731588916161788
0.07720790965214389 -0.13965556350635114 0.10760759266624445
0.07625217698722248 -0.13814098389355015 0.10727081902273201
0.07685025348346085 -0.13882182102354623 0.10758960349386011
0.07612296826070955 -0.13714296054478 0.10751784391303423
0.07668956741768555 -0.13772172572682034 0.10785003116123792
0.07599537340378011 -0.13614453435340246 0.10774505758498366
0.07654867068563166 -0.13672021868403456 0.10808265108584797
0.07586076305170542 -0.13515777881472427 0.10800050669966815
0.07642458202672056 -0.13572226752661826 0.10832289872535089
0.07575374162345284 -0.13438754539199005 0.10821506591864341
0.07631133978835711 -0.13464172697340274 0.10864676003041399
0.0758922448935107 -0.13390384875583222 0.10853352100402931
0.07544465751938507 -0.13371642916734428 0.10818021371671262
0.07449348637060495 -0.1320517149788813 0.1079368449832578
0.07508984281693876 -0.13274893607085936 0.10823064421993446
0.07433460843034166 -0.1310274886627046 0.10815995487359807
0.07492365220494196 -0.13165192349887953 0.10850678308532623
0.0741536548349176 -0.12999005926970342 0.10833978199036477
0.07473792412750423 -0.1306076214298752 0.1087217939709883
0.07397531969290928 -0.12895693910517061 0.10846476780219669
0.07455183165996011 -0.12957670036239718 0.10888740647422163
0.07376969767375134 -0.12794971445618677 0.10856627986630922
0.07436062858449498 -0.12852903209630895 0.10899334186993047
0.07357276289520627 -0.12718595129621452 0.1086159545675851
0.07410445580356581 -0.12740854234523705 0.10906599638108871
0.07407567346806043 -0.12640904225076324 0.10926990379202026
0.07406793098834359 -0.1255219127425947 0.1094179418901478
0.07432633771222537 -0.12477581441008469 0.10969932707215505
0.07383134398982337 -0.12376587938314601 0.10959234060246154
0.07449102406699251 -0.12397059459490631 0.10989642342879609
0.07349471005045279 -0.1227418452440765 0.1096443065416392
0.07425665850136862 -0.12313241881063393 0.1099252553476377
0.0731674766988442 -0.12173091618060324 0.10981107741003365
0.07396977538811506 -0.12216075387087516 0.11001493836463805
0.072847304431569 -0.12074867409106955 0.11005400810913367
0.07367494384091028 -0.12119223238664825 0.11019871889541134
0.0724753936885601 -0.11979153893231922 0.11039292338037995
0.07331629450866389 -0.12022264518711213 0.11047546188363035
0.07219948522720765 -0.11897674542427872 0.11069978796217775
0.07291975749328931 -0.11934215088217541 0.11082611399612469
0.07208230923868567 -0.11857470155505197 0.11084703436481098
0.07272340188109215 -0.11872547687821246 0.11106817289327514
0.09415151315218259 -0.17891220255363582 0.10983860100958971
0.09435964666572498 -0.17875444827391837 0.11016388270251254
0.09407990699807203 -0.17747056359249816 0.10869797079138943
0.09411751694298866 -0.1780184049269947 0.10938096344573535
0.09424772719511375 -0.17853643314035592 0.10990232133148918
0.0943012843521472 -0.17673444284990775 0.10856905906717138
0.09448310269275813 -0.17700889853003818 0.10931545239419863
0.09452359918414208 -0.17629295003646228 0.10882047870678113
0.09444656074971569 -0.17608784393501242 0.10822647326502456
0.09467842190800185 -0.17485133210704173 0.107342583074131
0.09476482284951798 -0.17512768197288064 0.10797936466648436
0.09468654449963684 -0.1735366657445525 0.10659453535094984
0.09480691815741307 -0.1738876671982057 0.10705303102099299
0.09484594710542432 -0.17438245193395774 0.1075131525013204
0.09476647664661883 -0.17307484034141357 0.10669536145123604
0.09499740494447646 -0.1731001364656243 0.10729725894088102
0.09433260149580039 -0.17167015096150504 0.10597290663699238
0.09467429524670998 -0.17216610426304282 0.10638943166499164
0.0948947825604161 -0.1725966159121281 0.10683385999938375
0.09409653719800284 -0.17108033462626226 0.10575225439800633
0.09441419496759487 -0.17085573004732435 0.10636216119202602
0.09477792702768494 -0.17122882074243953 0.1068135948740508
0.09420332129570566 -0.17037885856313842 0.10608429013504599
0.09450916875027045 -0.17023174396361881 0.10664627988158126
0.09464190045522401 -0.1706259403268997 0.1067907769667806
0.0943224806920663 -0.1698405064313668 0.10639727858417436
0.09402502875172483 -0.16974716567277853 0.1059568575077199
0.09356335709570178 -0.16835822408657403 0.10557530648681628
0.09390233144898405 -0.168849548280853 0.10599259960559486
0.09358183816967798 -0.16786639647791293 0.10571523295440052
0.09382072232572321 -0.16796989031304532 0.10603696126798058
0.09296019363419153 -0.16649950387397866 0.10529461500012345
0.09329952955659301 -0.1669293987649759 0.10560108844392511
0.09361742427855353 -0.16739780727017597 0.10589215594542781
0.09287401243653268 -0.1656267383499147 0.10542853058207359
0.09333045803573607 -0.16610377691478534 0.10581714804522947
0.09242456992344361 -0.16495054382993224 0.10518102247880336
0.09287666893114192 -0.16471838219238516 0.10567835200653775
0.09338484319245265 -0.1651756307212669 0.106091759301736
0.09243365811065617 -0.164024987184657 0.10545147046456971
0.09288389554695863 -0.16410763273059925 0.10584206241871769
0.09315901766572958 -0.1644478888184978 0.10603104567345575
0.09218425250956053 -0.16299329080559552 0.10553852977429082
0.09275245002506771 -0.16346902061802657 0.10589324584104846
0.09170039221391556 -0.16234208966398728 0.10534862809087762
0.09209746402906793 -0.162138193611606 0.10574633212783995
0.09269865923186715 -0.16258020352561614 0.10610822053345889
0.09152285855303716 -0.16144115247131935 0.10555106822477868
0.09206093076841924 -0.16154678885027698 0.10593373893578996
0.09239616436414418 -0.1619102548003783 0.10607289413862042
0.09087050921889475 -0.1606978545145435 0.10533450813553799
0.09130963524925578 -0.16047241668544968 0.10579777749925663
0.09193997091901908 -0.1608340320946209 0.10614023682619947
0.09077073057513091 -0.15982510403969533 0.1056633101632336
0.09120716667532791 -0.15986564696974107 0.10599306214348697
0.09156683464624632 -0.16015684002383496 0.10615060412289554
0.09062446398953611 -0.15926296171205423 0.10583360366900722
0.09096606463064337 -0.1593383012286208 0.10606621850546301
0.08969879719922635 -0.15778095724797606 0.10589474229713246
0.09014525065047709 -0.15825667299767188 0.10599088332383035
0.09060663617105198 -0.158800672894304 0.10606994119765452
0.08961971515872151 -0.15736251488338068 0.10609406780494578
0.09006007938841784 -0.1574521237902376 0.10640325126960795
0.08851606389427857 -0.15607693027837907 0.1059717925272346
0.08903702098437978 -0.1564925891147001 0.10615391826386358
0.08954269972856292 -0.1569005824264111 0.1063133940951059
0.08842046244550314 -0.1555777623897213 0.10621995301390168
0.08888091336788599 -0.15564659837845637 0.10656797675597196
0.08740398903394879 -0.154720010495215 0.10603774242452435
0.08776206215285298 -0.15484454789588403 0.10622921606868868
0.08829632996317721 -0.1550997317573594 0.1064543865632379
0.08637568396150991 -0.15336379974692949 0.1062381782951693
0.0869148746162681 -0.15382719199564082 0.1063056042451092
0.08742193476358319 -0.15431769096065684 0.10633802691803707
0.08630632543789717 -0.15289108966812442 0.10653318305458719
0.08682532044985079 -0.1530151280340706 0.10685289686871939
0.0850729906256934 -0.1515484062124025 0.10652724746533544
0.08564421974472808 -0.15197482308202162 0.10666954127790304
0.08621882195394079 -0.1524157456225989 0.10680318577755141
0.08498596399645106 -0.151052430354495 0.1068180931153079
0.08548525089866549 -0.15114702437998717 0.10715943214519207
0.08349108836672106 -0.1495802684031043 0.10677873756975695
0.08428891300942147 -0.14999347983208958 0.10708334970955721
0.0849008872729017 -0.15056928812757972 0.1071147019054144
0.08286075968306432 -0.1489664293450977 0.10682896154744342
0.08336216432029533 -0.14872551685460186 0.10739792596631986
0.08394301165444347 -0.14906937133825712 0.1075538415615841
0.08287682492904383 -0.14834492937932947 0.10739823623071175
0.0832666888319015 -0.14804321725088834 0.10795423105819128
0.08370057040604292 -0.1484495589383616 0.10789155011347669
0.08152955620105393 -0.1471979154861932 0.1074022175305936
0.08203061795437153 -0.14724497759818847 0.10777998147601736
0.08265318709688725 -0.1477337697860777 0.10779932807404805
0.08033946810283181 -0.14586348289930962 0.10736508928749694
0.08090601106267516 -0.146165502045813 0.10770196999572554
0.08145031767225053 -0.14668754807376375 0.10779137984278256
0.08016591209918354 -0.14522257434947006 0.10764795651389047
0.08056974926346776 -0.14535621051377087 0.10798982023897442
0.0802844941653678 -0.1447834487521857 0.1080971427687718
0.07988562505890043 -0.14462146465640394 0.1077415819838128
0.07901601798380993 -0.14309340633484158 0.10773959052126202
0.07956052285869039 -0.1436881133958238 0.10798045316193747
0.07886437036990143 -0.14233354941888815 0.10803295554341122
0.07939187871290158 -0.14253056226603342 0.10852251048860846
0.07897559610710186 -0.14180442914508049 0.10846747849276371
0.07854132378309622 -0.14164226403718094 0.10806009080686735
0.07765548465863295 -0.14003333839065643 0.10792369796613135
0.07818962033862138 -0.14064444490097958 0.10821612118637267
0.07743538973683177 -0.13914542734410268 0.1080952460891302
0.0780008214491274 -0.13947778313979975 0.10858056619601585
0.07722881005428481 -0.13824376504542596 0.10823152694562566
0.07767025664990462 -0.13864316874609667 0.1085765915131718
0.07707954535862065 -0.13728619232011455 0.10844607574509006
0.07758845073628833 -0.13784099421740306 0.108799126253758
0.07695034823732856 -0.13632316935649522 0.10866721683074797
0.0774550267648218 -0.13689190948850544 0.10902751654371223
0.07682646375240411 -0.1353832995749275 0.10888972288903107
0.07732454444408868 -0.1359315516315721 0.109237230025368
0.07676133149494628 -0.13478855284711272 0.10905459612889598
0.0771713548252393 -0.13493677636942886 0.10944094026923094
0.07571050856456202 -0.1331497327508653 0.10866509206515994
0.07623560755259612 -0.133632273564917 0.10896447623049854
0.07674133880049447 -0.13419702895878094 0.1092482441004668
0.0755134419081772 -0.13220018634594177 0.10886302888208366
0.0760932700222135 -0.13269639968318228 0.10919973257240527
0.07533041303759411 -0.13118273848042633 0.10908231568474788
0.07592374242720813 -0.13171533982608438 0.1094177081333589
0.07513954160837355 -0.13016079630031407 0.10927346592955485
0.07573069148414602 -0.1307096353551996 0.10963424366625008
0.07496383326397642 -0.12913302333882787 0.1094113952704579
0.0755599385876433 -0.12970336447042174 0.10980353387297229
0.0747819443971427 -0.1280894095531329 0.10952586165331038
0.07540320283093328 -0.12867812970195128 0.10992933203573008
0.07465350903311352 -0.12707398543423498 0.10963379492481819
0.07527047315112287 -0.12765861948128648 0.11004292695275396
0.07457052653014525 -0.12612002555509536 0.10970179964416008
0.07518311086135712 -0.12662600350040085 0.11012088989269357
0.07448069438264458 -0.12548825205892344 0.10971226646715686
0.07499075664441632 -0.12551786738189183 0.11008025226370532
0.07499341875450392 -0.12452183159470064 0.11013335065100559
0.07504107947037628 -0.12358072283387295 0.11024197488479531
0.07549030204362972 -0.12421591519074845 0.11044771007365847
0.07475546270407958 -0.12256603829249874 0.11026615263057526
0.07566789857418624 -0.12368950177059525 0.11057764100768279
0.07559357207064943 -0.12288382393068015 0.1106402848379067
0.07608766453424902 -0.12350851920004983 0.11086049738195226
0.07448689230634521 -0.12160707085443369 0.11037498168720677
0.07518744610167642 -0.12201325784714862 0.11056838933586538
0.0765043263836067 -0.12294773647571032 0.11120982945648411
0.07591959087255604 -0.12193370782064734 0.11096453743191119
0.07665070052136874 -0.12209891658507134 0.11139506469459887
0.07416205447634468 -0.12063092501710068 0.11060468789108417
0.07511066408757905 -0.12107744736962874 0.11080509973574773
0.07583658362080008 -0.1210729174316713 0.11114837373897729
0.07634548117469743 -0.12144838124342919 0.1113386688821267
0.07371515715319975 -0.11967863280086531 0.11091837646976739
0.07457276631994605 -0.12001740626962054 0.11106134381658615
0.07540275199999726 -0.12029234938143364 0.11130646437749225
0.07331935390106549 -0.11898223591589561 0.11117949205266037
0.07403603659953058 -0.11904582813636402 0.11142439950788759
0.0748630181857905 -0.11937420124233256 0.11160186490854318
0.0734383297934612 -0.11861935118976662 0.11145355169766585
0.07403252358327868 -0.11851034075049723 0.11183382469527162
0.07446027654815986 -0.11870512216731864 0.11188961233803528
0.09447085855053933 -0.177758476073901 0.10997433274479086
0.09458817918236084 -0.17816934017550332 0.11037302314348726
0.09466747635106865 -0.17719610361023924 0.10996126471748524
0.09487452521355715 -0.1773393221794862 0.11052501348544155
0.09475273046377405 -0.17566999430538804 0.10866108165902666
0.09478981315301122 -0.17609494489426944 0.10927372776507448
0.0948564193959819 -0.17662798831864085 0.10991289920767847
0.0949542192607324 -0.17520045248707525 0.10858126870492772
0.0950285859864396 -0.17535218700083144 0.10909378317197595
0.09507608690457113 -0.173657967195741 0.10774014271004348
0.09507754829124149 -0.17419345883753487 0.10824641027583419
0.09510861562567832 -0.17475348764095433 0.10872753752562243
0.09521927983443466 -0.17319282913401615 0.10787924249016735
0.09538520324922004 -0.173341498130529 0.1084678883789262
0.09502727223332301 -0.1718471314717882 0.10710067581857247
0.09517805581470383 -0.17229843272309203 0.10753032168660578
0.09533854550533093 -0.172749960245586 0.10798179046498586
0.09507242391248509 -0.17135418186089452 0.1072840223001539
0.09529815669100206 -0.1714911739948876 0.10776603484633245
0.09468086212043737 -0.17034505168699748 0.10691750262073943
0.09483046487598204 -0.1705258496414297 0.10710505628523412
0.0950776125870972 -0.17088777295458724 0.10742238684522767
0.09426713654143143 -0.16927448850765586 0.10644969907679978
0.09452266013450945 -0.16961561725750726 0.10679635181792022
0.09472005059591722 -0.17002750548350115 0.10705579285543015
0.0942722699536268 -0.16871641108159643 0.10656313158025829
0.09451214817431995 -0.16897704217025591 0.10690250896637407
0.09444952045244732 -0.16841845326576196 0.10688390393462392
0.09416956386030587 -0.16815625546513005 0.10650697527785934
0.09367682333349842 -0.16662676885249375 0.10614490560068573
0.09404412726444503 -0.16728951874704878 0.10649930162338891
0.0937120754617945 -0.1658453811944709 0.10632585182225368
0.09405707557255995 -0.16632601485413812 0.10668850958564466
0.09373741162958267 -0.16536993035862363 0.10644652732838841
0.09399977222442994 -0.16553561139027523 0.10674587792287445
0.09315527417089683 -0.16387595413593248 0.10616546213590548
0.09348235849693282 -0.16436657147900263 0.10638966035825025
0.0937978439916445 -0.16491688110005978 0.10662268116105648
0.09311262809609716 -0.1632118627356743 0.10629528872732044
0.09348587678526464 -0.16363604771117626 0.10657311523657843
0.09310131352286478 -0.1627548927518466 0.10640886917290679
0.09339339138588097 -0.16290654222213663 0.10667949647940539
0.09236247781104548 -0.16139065256577922 0.10624465245671909
0.0927455437989712 -0.1618376891969083 0.1064113972496461
0.09312653220154869 -0.1623185707201389 0.1065992240399014
0.09234658047358024 -0.1610003221283204 0.10639480079670117
0.09266772293246425 -0.16117532672060725 0.10662451417132801
0.09143454449601025 -0.1595592673840209 0.10634057899286876
0.0919183437629603 -0.1600385838711557 0.10651538076607299
0.0923727205824655 -0.16058867493185583 0.10664176070615393
0.09113788000269997 -0.15874508424017963 0.10655162246002446
0.09178510624497062 -0.159230013062435 0.10685644922508183
0.09058485722936223 -0.158129043686419 0.10644011032806978
0.09099392654483043 -0.15793515413369735 0.10690145427403072
0.09161221396675519 -0.15822464468726855 0.10729856795099503
0.09058482099324976 -0.1575882963668633 0.10676433704861227
0.09083515166428112 -0.15738352659210875 0.10709207913307214
0.09117743996145566 -0.15753707625608518 0.10730130954933992
0.08941051184713547 -0.15620317619047483 0.10664363564790251
0.08991714796753458 -0.15660830056444633 0.10679500613333626
0.09044074936722693 -0.15701888740315303 0.10698166115949805
0.08933682556941917 -0.1557496955535357 0.10688152322490507
0.08972103390833562 -0.15588439899814463 0.10710079691637688
0.08800567046607179 -0.15429475233450007 0.10678732344020117
0.08870018089252495 -0.15477355093670697 0.10699169554159646
0.08931297846278731 -0.15528842254727443 0.10715641563460407
0.08742118876218742 -0.15367949604481296 0.10680395139496575
0.08788411126139316 -0.15355235026983508 0.10722288539130907
0.08846798824662734 -0.15394834108330924 0.10736947377543352
0.08743685962219479 -0.15317705383323618 0.10719443562336568
0.08773817627174488 -0.15304944055148695 0.1074920420886419
0.08816292143455921 -0.15330552227509436 0.10760095352167781
0.08606147870183764 -0.15171953746798747 0.10719430416001298
0.0866573374953442 -0.15217444763432753 0.10732245458028793
0.08728631433229689 -0.15264699005441743 0.10745994603184446
0.08596356040313 -0.15126803396477484 0.10745836771410064
0.08640461817854787 -0.15143866369624573 0.10767768518738216
0.08483077289947702 -0.1499859391738012 0.10752032938545926
0.08532286547359802 -0.15033853240450729 0.10763503820480876
0.08592990914324222 -0.15080759474467142 0.10777102898993264
0.08508343450344626 -0.14972348851397643 0.1079335577826609
0.08456288118592921 -0.14936598213382163 0.10781481719116233
0.08369114716218741 -0.14813706179153846 0.10818003590293264
0.08420387424581609 -0.14838461152948607 0.10839502023360245
0.08251328821746025 -0.14725928806684502 0.10814887366965695
0.0829721601455173 -0.14727747562600052 0.1084932608477798
0.08357874305601092 -0.14774781577839025 0.1085046076555473
0.08134823329015896 -0.14605622635819124 0.10824779274382307
0.08188098473487798 -0.14628362740168366 0.1085479703167814
0.08239345748287463 -0.14682573320795314 0.10847988647263498
0.08146373107135942 -0.1456427623260802 0.10870604125946158
0.08103858770369717 -0.14546988823127407 0.108405806184105
0.08013221604603939 -0.1440825395480375 0.10839451278786424
0.08068206089831403 -0.1446213818924932 0.10865317638391604
0.07991392300840704 -0.1431869513414364 0.10871639027966758
0.08047978027257133 -0.14355788418314872 0.10913292722642787
0.07978740795245617 -0.14260490469566306 0.10894471665188772
0.0801218253333218 -0.14267765646213956 0.10928200839864477
0.07877918523927464 -0.14102447437529844 0.1086892003908754
0.07928458560937993 -0.14151035368447978 0.10900288763354253
0.07974810783102493 -0.14206134331399478 0.10922110846737594
0.07855824501786182 -0.14008312024093758 0.10893756530383668
0.07914451111663934 -0.14049534907209557 0.10940891242192552
0.0784081402365634 -0.1392937821547078 0.10914921660628768
0.07882800217470258 -0.13953533311091745 0.10952699076120702
0.0785513478199144 -0.1388411000301367 0.10953771332356367
0.07809028558391631 -0.13852203312078376 0.10911823033275916
0.07796452019542868 -0.13748979339121392 0.10937448121231517
0.0778280653609345 -0.13651355784187114 0.10959057406722295
0.07769479419684268 -0.13557611228609098 0.10977472761605116
0.07760957454080662 -0.13477949284742322 0.10995397394077015
0.07666031372185529 -0.1332449264009553 0.10952735652782737
0.07726804622317762 -0.13392924904790593 0.10987948809869436
0.07651520183290826 -0.13224790815851933 0.10975278160950722
0.07709894987057346 -0.13279314521557944 0.11010640867992198
0.07633819260341848 -0.1312331321112219 0.10996111429516564
0.07693840467132652 -0.13176126480576303 0.11029829689693668
0.07615492404863206 -0.13022847641888155 0.11016121437406386
0.07676159530196255 -0.13074357249236596 0.11048393070980797
0.07599973974331445 -0.12922720207084318 0.11031229599834576
0.07659297519435115 -0.12973977442640197 0.11065851046455687
0.0758739750213978 -0.12822546683868202 0.11043012947819428
0.0764457856962722 -0.12876301398382203 0.11080539959247208
0.07580845393053673 -0.12721871493822562 0.11054102662576498
0.07636324201672874 -0.1278089004368384 0.11090855533826877
0.07585954214500416 -0.12609612598836972 0.1106806479304935
0.07635852879526636 -0.12692373644103488 0.1110477485684806
0.07562891826913876 -0.12497014543083633 0.1105430346346673
0.07668428970728411 -0.12620821034813492 0.11136019569240008
0.07640922585970276 -0.1252027640266102 0.11111154455655083
0.07692566529169334 -0.12552523304684896 0.1115510540744363
0.07608563580789743 -0.124253410267787 0.11084793841750906
0.0769129454175732 -0.12500631339318674 0.11152094007665239
0.07675063407361407 -0.12444666533815091 0.11135947186205362
0.07726466127505441 -0.12470104319790801 0.11180372978904549
0.07655319114274277 -0.12378919124470261 0.11118006240367302
0.07726577820200037 -0.12380114236186018 0.11176015552038437
0.077347975307101 -0.12265802167629315 0.11191082814956911
0.07692151666927846 -0.12149863463291635 0.1118292422075638
0.07751916844329194 -0.121889772215139 0.11226282371136097
0.07621251172562428 -0.1206190544307845 0.11166002630468935
0.07678246582619613 -0.12063414363178891 0.1121784852782049
0.0773075735801605 -0.12112166722317197 0.11246907304234945
0.07559705049429687 -0.1195843039181323 0.11193733094457219
0.07628379530501025 -0.119791415485383 0.11238015759858058
0.07696399339525428 -0.12013086731881886 0.11288722884287025
0.07503458479015726 -0.11876589795116706 0.11218395913259344
0.07569954769558725 -0.1187943581329995 0.1126981624213431
0.07635634776980126 -0.11907967713064158 0.11315669851058952
0.07458341478690075 -0.11836932302794567 0.11222538939552194
0.0751770817254463 -0.11833848837286506 0.11263708593639085
0.07563338363444741 -0.11820451982715255 0.11315036729503494
0.0759516923688184 -0.11836700166068802 0.1133716684395917
0.0948960034107423 -0.17779458023850628 0.1107513910800988
0.09505345431798033 -0.17744317391733688 0.1109214035111947
0.0950714901949682 -0.17576513394951443 0.10983911873591877
0.09516523000489735 -0.17637654687827906 0.11053381461330802
0.09524122107947801 -0.1768560922740545 0.11107245310633343
0.09532086668576305 -0.17479287447191294 0.10962100134102608
0.09539525128147279 -0.1754606196558309 0.11053675048910576
0.09533920120826203 -0.17405554289876857 0.10897090905125423
0.09559511640173533 -0.1739160271069469 0.10962270848622008
0.09567572819129702 -0.1744164637140108 0.11057474812124568
0.09555186991407301 -0.17349751293175583 0.10915157901460745
0.0957445640791024 -0.17334317103765867 0.10955239107114811
0.0958156135208671 -0.17358813959660663 0.11003740631750808
0.09547309152512454 -0.17208543651575386 0.10810699881001881
0.09564137537202551 -0.17253387601785483 0.10857167710280982
0.09572383104576829 -0.1729645498434082 0.1091340333597704
0.09553084426495748 -0.17164457017499668 0.10822011730265682
0.09574289353892808 -0.1718365120600615 0.10859538941467053
0.09502740509478584 -0.1700873854767663 0.10753354008964813
0.09536126899766766 -0.1706639230496067 0.10798725886456244
0.09561593680573552 -0.1712257021701135 0.10840154492329143
0.0947542646515792 -0.16940634043877373 0.10725002715166819
0.09505699764553906 -0.1692746836953589 0.10775075852580651
0.09539038309837203 -0.16985304143596922 0.10813432128039523
0.09478266546144296 -0.1685176733442524 0.10740490368833794
0.09513512833685878 -0.16871022504313948 0.10793730247312651
0.09534852917980581 -0.16917007367854045 0.10818785568256181
0.09444530039045089 -0.167795889278953 0.10700148067112158
0.09478517910217055 -0.16759927483646178 0.10752517178178411
0.09509928291450703 -0.1680752440899189 0.10793943528942967
0.09445968517691082 -0.166869756014882 0.10718627290408861
0.09482983142430303 -0.16699830619525427 0.10768851228643476
0.0950489288154796 -0.1674309950685972 0.10793773526770177
0.09438356296217928 -0.16588777765089163 0.10720557959760499
0.09476905513352847 -0.16633015107067708 0.10769713361145583
0.09423390640309007 -0.16488294195835726 0.10721348849760694
0.09471166889420315 -0.1654200244656548 0.10776992246248389
0.09385662121891557 -0.16416550900596735 0.1068723909831645
0.09423819108879027 -0.16392081100479958 0.10740999627831005
0.0946851052813431 -0.1643384784811539 0.1079816884153488
0.09383995064055527 -0.1632599925821021 0.10711101243004374
0.0942439997160221 -0.16327604638373355 0.107580368028581
0.09450046178108762 -0.1635891848813799 0.1078360045310979
0.09358029366356817 -0.1622441041611009 0.10717833796215444
0.09408883715698545 -0.16261667690184073 0.10766022595853479
0.09310609101398372 -0.1615900995083464 0.10690380129462106
0.0934506499756568 -0.161305612416257 0.10748741439761886
0.09393603399926563 -0.1616871071053576 0.10799902959191632
0.0929324824902712 -0.16060055033463944 0.10725434754086595
0.09338834334534614 -0.16065786831217993 0.10779401223985423
0.09365325769140131 -0.1609930022855288 0.10797939825014163
0.09233842094476284 -0.15983855833244115 0.10704133071510707
0.09274491800499243 -0.15959392842896405 0.10763406415901941
0.09324393078479755 -0.15990956601588807 0.10810110398991521
0.092244709905457 -0.15892856619789025 0.10750034369465868
0.09263069409897111 -0.1589756078870884 0.10793606594890355
0.09293377122621843 -0.15927810018901184 0.10810973113171252
0.09206988467149144 -0.15831087815152825 0.10770886965693632
0.09240519422750718 -0.15829352568289978 0.1081483839702319
0.090910392547675 -0.15684102669898947 0.10750541253657248
0.09147172526659345 -0.15731362712473282 0.1077442491349773
0.0919414816041361 -0.1577856795983081 0.10793701396921873
0.09028765166152887 -0.15626068412981095 0.10733646783009824
0.09070987181169916 -0.1559786986004525 0.107895186135399
0.09135177191022088 -0.15641517662012008 0.10821333805938686
0.08999585931316423 -0.15524660626042308 0.10774129907448243
0.09062412177972792 -0.15534897367407277 0.10821692617971693
0.09100396848633498 -0.15571959157642187 0.10832761495925348
0.08916841811791736 -0.15446419612264253 0.10757010004076938
0.08963469768644561 -0.15417810845894184 0.10813126994439066
0.0903857952895275 -0.15460492579271698 0.10851347310627688
0.08879857508375484 -0.1534148279361748 0.10799078486704157
0.08944621016812931 -0.1535024659561023 0.10841222792993953
0.08989883396970542 -0.15386138380480419 0.10856493574446965
0.0879007617121856 -0.15262624589755533 0.10788521419221175
0.08843992289922312 -0.1524416597215228 0.10836562056413639
0.08909944036966035 -0.15284487882324665 0.10857118562920862
0.08711877798493375 -0.151890923776788 0.1078640956635319
0.08771753259009973 -0.15171070361818148 0.10839174130922871
0.08829952559784018 -0.15186912518466755 0.10867101701374905
0.08875858856185954 -0.1522051382542033 0.10875319438482903
0.08673413080141804 -0.15080509296719732 0.10839836326825429
0.08751042153243979 -0.15097910585119037 0.10881501899629564
0.08800156400207278 -0.1514029859258796 0.10881632209144504
0.08569907719895448 -0.14989444801422644 0.10830665597963357
0.08630906974310612 -0.14964858516946322 0.10903695130576253
0.0871922342888745 -0.1500985748150581 0.10934116249001163
0.08499441550703911 -0.14911092540832097 0.10838824899948647
0.08552973692638655 -0.14892623613168637 0.10903864727784456
0.08611616710262031 -0.14885657035762423 0.10963465438618078
0.08661549027975524 -0.1493379425780511 0.10958261000069842
0.0848802444141022 -0.1484695280351838 0.10888679144176247
0.08515173480886942 -0.14812546562868015 0.1094773096869906
0.08562240413256171 -0.14842325743569168 0.10962381698411729
0.08343177362209267 -0.1473108643703434 0.108839226001442
0.08392371779090546 -0.1473828601661412 0.10917947128004483
0.08454317382105525 -0.14787207701573102 0.10920286558959769
0.08231017811020691 -0.14639759684126258 0.10882105587474108
0.08269098323534343 -0.1465344904003235 0.10899359324351376
0.08327287164978418 -0.14682309115296288 0.10918154110254692
0.08127561561401976 -0.14496541516353798 0.10903387405457952
0.08180369929979273 -0.14543757791886372 0.10918236324882236
0.08230479832339296 -0.14597073933676913 0.10918835404859925
0.0810424207431567 -0.14411894636354955 0.10938412758112112
0.08167947295662675 -0.144528958470877 0.1097262059676194
0.08087972569086882 -0.14342422203558716 0.10966273224988318
0.08131528845169812 -0.1436326382166851 0.1099644445722774
0.08102047632433633 -0.1430152268053124 0.11003202476269681
0.08059524496904828 -0.14280968478535166 0.10972120979577242
0.07969437362075031 -0.14118430092631756 0.10964608908141375
0.08025740464812767 -0.1418955222314839 0.10987241487849908
0.07960001318233569 -0.14042227304485763 0.10995989109354488
0.08015197120278761 -0.1407526226788607 0.11035346972358911
0.07973611675276966 -0.13998250612829968 0.11032527619980692
0.07930876822338696 -0.1397343103470297 0.10997756881078304
0.07846277452076122 -0.13807707223129018 0.10974378530897623
0.07899438043763238 -0.13876932845806 0.11005993208561218
0.07834029839697346 -0.13710407538539338 0.1099525618487001
0.07886013149194553 -0.1376977264108445 0.1103231174123922
0.07818991241156054 -0.1361372279699588 0.11013612275979015
0.07870724248778009 -0.13669914597371388 0.11051319333543204
0.07805463248451205 -0.1352110666271913 0.11028057495667098
0.07855434433615655 -0.13572990441280033 0.11066649835506887
0.07787991032146674 -0.1342890992482266 0.11037735219258932
0.07840850002392447 -0.13476605914457748 0.11078225651645866
0.07768489211351957 -0.13330219230555196 0.11048606132642062
0.0782456435114944 -0.13378997393176467 0.11089516618239292
0.07751851915999121 -0.13227324623078784 0.11065259628815079
0.07808898368788682 -0.1327805212765772 0.11102152426907004
0.07735485434253579 -0.13126427851272449 0.11082717516960146
0.07792788715878957 -0.1317711211323123 0.11118134428395307
0.07719177060512411 -0.13025067061605053 0.11099254018785513
0.07777479569266506 -0.13076711001869432 0.11134075149009383
0.0770197979745268 -0.12925882126428762 0.11115657011138426
0.07760925311189153 -0.12976170384685506 0.11149240659852781
0.0768924558991156 -0.12830384737347467 0.11127008780776702
0.07744881083063451 -0.12877715524447678 0.11162242642947992
0.07679636118214232 -0.1274218097292806 0.11134608674591456
0.07730149900460993 -0.1278237616053896 0.11169770561352381
0.07673109528440014 -0.12684792762830377 0.11138729840009964
0.07715950377189192 -0.12690026239664273 0.11171469351821556
0.07740145094423194 -0.1260437869690069 0.11197181870764784
0.0772329689545522 -0.1252808024579482 0.11179805498157404
0.07765110791162214 -0.12523997622633196 0.11216763893702958
0.07775720568953137 -0.12454458640846373 0.11224621607826792
0.07801684629054077 -0.12397611846351038 0.1124736514628368
0.07770509231739504 -0.12340150958501875 0.11211758599330611
0.07800423039847201 -0.1231908824714307 0.11247787077322983
0.07792215051284075 -0.12246321838626024 0.11257314489409832
0.07783037452626947 -0.12171292943263703 0.1128271073695113
0.07828325734031123 -0.12235837942565006 0.11322081433660099
0.07758464155238613 -0.12086796901471746 0.11316747746634996
0.07812095398007961 -0.12152875613406393 0.11353862853155623
0.07734368004050635 -0.12011795387292425 0.1135176617627914
0.07781378066767153 -0.12054251257486367 0.1139852412588518
0.07731366121639965 -0.11969891203926879 0.11409210424790184
0.07688129353802366 -0.11934378874558979 0.11368092056957972
0.07594668326694422 -0.11798727521403024 0.11371296138124432
0.07636547015670679 -0.11831816382738694 0.11402536943760541
0.07616641729731591 -0.11780806316085621 0.11415982078774448
0.09561888226864533 -0.17650251897583474 0.11166145486863391
0.0954857052345486 -0.17615400827552838 0.11122278177693164
0.09580042567661712 -0.17605045665569263 0.11181791958604254
0.0958708797057438 -0.1763192265188266 0.11203412614139369
0.09574270515768797 -0.17532242262529393 0.11131883455329719
0.09595679919615192 -0.1755274771815652 0.11195049376986438
0.0959801399045426 -0.1758894952084456 0.11216705911875868
0.09583282678717882 -0.1746913066466047 0.11127340412821529
0.09602138706156213 -0.17488263582987937 0.11177617165407899
0.0959737754177069 -0.1729070035042607 0.10984211517396561
0.0959874767786458 -0.1735089948226515 0.11064194923474656
0.09599052573548802 -0.17418510034339907 0.11135780609881059
0.09594174741016508 -0.17227185576588008 0.10917511172475057
0.09615213941552085 -0.17211189860958628 0.10982183964753808
0.09624493755037963 -0.1726836740869479 0.11053599536574982
0.09601602983037093 -0.17133163789408723 0.10917617801362423
0.0962592428407028 -0.17153210493764867 0.10989556245672273
0.09634446048751566 -0.17198630385499647 0.11035046796414748
0.09570982515566558 -0.17048260531502313 0.10861270296656023
0.09605185039182279 -0.1703658189693475 0.10920446691713616
0.09631893413498531 -0.17088264530598293 0.10976148233736646
0.09571794742004462 -0.1694804077455664 0.10874137674536499
0.09608068076516177 -0.16975456157874846 0.10932220069238617
0.09631180014032655 -0.17022097649964185 0.10965425665419344
0.09540128276021967 -0.16860126446537788 0.1083522031483703
0.095703285039428 -0.1685304687994752 0.10884216883096802
0.09601421295480145 -0.16907316599824518 0.10929094103650436
0.09537685948794085 -0.16767744003247465 0.10845844939524518
0.09573449540857741 -0.16793387956404313 0.10898245944830566
0.09596648962392232 -0.1684011374377987 0.10926424956359962
0.09507792894433767 -0.16685883536896892 0.10810067178311682
0.09534873973820453 -0.16676099952841253 0.10858678162762953
0.09564244031351976 -0.16725955660118041 0.10899247388631945
0.09508653764993322 -0.16601996358832238 0.10828043579072755
0.0954034705878983 -0.1661855792499459 0.10875418746008132
0.09559283801347135 -0.16660301059571841 0.10900493092365396
0.09499813245893002 -0.165064571198574 0.10836117030083482
0.09533185284999215 -0.1655268514754198 0.10880299812439616
0.09497965407220689 -0.1644828391004976 0.10847220336145004
0.09525767278886352 -0.16460937835692632 0.1089881800116457
0.09445826759672199 -0.1629790686848117 0.10801791461773683
0.09472646109719872 -0.16345098769739094 0.10832088282360894
0.09497815432336959 -0.1639586751228127 0.10865034830309299
0.09435545758112876 -0.16227584415647456 0.10826311135209687
0.09467166429128507 -0.16269604483150096 0.10862532561490035
0.09426663485808294 -0.16180132738903913 0.10846905235030577
0.09455624232097608 -0.16187358282631517 0.10901323187302407
0.0935904168123569 -0.1604173842232483 0.10828468572672831
0.09387092863088296 -0.16085377196931644 0.10849367604665126
0.09418893474280718 -0.16131733719690836 0.10873925754792227
0.09353312348497954 -0.15999235922306848 0.10851951841647303
0.09375588085224704 -0.1600743422267189 0.10897623645230589
0.09279262240975682 -0.15873092278361933 0.10837721435257192
0.09314361327401058 -0.15912311321318576 0.10859079419067201
0.09346127624413089 -0.1595444164480495 0.10879800938463371
0.09269416246266951 -0.1582975136813448 0.10856482786976308
0.09297644833947369 -0.15833128865854554 0.10901690869970125
0.09180357231804023 -0.15706038442359427 0.10826980784317927
0.09221358444468539 -0.1574632847880236 0.10849496288500317
0.09259555607084945 -0.15781813596518512 0.10878443439795976
0.09173760206944025 -0.15659860699111028 0.10850464574339311
0.09201580282846471 -0.15675097936972965 0.10875389259966389
0.09090407352101695 -0.15518911551310258 0.10859524234973923
0.09130030112497971 -0.1556594054623015 0.10869461971812737
0.09170377897723858 -0.15617110238417087 0.10879163378332116
0.09082528621679233 -0.15479983606135986 0.10879996091661316
0.09114162542620348 -0.15499971510352878 0.1090115051774267
0.08970315891959554 -0.15320675850790474 0.10882855424660215
0.09027429360882261 -0.1537825097891414 0.10897769755525556
0.09079790191311367 -0.15439017591073176 0.10908632669016403
0.08932062277046975 -0.15230534529990708 0.10914235165336404
0.09007948242810508 -0.15292731747843763 0.10938670027568063
0.08856121553876858 -0.15156535382882202 0.10910004355677862
0.08909616770889875 -0.1514634513202395 0.10960413594775811
0.08981487235942574 -0.151935448526028 0.10989377738762768
0.08793701262344475 -0.1508631924165071 0.10920587700099595
0.08846645761505477 -0.15081015834976283 0.10965124794902185
0.08898938167600429 -0.15087329749015774 0.11001283784451049
0.08936669114659408 -0.15129259936644693 0.1099731299639726
0.08788184626690204 -0.15031056683616653 0.10964871348402506
0.0882142864270776 -0.15009804311917285 0.11009867861410444
0.08859880983206447 -0.15047384048389673 0.11004505049342185
0.0865177347742268 -0.1489728868568462 0.10986293329118577
0.08696642665195223 -0.1491317268569697 0.11009176575195401
0.08759959831435789 -0.1496965441624109 0.11003006224434381
0.085483131532818 -0.1480799869010128 0.10982770400762866
0.08587266511676694 -0.14810770329422657 0.11016198823863181
0.08641189279423145 -0.1485863950512069 0.1101640432226127
0.08437901018487229 -0.14742892990274462 0.10952033010881307
0.08475815934275152 -0.1474836862027336 0.10977325793150584
0.08529295362265404 -0.1476620350422142 0.11006537500389477
0.08292706972129023 -0.14594467165928354 0.10971323257264144
0.08369577918790275 -0.14648220830490258 0.10985074803669835
0.08431092976957436 -0.14698453716028395 0.10988970052379934
0.08228119142522876 -0.14524631269468152 0.10974746126460694
0.08278064620896194 -0.14506592786064054 0.1103064139883617
0.08353004597988595 -0.14548666902979665 0.11059199616518951
0.0822653301061742 -0.14451784533024398 0.11025752225702301
0.08265270335053522 -0.1444568445066206 0.11062441571143859
0.08304272153330289 -0.1447147842386764 0.11076626136665374
0.08235341113641906 -0.14400358824603898 0.11066496214216255
0.08186916843981987 -0.14380760945180243 0.11036681427352013
0.0808705322582601 -0.14233297966154437 0.11025135469776616
0.08146975109358374 -0.14290779171302995 0.1104942199288085
0.08067944480809736 -0.14148365674514904 0.11050362998480898
0.08124350912306226 -0.1419517060768224 0.11077739793266045
0.08060150324636844 -0.14092864945517108 0.11070253350959001
0.08100321531347923 -0.14110729282756063 0.11096754099349712
0.0795811219419357 -0.1392352247495796 0.11048919660614201
0.08009483085745164 -0.1397948829115929 0.1107604412951039
0.08060536450049492 -0.14040785825392466 0.1109389253306326
0.07941019664856067 -0.13827160800292365 0.11069067402667888
0.07999186907862252 -0.13885613214732662 0.11103983353655122
0.07924732734078499 -0.137259795093931 0.110885958752277
0.07981987823834412 -0.1378340451552181 0.11126612289091438
0.07907470461289501 -0.13626311951444642 0.1110551342224621
0.07962487930347313 -0.13681040190323354 0.11143406222726102
0.07892391760046968 -0.13527617598299777 0.11118930657457599
0.07944712759836894 -0.13579982595499773 0.11158388725772875
0.07877311629511731 -0.13429257868342684 0.11130377479783098
0.07928838229885561 -0.13480708156376045 0.11171056582854312
0.07863609284721661 -0.13329930141803162 0.11141692109487326
0.07915157403155935 -0.13381476138647558 0.11182502924694013
0.07848689500871346 -0.13228669968259665 0.11154658586438196
0.07902010809004396 -0.13281736762212137 0.11194193419595438
0.07833705109783205 -0.13128023930106403 0.1116949559765151
0.07888616979369989 -0.1318118884801603 0.11206786133331785
0.07818149210339786 -0.13027425508874582 0.11184961404794504
0.07874276690921607 -0.13079730236732515 0.11221142071051562
0.07802984398593542 -0.12927118140634686 0.11197523412426019
0.0786004953913037 -0.12978107428555338 0.11234852577036537
0.07785445082673463 -0.12828287403603003 0.11207537495447753
0.0784380316870664 -0.1287618596122741 0.11245897034082229
0.07769136412086763 -0.12736185095691233 0.11209683059450573
0.0782487294835785 -0.1277600197150261 0.11251796021166571
0.07756104826240293 -0.12674140608763554 0.11207402192130583
0.07800979691547702 -0.12675289969402134 0.11246170196558647
0.07803232530436893 -0.12585256728424712 0.11256694934780084
0.07812863933977031 -0.12508263801324487 0.11265340916510727
0.07853943109922003 -0.12567874018215147 0.11310220793999673
0.07813056996131339 -0.12456026554918401 0.11263923838707872
0.07856536395022415 -0.12468141984344584 0.11316005375514389
0.07845167414716477 -0.1236883602154529 0.11303176680600549
0.07830967095481768 -0.12297847505415373 0.1129629896956648
0.0787251830534896 -0.12317187588722416 0.113612073036293
0.07860974141878448 -0.12224989504428344 0.11394870739688663
0.07840909495178774 -0.12135922408114912 0.11428271430017305
0.078151469644422 -0.12056778707382543 0.11468804401205542
0.07695922693551577 -0.11891381829038686 0.11447203786455012
0.07759272679188547 -0.11964423421485541 0.11483455908932202
0.07669380719861053 -0.11818995914753896 0.11472733289315284
0.07718310027521878 -0.11863134585290182 0.11521581621332687
0.0767345396212053 -0.1179984376181553 0.11495927555555907
0.07643133215721212 -0.11783631486961021 0.11456982657011217
0.09619604421776498 -0.17517681725713832 0.11230978092836641
0.09659534490582056 -0.1747999948654508 0.11286537345151933
0.09638765395838353 -0.17426795169059595 0.112287721187757
0.09675859838145072 -0.17446580076672044 0.11309903647004914
