# .PCD v.7 - Point Cloud Data file format
VERSION .7
FIELDS x y z
SIZE 4 4 4
TYPE f f f
COUNT 1 1 1
WIDTH 791
HEIGHT 1
VIEWPOINT 0 0 0 1 0 0 0
POINTS 791
DATA ascii
0.0792199184281369 -0.13317090753888214 0.11183884013012868
0.07852916915034129 -0.13163152114197868 0.11160125796610436
0.07908024683847434 -0.13216471500786361 0.11196960264396642
0.07836780665632272 -0.13062465944518725 0.1117612827830166
0.0789311395878141 -0.1311491038222547 0.11211833210773346
0.07821077067906299 -0.12962029423393032 0.11189192413212529
0.07878357686989819 -0.13013164331293778 0.1122606059714899
0.078029317368235 -0.12862981942265042 0.11199771500733569
0.07861546006041226 -0.12911042073294451 0.11237640298285494
0.07786082697242348 -0.12770650340551667 0.11202424177414587
0.07842000168291366 -0.12810608904124632 0.11244131306273063
0.07772655538702711 -0.12708416433191796 0.11200523775213589
0.07817482819155637 -0.12709605306258742 0.11239130649069345
0.07819090476969394 -0.12619298325667744 0.11250182201932425
0.07828213514037896 -0.1254205769219071 0.1125922012412981
0.07869556524784757 -0.12601867827116278 0.11303639716582062
0.07828070606455485 -0.12489627079988304 0.1125809038952305
0.07871496113031735 -0.12501827295902226 0.11309973159386678
0.07859562770135695 -0.12402202089153098 0.11297685185235733
0.07844926546161446 -0.12330950015814279 0.11291221004267807
0.07886448395486209 -0.12350426518268283 0.11355927542628055
0.07874230135114525 -0.12258010340700504 0.11390116576307947
0.07853566748810592 -0.12168763856604618 0.11424019845902143
0.07827181320783345 -0.12089429322678685 0.11465085503229736
0.0770687491917387 -0.11923495634137539 0.11444592088770779
0.07770581011314302 -0.11996805378643201 0.11480412083722102
0.07679909415814998 -0.11850895867895829 0.11470520224154195
0.07728917769301616 -0.11895251529801283 0.11519166859007784
0.07683840696639573 -0.11831703567961226 0.11493817628548439
0.07653563679672754 -0.1181538742410125 0.11454929860216795
0.09637731351756179 -0.17531440771807233 0.11199538376153893
0.096770130660584 -0.17494210454423134 0.11255080350022346
0.09657659711856442 -0.17441001557861682 0.11196393451060015
0.0969313640721465 -0.17461059800812476 0.11278328991215643
0.09702927217519736 -0.17484810972026033 0.11316267605261592
0.09647448193592625 -0.17349962058736484 0.111063096054239
0.0967262016024182 -0.17335413803884395 0.11186635860461468
0.09694023195514545 -0.17391270955565527 0.11281728125660878
0.09678023828727621 -0.1724207187828943 0.11090162863942746
0.09689371025416037 -0.17270537704400296 0.11188141808544556
0.0969009490170964 -0.17315716399660577 0.11242681230729844
0.09672784001195596 -0.1715370253456171 0.11005118798974199
0.09701378336980465 -0.17140357233963446 0.11070970708056838
0.097070363120943 -0.1719430695614616 0.11174432642185467
0.09691236612164487 -0.1706082596254798 0.1099461179059819
0.09719476210172195 -0.17079499867320838 0.1106435777897068
0.09723137603164783 -0.17117644690457243 0.11118609157053742
0.09664409690143864 -0.1697882310943362 0.10939044119258853
0.09696018268443465 -0.16968985153145733 0.10991703430270651
0.09720310589070474 -0.1701688799760445 0.11045892546488385
0.09663237731185015 -0.16885239635122246 0.10946298726523995
0.09698457961545007 -0.16912003182440005 0.11003676336677987
0.09717266801742339 -0.1695493619869899 0.11035077338175446
0.09631054079052648 -0.16799476912410657 0.10904199590958077
0.09660791427135354 -0.16792029139023923 0.1095842244023212
0.09690420348142391 -0.16847363664696752 0.11002855509233396
0.09628917789345028 -0.16704049491048922 0.10920310780586527
0.09667367110415595 -0.16733061144506944 0.10978939654334165
0.09685991462554742 -0.1678284685727593 0.11004349512491564
0.09597856328669267 -0.16624967022304366 0.1088138332952658
0.0962409680272753 -0.1661034266069189 0.10935507169636287
0.09667076039923342 -0.1665602448908059 0.10993533950773877
0.09593793472034455 -0.16547251665350138 0.10901393559656102
0.09618493352919555 -0.16551390964761473 0.10949067048997732
0.09641083289445 -0.16581764419526898 0.10977872112027222
0.09584825286418361 -0.16492916262012278 0.10907426277680864
0.09604698549842595 -0.16499573021369066 0.10945433114172748
0.09527307276041067 -0.16343081894064798 0.10860744883658378
0.09553229762941752 -0.16397114574203278 0.10895143965380832
0.0958252652481254 -0.16447888941972766 0.1092840875749912
0.09519108318103293 -0.16269102653819179 0.10896608717595954
0.09545022126427857 -0.16317372267649802 0.10934729763488252
0.09513183222642303 -0.16220174892059958 0.10921442368533091
0.09532798969239689 -0.1623035030695479 0.10980291508985088
0.09440558093478425 -0.16087964836566807 0.10882557002335483
0.09472190357740042 -0.16130505968604947 0.10913857834260003
0.09502882902915552 -0.1617313639193512 0.10949213937260431
0.09429478912499513 -0.16042868824165485 0.10911527772932493
0.09455331582972006 -0.16049460145201522 0.10964172606699824
0.09367589222919359 -0.159138037170724 0.10888973381131384
0.09395190137905328 -0.15955305762118027 0.10913896976066394
0.09422031035271637 -0.15996467026397393 0.10940329916719635
0.09356244684412428 -0.15868164125245746 0.10916597866900657
0.09381230098644684 -0.15876302929815012 0.10964703260623143
0.09274065646168858 -0.157337216531502 0.10878793566667623
0.09312625693496446 -0.15775949490936728 0.10911095705402961
0.09345168112998659 -0.15819430132261594 0.10943325962875164
0.09243474777813457 -0.15645368968413778 0.10906099592394945
0.0929176502061058 -0.1569282108215848 0.10946595985046732
0.09194028590621292 -0.15575692770156097 0.10893048650227806
0.09226714203521891 -0.1555763665481207 0.10952297375816092
0.09270118544996622 -0.1560752898482743 0.10980164913600572
0.09170067112931937 -0.15477320007736922 0.10940803973838079
0.09222727206465473 -0.15495819429265495 0.1099346071840128
0.09253331528092242 -0.15540296430535716 0.11004330883899609
0.09104553220476974 -0.15392916508479898 0.10926913429461715
0.09143405023975812 -0.1537397877907224 0.109876471653278
0.0920251583858666 -0.15416164169592225 0.11032357572844109
0.0908620158877799 -0.15300708749323028 0.10978218739244643
0.0912860619422561 -0.15310679583713416 0.11020052244023139
0.09161984101046611 -0.15346043790654085 0.11035150880672184
0.09063003823574509 -0.1523814334151183 0.11003065225308079
0.09103302987379397 -0.15241555408828383 0.11047345438816476
0.08962473741786094 -0.15133172658338626 0.10991760808083173
0.08993064374861728 -0.1515021482863393 0.11006520556337734
0.09044755771353233 -0.1518403154996077 0.11030916053401738
0.08884680445581641 -0.15053724611247124 0.10999185424765483
0.08914309322322873 -0.1506880662768646 0.1101038346471253
0.08958568212202282 -0.151003974183455 0.11019996193929125
0.08774371369798604 -0.1495806202898765 0.11014109180215573
0.08822713440631466 -0.14964683498860099 0.11045412697224818
0.08883090900893079 -0.1502297691497881 0.11030026768618238
0.08659000166125945 -0.14852695146443054 0.11025791744927768
0.08703771388464893 -0.1486459543879097 0.11052661651783942
0.08759947757024239 -0.149161257586135 0.11045651551889077
0.0851822855381856 -0.14723597348053744 0.11027359802453197
0.08589141724998182 -0.14767159961697804 0.1104812520562201
0.08646075775566914 -0.1481085723944066 0.11057761948914743
0.08449796156936655 -0.14662080517480755 0.11028884631550655
0.08494952285689113 -0.1464590011105346 0.11083140530790078
0.0856769541086334 -0.146808741313814 0.1111172912679559
0.08445288446597042 -0.14605939069115675 0.11077244837297434
0.0847454044946181 -0.1459022377517477 0.11112760537265563
0.08516536180970527 -0.1461106957639804 0.11128396418548285
0.08308253428114518 -0.14434982988445164 0.11084999905386644
0.08370877827406703 -0.14492106227100576 0.11098255880338756
0.08429290466821583 -0.145472892827895 0.11108308306059712
0.0824592827585696 -0.1436144641223207 0.1107622466829118
0.08300304455687552 -0.14361840602761758 0.1111816110289325
0.08356796944886914 -0.14408764197580295 0.11134020207660589
0.08205190447204808 -0.1427694776253039 0.11084851026503871
0.08262372970066445 -0.1428066210144062 0.11126843118339672
0.08331872859898036 -0.1432212576155768 0.11158261818871851
0.08195987416079341 -0.14190053899050684 0.11118159425954692
0.08256188370794115 -0.1420386093665926 0.11156660249307718
0.08301418197329122 -0.14248895125421634 0.11168997762090778
0.08149055485595497 -0.14072930888109259 0.11133057635380492
0.08227856418225189 -0.14123925485413436 0.11171116694444524
0.0808209292332853 -0.13988863456422834 0.11115608620718107
0.08132097075039327 -0.1396664235264808 0.11166536197448212
0.08196812998026606 -0.14023079408817907 0.11193061922454395
0.08073072583307007 -0.13882362990949063 0.11152317804652613
0.08127897990726653 -0.13895104206053968 0.11194252621911434
0.0816960406188171 -0.13941818971197467 0.11207887894001464
0.08043680296454511 -0.13771228690791212 0.11170363543018365
0.08104404212973386 -0.13817948447661113 0.1120851025367658
0.08022212846577438 -0.13668858707010123 0.11185056768014606
0.08080112698720172 -0.1371949699910263 0.11225499624342021
0.08002578882409975 -0.13569009747715433 0.11199554654313106
0.08056689385170368 -0.13620744082082115 0.11239381431215807
0.07987510690876583 -0.13470441390969715 0.11212058652193652
0.08039634163165672 -0.13524421778030257 0.11253473685943127
0.07973898132527897 -0.13370557816623665 0.1122468489955377
0.0802701214440848 -0.13425220311729005 0.1126658397782053
0.07961104766195452 -0.1327022569769534 0.11237152796452525
0.0801406071190997 -0.13324027536327004 0.11278693904947855
0.0794744477409917 -0.1316853925682771 0.11250227291808766
0.08000353505249731 -0.13222054600093558 0.11290834067067192
0.07933805415898797 -0.13066119664211223 0.11263418525180409
0.07986669384446929 -0.1311963538331349 0.11303611964586759
0.07918749385074607 -0.12962535787770468 0.11276031202231566
0.07972770815656825 -0.1301626851220119 0.11316104297657081
0.0790054153456701 -0.12858531868761153 0.11286637561691887
0.07957163269169755 -0.12911364645214352 0.11328414890905755
0.07880170321081394 -0.1275666526945983 0.11290528746535415
0.07938479630708557 -0.12805076042539795 0.11338364351440221
0.07860405805598542 -0.12673648567829798 0.11287286539362032
0.07916409709470594 -0.12690472632500513 0.11341129604908319
0.07919277902782784 -0.12592952736817395 0.113613914171792
0.07938700325324415 -0.1251989898772948 0.11394590415416572
0.07901090696949252 -0.12439790439473553 0.11354458189175312
0.0793670131126519 -0.12421252438744207 0.11413891766301325
0.07924233568255427 -0.12328930950434427 0.11434455030600031
0.07904539420108257 -0.12237423436110532 0.11464302985881013
0.07875526061123694 -0.12145456413948287 0.11499417058736469
0.07833931162631709 -0.12050292079012785 0.11535446669715683
0.07790079578665071 -0.11953880624414662 0.11572426170193903
0.07772105745879818 -0.11895002030923756 0.11609225036303779
0.09709343152730283 -0.17451303568668405 0.11332833370346726
0.09714186840937965 -0.17469854483679717 0.11373449747116135
0.09709507950095503 -0.17416699057108795 0.11343201044734819
0.09717141293343132 -0.17429948044697094 0.11386812756604076
0.09700746263930658 -0.1726176437961791 0.11243400491243696
0.09703602369154926 -0.17315927192542352 0.11303502626944413
0.09712119601682584 -0.17373469397091498 0.11360987363470815
0.09708411897971765 -0.17221154890863402 0.11244352767053822
0.0971270734891997 -0.17245396099291116 0.1130056179984687
0.09736758998928748 -0.17056634923248026 0.11110782178359058
0.09731089072210479 -0.17114907325913503 0.11186359128458984
0.09719848162233113 -0.17178843780576117 0.11258900179481708
0.09739567256505137 -0.1697017347885137 0.11095471840870681
0.09752726792486797 -0.1703171591766421 0.11181806001553918
0.0971961677565712 -0.16898074806411095 0.11048778660602225
0.09746927188756575 -0.1688598275225555 0.11106023580822774
0.09765995460859783 -0.16940017198237178 0.11170254000528478
0.09719132565390501 -0.1680858067436738 0.11061348090002451
0.09754510985436075 -0.1682726268315034 0.11122284172672436
0.09770225531785218 -0.1686902425112837 0.1115841713197885
0.09694963115554504 -0.1673208677877156 0.11024518261093166
0.09720823173988856 -0.16729184387639354 0.11073894940274633
0.09745026302765754 -0.16765659603973126 0.11119428191819314
0.0970495841360888 -0.16685102295421975 0.11044286701187088
0.09723842720947967 -0.16678013290970242 0.11083331404780476
0.09737789806395322 -0.16706025021289794 0.11115547092313147
0.09634557184207414 -0.16522899330706875 0.10991591212254125
0.0966958696944965 -0.1657262751148493 0.11027136268567182
0.09704631794292931 -0.16630323420144064 0.11060162985053135
0.09616851804405446 -0.16443455806463608 0.1100328324070317
0.09661291663250507 -0.16496795329481379 0.11054753481526498
0.09577340135579115 -0.16376252575112374 0.10968338080820055
0.0960700203819375 -0.16358762135952137 0.11042985608259787
0.09651605652361755 -0.16409634459947423 0.11100787896199796
0.09569622672436044 -0.1629376513772673 0.11018243858995166
0.09596121528403664 -0.1630328091461348 0.11076521787404411
0.09619929451869193 -0.16337921488403204 0.11101096582982305
0.09552724295121516 -0.16239186920656518 0.11039275192502464
0.09574069131153963 -0.1624506654353982 0.11095155489075896
0.0948850037692289 -0.16103753981492114 0.1099214111910602
0.09514283165627659 -0.16148029786359624 0.11027413047640788
0.09540059825237651 -0.16192863599877172 0.1106241835522775
0.09480872928217095 -0.1605673377418288 0.11020948407481727
0.0950198605514372 -0.1606871135846283 0.11077743516018819
0.09412562769365267 -0.15929687122352326 0.10981683590162483
0.09441059678180595 -0.15968033130399162 0.11012459268473246
0.0947132195970965 -0.16009010166947146 0.11049967445514966
0.09406892161110765 -0.15886394041629506 0.11010082814600355
0.094272286128392 -0.15898571174354512 0.11045597363610765
0.0933151227727618 -0.1573984385713414 0.1098326090650884
0.09368461014647914 -0.15791681906528207 0.11015597559600121
0.09403379337388494 -0.1584261994011449 0.11044065688966465
0.09313825882168203 -0.15652939671026664 0.11021353098341985
0.09355145950429634 -0.1570633176575319 0.11062324243128444
0.09288787265819481 -0.15555871970671625 0.11056904779372385
0.09335245533991754 -0.15615571672753167 0.11103123825724867
0.09249154156081954 -0.15486204426909056 0.1104378587170908
0.09272784067644678 -0.15476947324173823 0.11100771873410802
0.0931822883406738 -0.1551682800708965 0.11151052714526452
0.09242275755964771 -0.15436105362156483 0.11080349761417427
0.09256500566906295 -0.1542253995921814 0.11121728923904989
0.09283803073038124 -0.1544436134484638 0.11150397037549845
0.09147436970204793 -0.15292257205855483 0.11060691752417959
0.09187462676008917 -0.15335159298802953 0.11080792107383027
0.09227358268578242 -0.15381415104744015 0.11105282530180657
0.09137708749253054 -0.152518937600619 0.11081937621116258
0.09167183081564355 -0.15267332001723685 0.11112048244854962
0.09007851581672933 -0.15097299631624175 0.11076427002453929
0.0907667636793354 -0.15152612184153413 0.11103163073098875
0.09130724614015516 -0.15209222967871186 0.11118207027547183
0.08937138866715601 -0.15034100357521418 0.11068932500602013
0.08981505610892487 -0.15013132027234852 0.1113974038156555
0.09050104756577163 -0.1505319681800034 0.11176907381475355
0.08883845253112875 -0.1497801896828388 0.11081348325477883
0.08920791478183941 -0.1496363038926968 0.11132587766563501
0.08961992197578787 -0.14944024064816908 0.11192493443404689
0.0900509093081397 -0.14986661465718895 0.1119251727673796
0.0874698733086707 -0.1487536913334515 0.1107801073715139
0.08785053891779826 -0.14888328491647043 0.11096387866823887
0.08851994630024952 -0.1491002423109321 0.11130728878338987
0.08905144929253472 -0.14905578810609377 0.11181166212084033
0.08628617827540873 -0.14744685239150146 0.11105763616763434
0.08684745997098246 -0.14790127184978646 0.11111152885822807
0.08739727441920297 -0.14835202630003924 0.11112878055354072
0.08619963570479969 -0.14700305445803383 0.11139281430968842
0.08662728422485992 -0.14720200768695244 0.11156380021931081
0.08487625309599836 -0.14539500129772626 0.11155260159418093
0.08557489871787605 -0.14595705341729034 0.11169136929583678
0.08619478259460232 -0.14656246969281286 0.11173604881414523
0.08421494079382537 -0.14469106530431972 0.11148161377346645
0.08474085158501064 -0.14451190336126404 0.11194582961848268
0.0853879691441466 -0.14509495998630464 0.11209426357035057
0.08407910631684015 -0.1437209080203996 0.1118680822396492
0.08469652181837356 -0.14384363068733524 0.11224054559606675
0.0851645251952355 -0.14432506488679323 0.11233647190025028
0.0836045325979121 -0.14259404630386793 0.11205363249492115
0.08437160734148383 -0.1431012578768827 0.11235211382251649
0.08293911688889953 -0.14179615597448092 0.1119447688728516
0.08343376643252491 -0.14164676249539368 0.11235683375716966
0.08406820677712866 -0.14220242908221067 0.11254161323085148
0.08277624593661764 -0.1408038918960134 0.11226497604973502
0.08339640683606704 -0.14099517927791907 0.11261583961289032
0.08383653486703956 -0.14148328250633413 0.11270559565211716
0.08230433621491677 -0.13955733714736346 0.112500365977982
0.08312283582115278 -0.1402022887129882 0.11280689924943307
0.08163634601538819 -0.13871160069472596 0.11235799297820062
0.08208000302862516 -0.13850030092263513 0.11285801332598856
0.08286766015827275 -0.13907843997443256 0.11319850182109235
0.08146036420678196 -0.1377169726500537 0.11267726386948694
0.08194245287220185 -0.1377981210975861 0.11311507875094863
0.08235290680641232 -0.1382088590671999 0.1132686658921198
0.08112080321141074 -0.1366777459906836 0.11279149919814133
0.08170642852790101 -0.13702052778679885 0.11324786092770502
0.08091140269975199 -0.13576451170693254 0.11292919374615222
0.08135840059297114 -0.13622019078224143 0.11324127608440406
0.08080699789143814 -0.13481918191681888 0.11310693546000684
0.08131552561335656 -0.13545876155313383 0.1134811189612539
0.08068748406406229 -0.13378931579546743 0.1132464826146893
0.08131534929537435 -0.13441016712998907 0.11378365742061852
0.08053568969397776 -0.13274805268596188 0.11334311458727427
0.08107868475259293 -0.13325409388844237 0.113815457438903
0.08038803371559168 -0.13172701825524522 0.11345129850602884
0.08090550681969824 -0.132231998853384 0.11389442425096456
0.0802480793618482 -0.1307013983325339 0.11357660419316941
0.08075779688514148 -0.13122538716538026 0.11399776185855409
0.08011165687794453 -0.12966026657799307 0.11370436863366946
0.0806272553229043 -0.13019698173246214 0.11412177846362574
0.07995174511764262 -0.1286051351376405 0.11383838369690118
0.0804902333325373 -0.12915429620170124 0.11426239089038172
0.07978302103210626 -0.12754907919072034 0.11394384791801263
0.08033172893924562 -0.1281130388808802 0.1144126170567793
0.07962761993289069 -0.1265487327910364 0.11403775870573316
0.08016228228089106 -0.12705696748691614 0.11454086598450526
0.0795295294877044 -0.12591378445221213 0.11405498481218221
0.07991517274661628 -0.12594226116694834 0.11454517983876658
0.07982511438864368 -0.12489217674240709 0.11464246236873316
0.07972172290300299 -0.12397149469334107 0.11480495769983705
0.08010350717264617 -0.12454264086807272 0.11521473599962115
0.07957410715755801 -0.12306099691677747 0.1150510271392695
0.0800656569125975 -0.123761653538095 0.11547266342285864
0.07929116070069009 -0.12210250983327828 0.11539545803937118
0.07985982676941815 -0.12277336207183939 0.1157769519395067
0.07891801117677344 -0.12112942622376263 0.11577552930854529
0.07951123729390457 -0.12176844097448583 0.11615845833393297
0.07850107793971474 -0.12011878007695237 0.11616020814343196
0.07912510495909163 -0.12075136356617028 0.11654601964017121
0.07812696428656371 -0.11922049123725427 0.11652279384553028
0.07873299254812542 -0.11972246449787817 0.11692871815147045
0.07796569672189703 -0.11881375312952532 0.11668379360522775
0.07847285389119218 -0.11897363506735681 0.1172062601255887
0.09722464035050069 -0.1743990090251415 0.11417105379422464
0.09735516918077565 -0.17361601505881485 0.11443146830448318
0.09758093498879528 -0.1734610765628303 0.11500201482383103
0.09720384992204878 -0.17296354117256743 0.11378105915941061
0.09744372108612472 -0.17269906163653445 0.11456074163752128
0.09766058458056835 -0.17295560438254506 0.11524617918684121
0.09739088681699967 -0.17192398000879586 0.11367949452850921
0.0975637072878022 -0.17207145743342409 0.11463482073797432
0.09763867408122034 -0.17240759280740084 0.11513928427695447
0.09744120679199902 -0.171022557687032 0.11274471140698518
0.09763317625771156 -0.17092588805326175 0.11363162955439668
0.0976312808015614 -0.17142198459762292 0.11445671560216497
0.09775557614254753 -0.17000518928606687 0.11283772638109568
0.09780327108605848 -0.17035351312408598 0.11375853106244545
0.09774963130622677 -0.17077022312418927 0.1142979782097351
0.09790112996319476 -0.168844534204516 0.11232668887067761
0.09788365372133959 -0.1698505564623728 0.11366118720675962
0.09798295147117864 -0.16923204785039456 0.11328584339048994
0.09803056037205059 -0.1694669389820347 0.11400521773980692
0.09777667888002857 -0.16804307687411568 0.1117746798281794
0.09802895124301184 -0.16807788887057076 0.11238954426349551
0.0981952301775109 -0.1684014681113996 0.11299793240919741
0.09828432892771846 -0.1687752325527849 0.11387334749449904
0.09766262713323769 -0.1671500100310702 0.11168116783249309
0.09798794877965146 -0.16752686081582363 0.1121708976726867
0.09831381849018284 -0.16754911293302446 0.11280198878820345
0.09855438051467831 -0.16792709901050176 0.11362099612968135
0.09740109002630443 -0.16638385774084008 0.11132415426750977
0.09767465549514923 -0.16655427966316594 0.11185064344625761
0.09805513817257497 -0.1667622384603623 0.11235446606411079
0.09849426486729981 -0.16689753351462822 0.1129752417550731
0.09869237732288953 -0.16724262385013206 0.11339027777721991
0.0970690458791058 -0.16556871615372995 0.11099983119432076
0.09737092826463042 -0.1657433960223176 0.11152147372458349
0.09764094368086172 -0.16593633169522518 0.11206130972735308
0.09808491696309239 -0.16608499273376112 0.11261856660469795
0.0983906040465482 -0.16639548463637907 0.11292934680311231
0.0968958083280789 -0.1648220784076928 0.1111499485643648
0.09726268211432587 -0.16510755851147543 0.1117528712162809
0.09754863099697274 -0.16524842574419754 0.11239073385113184
0.09787217937349867 -0.16557493655215413 0.11265087994225659
0.09692202019255672 -0.16446230564117217 0.11155844978106452
0.09711482529496328 -0.16444427204387216 0.11204936251591799
0.09736650377737713 -0.16474420041572096 0.11239259960090599
0.09606069280713536 -0.1629048207503661 0.11125991047698884
0.09637153164121551 -0.16336184570293347 0.11155890795629267
0.0967782641615513 -0.16392872857658947 0.11187010905417473
0.09596145127913668 -0.16255874038802054 0.11141548105273182
0.09616388986726544 -0.16273867667304415 0.11177621835984275
0.09527587031860785 -0.16126997902202111 0.11099229548318723
0.09556859873086061 -0.16172843966347433 0.11131062282758274
0.09589737113372156 -0.1622075446358844 0.11164323236623926
0.09524417283611324 -0.16084110688236822 0.11127086602095801
0.09544607878812736 -0.16104765378336325 0.11163765249952433
0.09455840391903618 -0.15932378915428547 0.11092046077542263
0.09489861791005773 -0.15986586211932902 0.11130374281894477
0.09523864296240322 -0.16043696376512223 0.11162133792887768
0.0943559142916874 -0.1583940287648005 0.11126623291001683
0.09478279139724467 -0.15899730751400037 0.11180479993860903
0.09394018574721298 -0.15766481965978846 0.11097095631826312
0.09421693158165374 -0.15746050576217116 0.1117731762932942
0.09465790463604967 -0.15797221106281745 0.11241434207664001
0.09381941867767617 -0.15674710239022976 0.11149819614876022
0.09416125601399777 -0.15682065485470056 0.11209243826923702
0.09441471796299261 -0.15716782539401575 0.1123761882003407
0.093602761623671 -0.1558601342610221 0.11174250639933439
0.09397419173056022 -0.15621353870655286 0.11219087063468881
0.0935231620504078 -0.15535633929858012 0.11194096876701984
0.09377850849592602 -0.15551176008645207 0.11231572204887125
0.09260530712362877 -0.1537328942451658 0.11173756416837138
0.09309946433370603 -0.1543157822889195 0.11207631020256924
0.09349336257433649 -0.15491584726250732 0.11225954610180605
0.09211176794297787 -0.15308342554367418 0.11147469695256787
0.09235649113103263 -0.15287091176297826 0.11222335114803708
0.09294108759116047 -0.1534153587161196 0.11272842551135516
0.09178167610275188 -0.1521228664324231 0.1119768000559812
0.09217839395467961 -0.1522621273601543 0.11261464590569771
0.0925295330459404 -0.15265001561650277 0.11280795036855974
0.09115352710942054 -0.15135582173224987 0.11178469830793328
0.09148450064758248 -0.15118505651092745 0.11249862111857346
0.09194979434703901 -0.15155625371165032 0.11296253435600913
0.09104483023796404 -0.15071348856483735 0.11231382929084618
0.09126473101831702 -0.15049932310825467 0.11295007110525075
0.09159754747852639 -0.15093907481318608 0.1130413692314404
0.08996278974883891 -0.1495353935003359 0.1121736939081933
0.09023658131304134 -0.1497133416836614 0.11234212775904455
0.09072261016112353 -0.15005442383717954 0.1126238515659813
0.08791231365162863 -0.1483156542574231 0.11159113686802372
0.08857984393018986 -0.14837804810051186 0.11209797013526625
0.08926697023743159 -0.14874888944892062 0.11233735040053155
0.08983072291128458 -0.1491531248537307 0.11247364730729985
0.08726795826556771 -0.14765825239026098 0.11167857958789806
0.08786658105862745 -0.14754670034980152 0.11226718271549671
0.08844516793017222 -0.14775702654366932 0.11259489400077902
0.08890523795043587 -0.14814359565810048 0.11263764664738504
0.08696881204483987 -0.14665336174825272 0.11225712367253092
0.0876846268846668 -0.1468397508533563 0.11270282857818517
0.08815916489873253 -0.14724918254411212 0.11277939280253282
0.08610961090844635 -0.14574393735544694 0.11222944294067534
0.08664701866236062 -0.1455645933652932 0.11275409903102193
0.08734449018133374 -0.1461219116181425 0.11295318893567749
0.08587410931971289 -0.14462327823309445 0.11269318964967648
0.08655534296068906 -0.14488452098673762 0.11308411758336573
0.08702942082779207 -0.1453873147798937 0.11317998147727688
0.08510402259388132 -0.14356623756893747 0.112652555822606
0.08568913868302083 -0.14365943005386544 0.11303686255985303
0.08628125858217973 -0.14414498218251284 0.11325869239043314
0.08466213005651489 -0.14267027581505684 0.11273899093992666
0.08523272107879494 -0.14275276724695435 0.11311862166724498
0.08593608158492276 -0.14323167059866695 0.11344119925366583
0.08447772800625868 -0.14173590887935117 0.11304590372397187
0.0851262301622846 -0.1419911602244782 0.11340447991448681
0.08558997268192776 -0.14246465753884743 0.11352926295136058
0.08378467318668237 -0.14084870226231377 0.11297043954841932
0.08424586446727239 -0.14074335618093478 0.11336335942710873
0.08485443818766626 -0.14125389358499935 0.1135581947126537
0.08362354978347196 -0.13997349613020454 0.11330646507589219
0.08414929679714603 -0.1401316213820532 0.11361573748828711
0.08458668618916491 -0.14054912046309714 0.11371196310764677
0.0834157366088694 -0.13933433822764513 0.11348462064888805
0.08384207297999652 -0.13949747691183362 0.11372651798081881
0.08222295515545579 -0.13757534139260258 0.11348645273298406
0.08274892353337632 -0.13814645514273488 0.11362879862089462
0.0833529805412823 -0.13880033447057463 0.1137336943746696
0.08211521723624926 -0.1369647273513705 0.11368834299159333
0.0825760740294071 -0.13734997118829814 0.11391201571382963
0.08232190395332491 -0.13667900869236926 0.11402623926002521
0.08181980535598564 -0.1362388078419465 0.11372539586626353
0.08179440363397389 -0.13534895908931624 0.11405076820444424
0.08198411185692622 -0.1345711195703306 0.1144727028277102
0.08161521305488044 -0.13364603534879307 0.11431450391855434
0.0820533126310669 -0.13382834048604236 0.11473988871093854
0.08142276742892278 -0.13269022265099312 0.11433145727993511
0.0819160057245407 -0.13309232071578175 0.11475357518583507
0.08126298818463515 -0.1317194103723536 0.11442517793952237
0.08177778211935652 -0.13218195325973828 0.11482897201827438
0.08112942638727265 -0.13072232187487662 0.11453425823933153
0.08163414392476544 -0.13121236891175572 0.1149463456713055
0.0810000242930594 -0.12969774490055921 0.11467006003077237
0.08149497410563722 -0.13022289889256966 0.11507536829208626
0.08085638363870387 -0.12867170719118326 0.11483031005366266
0.08136059302403478 -0.12921764083845008 0.11522623284827674
0.08069255833025307 -0.12765319631500582 0.11501304208169441
0.08119355615649668 -0.12823350007500844 0.11540965261457341
0.08055337985478116 -0.12652808697921042 0.1152433295726678
0.08104264616717033 -0.1273092001342006 0.11558734038389853
0.08029942637671136 -0.1253906310869888 0.11523537034282508
0.08099986100233708 -0.12658644975504119 0.11580145935890677
0.08079602799594017 -0.12578131199398918 0.11582752372320117
0.08126662803709873 -0.12626270712777288 0.11628114646187306
0.08055311468176023 -0.12463221389796794 0.11587192455141013
0.08112180400107788 -0.12526934970483458 0.11644819376869539
0.08041002572104851 -0.12346536880906032 0.11619406447189111
0.08100888309284669 -0.12411287586461431 0.11672052837588624
0.08012540257313226 -0.12240758570872474 0.11651006155838632
0.08070124510672022 -0.12299938407591461 0.11691781840586503
0.07976262088955756 -0.12136683475135107 0.11689262196712695
0.08040266049041435 -0.1219624634898396 0.11722012894909764
0.07937356903203473 -0.12031123973333668 0.1173001900009694
0.0800174830911114 -0.12088986107240474 0.11764541445874212
0.07906727307973276 -0.11931833592679411 0.11764713348665211
0.07967512867687021 -0.11983476278382044 0.11803785406376129
0.07899370159953041 -0.1186928289092363 0.11794086794904533
0.07944089165482023 -0.11891055328228804 0.11829455746601474
0.07933182944882457 -0.11849910563039338 0.11840108262555941
0.097723343751361 -0.17180284400002394 0.1152000050971711
0.09781446098330399 -0.17227892227886676 0.11568994677630634
0.09785479507319264 -0.17255071975285902 0.1158775202698157
0.09783718995910635 -0.1709369205538472 0.11511009547327941
0.09796604541998646 -0.1714906618510017 0.11583042493301984
0.09793846295836273 -0.17013870490955058 0.11440961671078376
0.09810844942279956 -0.170161488920796 0.11521441932865432
0.09819217214974069 -0.170600335979811 0.11586560629694483
0.09831630247437537 -0.169343315646902 0.11475607390580887
0.09846842615870309 -0.1697223349120132 0.11570684504831039
0.09875183788072321 -0.16829426099656314 0.11461838805763061
0.09875169845787769 -0.16886853096063728 0.11547426292274145
0.09896722294127783 -0.16729378403379122 0.11423378662111763
0.09904883072670921 -0.16822296227134595 0.11538925514617344
0.09917534451223733 -0.16763297691785997 0.11512735241278706
0.09927677401895978 -0.16787672846012744 0.11571364451710635
0.09881752924958137 -0.16651104564457378 0.1136066076536149
0.09916101130186893 -0.16657859290090893 0.114408827969302
0.09935071747862136 -0.16687033853340222 0.11502641964749849
0.09944235713489034 -0.16726068044494216 0.11570375112502534
0.09837275811347948 -0.16572612499446054 0.11324816590732201
0.09886125213843859 -0.16586082946450045 0.11387344647449232
0.0991023122708515 -0.16610801702088362 0.11425236668355444
0.09936445426672505 -0.16608382019423612 0.11496096195453682
0.09954327417714025 -0.16641077640140425 0.11565262044611412
0.09775174603031192 -0.16487845941352713 0.11301010027553636
0.09830096138525915 -0.16504200042695882 0.11362017656449347
0.09867605583820732 -0.16539724376215 0.11389520674750547
0.09908190345004275 -0.16547373599335338 0.11453490010052424
0.09936736924694253 -0.16551162229248775 0.11519498975242944
0.09953621395153947 -0.1657452014046694 0.11553211269193576
0.09718514706868717 -0.16403619113125636 0.11267135082631624
0.09752878963753592 -0.16420859648785946 0.11325892249388617
0.09794867358843823 -0.16433237411980353 0.11375859804362777
0.09860146699000681 -0.16482163995505483 0.114293205259213
0.0989642955110332 -0.16490194217753426 0.11485277323099861
0.09920476961709375 -0.16512607884255626 0.11513721478556013
0.09661036754240634 -0.16318108229438946 0.1123323719919048
0.09697413120632783 -0.16333832801258238 0.11290711451321846
0.09732162360618057 -0.16354353232817007 0.11351554092826362
0.09779253874675649 -0.16369064226766386 0.1141614755286172
0.09825314092147709 -0.16408114873218552 0.11453514194115509
0.0986801219226455 -0.1644767554641076 0.11488301731059654
0.09619539074925405 -0.1623008674894076 0.11233678192765427
0.09671703499808396 -0.16260567986947905 0.11316867707420221
0.09710186316092485 -0.16282516578980757 0.11386755583298627
0.09746482230289459 -0.16317371479642842 0.11417490142315359
0.09579210803477169 -0.16155537488376753 0.11207160219436307
0.09614977790250223 -0.16156051367859134 0.11293948733621592
0.09653318759849391 -0.16186501406134485 0.11356583533442965
0.09683403584334603 -0.16228402170218353 0.11389139032670942
0.09559603273829057 -0.16058557980939536 0.11253838494592466
0.09598011856579472 -0.16082074556628148 0.11333396545250057
0.09629016878414111 -0.16128923585820354 0.11363397911798158
0.09516036543896368 -0.15969984741619261 0.11216707087385318
0.09537370937184786 -0.1595791883992834 0.11299472203484452
0.09573355276688217 -0.1600854145629053 0.1134658390223303
0.09503735273239206 -0.1588201413707204 0.112756310854836
0.09531483400960158 -0.1589659750551973 0.11336766476234254
0.09554339599662082 -0.1593727466504317 0.11361016558198277
0.09491634317497304 -0.1582143768322807 0.1129847173483087
0.09515065500511974 -0.15836012123080545 0.11341636698673556
0.09432285900809384 -0.1565509271868173 0.11263223463965255
0.09463272146051326 -0.15708038922269993 0.1129805713422816
0.09490545799963193 -0.15770404256180112 0.11328432706034759
0.09412218903975092 -0.15581664901071685 0.11282275409933129
0.09451371159751054 -0.15626442016582448 0.11330616811553214
0.09384869429191735 -0.1549597874080572 0.11298001575913866
0.09428713634085603 -0.15541725101476406 0.11352556930811934
0.09342129620729196 -0.15425853762724734 0.11277977075776324
0.09369331271965542 -0.1542230775624614 0.11338914316220741
0.0940523847165384 -0.15462120873148397 0.11376588040449369
0.09336705137592098 -0.15376247277068658 0.11323890302459899
0.09356702916226033 -0.1537159828175653 0.11368087819198144
0.09383382916662227 -0.1540182718149207 0.11391686427230334
0.09237524977468842 -0.15211450412315672 0.11311626171414223
0.09277723666261639 -0.15261572166286685 0.11338297853258122
0.09322268760829906 -0.15321339097440645 0.11361838856591942
0.09226427381134972 -0.1517181355854347 0.11334506769666164
0.09251481744664906 -0.15193112139712675 0.11370305915321754
0.09150627681913961 -0.15064592427684056 0.11327428963443066
0.09174493999355905 -0.15087698931253557 0.11346651425471563
0.09215201623549962 -0.15132815207484887 0.11367473771990912
0.09027832036646895 -0.14917558201890546 0.11301198535887026
0.09094868714656136 -0.1497487543035644 0.1133208535479715
0.0914257431772479 -0.15030928127289458 0.1135530743810324
0.08950163168142046 -0.14835803997703959 0.11297051386236918
0.09003412040618161 -0.14830661885940505 0.1135464316574106
0.09066520261731982 -0.14890824102470226 0.11372979267299635
0.08872595308876663 -0.14747227353680206 0.11306669028179112
0.08938603136776876 -0.14751305661423492 0.11359914037167135
0.08991668701024427 -0.14772927092834143 0.11392303469391679
0.09035861515853917 -0.14816951229379968 0.11401563537138283
0.08804633207556403 -0.14665328505794772 0.1131358771302816
0.08860741810466745 -0.14662953495671857 0.11362913541466246
0.08916819411137213 -0.14686120052809357 0.11394361668637455
0.08960752263596206 -0.14722457248704207 0.11404490568260192
0.08771218286040028 -0.14565385849984552 0.11355604848828993
0.08835384964323915 -0.1459145630795387 0.11394745159464209
0.08882101236255363 -0.14635119135098035 0.11405126354433469
0.08693781886449058 -0.14473683607222076 0.11346741360865012
0.08737319737436093 -0.14462226496039782 0.11390115206498877
0.08801823603088231 -0.1451826418128264 0.11411831758223083
0.08668647054951757 -0.143778369944559 0.1137818117728973
0.08722835999246784 -0.14396691875254108 0.11416528180948582
0.0876908847076141 -0.14445688512321297 0.11428519886462753
0.08615736241999077 -0.14260490023297354 0.113926757265565
0.08690635089297293 -0.14319391588603822 0.11429025488514179
0.08547653648302907 -0.14177414788709675 0.11378552828196706
0.08590662563081529 -0.14160976794031388 0.11422652839289876
0.08655115752948989 -0.142206028897829 0.11448512214411054
0.08519451895842627 -0.14073813604309457 0.11409285093225784
0.08580588772842965 -0.14094648191851356 0.11448960080872476
0.08624142769830248 -0.14142462810536258 0.11461584129691546
0.08445419149636448 -0.1399025337820701 0.11397062486708566
0.08486970520868653 -0.13968316362572497 0.11441590013995465
0.08553013064775669 -0.14021399336416138 0.11465344976045508
0.08405838305525111 -0.13883952033067215 0.11427078400467314
0.08473952983277688 -0.13896924644087993 0.11470750981776656
0.08524251033921862 -0.13945069207359673 0.11482800666932658
0.08320720737299683 -0.137945281604941 0.11411306429421776
0.08367534802682051 -0.13772597218021468 0.11461707735019733
0.08436934728857691 -0.13822114321321652 0.11486384883937262
0.08292841145084322 -0.13685029444568553 0.11446273057606866
0.08357439715178307 -0.1370053099932538 0.11490365712807246
0.08403737795531792 -0.13747023363421834 0.11502384911773958
0.08226535672044027 -0.1360518421942422 0.1142695813481707
0.08268237965310848 -0.13584375844185992 0.1147334920099873
0.08327871646629419 -0.13624483516024652 0.11502852887614487
0.08222672927150915 -0.13537744734318075 0.11449950530844695
0.08254315363551365 -0.13505668781487787 0.11488575608901323
0.08299718690300233 -0.13549482659340384 0.11512647692882341
0.08245339210450163 -0.1342815375246336 0.11501104120815414
0.08237934779722703 -0.1335047440424189 0.11512623739936029
0.08280811442740066 -0.13394413905775912 0.11540780541368116
0.08228489044445801 -0.13264754307076893 0.11522196622930474
0.08281187279019746 -0.1331704280453402 0.11559346523470987
0.08215381610109523 -0.1316870990799476 0.11533478153948272
0.08269761143851238 -0.13217313200658654 0.1157255454707289
0.0820037722980603 -0.13070861133022454 0.11546896271994819
0.08252840913511458 -0.13116204359044709 0.11584845982857273
0.08186373085956396 -0.12973304502769903 0.11561454644745894
0.08235486805476867 -0.13019929607336841 0.1159901703751428
0.0817045210336799 -0.1287408292648886 0.11579861684145706
0.08222467737568673 -0.12924264695040974 0.11617487009625092
0.08150934098393879 -0.12777471066347915 0.11597641163002703
0.08204788053798669 -0.12820818239747672 0.11640754645722909
0.08132747920023685 -0.1270116937919968 0.1160392868878557
0.08178410764249394 -0.1270278841020876 0.11657761857373991
0.08164209136935943 -0.12585229685370644 0.11689673612835155
0.08150557674174587 -0.12484396779864029 0.117082524051991
0.08143577023876508 -0.1240824901879067 0.1172935689808364
0.0812098574558765 -0.12338916023713627 0.11736108123818975
0.08159392304485391 -0.1236733163943732 0.11770732105457561
0.08097611637372924 -0.12246846016964942 0.11760777522826872
0.0814812284735602 -0.12291556302884879 0.11800350931397598
0.08065938642494314 -0.12141785134764355 0.11798468749228387
0.08124220674737372 -0.12189177384365309 0.11839029430882739
0.0803160582603837 -0.12034680518272582 0.11839505258782182
0.08096293110575851 -0.12081531476214746 0.11875066058012806
0.08008867200338995 -0.11927690007638345 0.11872731575666079
0.0806956802787793 -0.11981383981670635 0.11903773021078494
0.07975637900184426 -0.1186559126201496 0.11871345255296514
0.08056168072867202 -0.11911754555429922 0.11920450985664956
0.08028830208108269 -0.1187901049086045 0.11908113034690467
0.08066992184673681 -0.11891138461864746 0.1193460285792224
0.09798904268589861 -0.17195097922134428 0.11613417687313932
0.09829990947425986 -0.1710061657368587 0.11637308696277127
0.09861631004821987 -0.17010318065930538 0.11645775136358158
0.09862358301116221 -0.170452516934772 0.11675439508405078
0.09887455847824504 -0.16922073867728438 0.11616749818397952
0.09878681921193974 -0.17004115560409852 0.11680135267964774
0.0989275681103433 -0.16951515957954072 0.11659690077204829
0.0991368269376926 -0.1684535059743404 0.11593132792416588
0.09916251595815206 -0.16873908345723376 0.11633497163075722
0.09940481828656525 -0.1678557343262609 0.11608050274190533
0.0995650730409638 -0.1671131234504371 0.11600409707771922
0.09941651932688414 -0.1652640001188983 0.11551833023525676
0.09959669169801388 -0.16570681461372078 0.11577680220405048
0.09900083755002655 -0.16467653475141789 0.11522246370353047
0.09787728884016772 -0.1632452946582302 0.11479800092926519
0.0984256622400371 -0.16387361665535594 0.11511011619291489
0.0972392831337729 -0.16248068170277763 0.11449662260484765
0.09759184319773356 -0.1624342242867143 0.11530290361800848
0.09800367115314926 -0.16290079382342687 0.11554493786896064
0.09664184232826747 -0.1616147718372199 0.1142677936092481
0.09707262213195567 -0.16172073783591306 0.11511901125934468
0.09739822725365992 -0.16191406213198717 0.11563503680818749
0.09772424960400358 -0.16228296495883543 0.11580670556770088
0.09796712923497548 -0.16257235166710968 0.11589846754383681
0.09614507474504731 -0.16063224205959648 0.11413469036023498
0.09656625759101488 -0.16094017401053803 0.11492907387845192
0.0968523686168876 -0.16110806067089004 0.11546375932779995
0.09711409961014034 -0.16147360200498678 0.11567896679287298
0.0958128106200558 -0.15955362882527196 0.1142606437284276
0.09619638366800556 -0.160055485123811 0.11495911297567747
0.09657447275532496 -0.1604406407891496 0.11551813773518534
0.09549261143944242 -0.15873374983069055 0.11402120684724404
0.09571067619385852 -0.15890878627671484 0.11457535594174509
0.09593808159038926 -0.15909443438183438 0.1151041353013095
0.09630318665213507 -0.15958905366520465 0.11560113691334487
0.09526379110774143 -0.15773442669740956 0.11409371167020474
0.09561156274982249 -0.15825988575987973 0.1148798331862326
0.09587542216464734 -0.15842129142454708 0.1155114691018333
0.09611372384613728 -0.158872266328743 0.11571122619369656
0.09492325154101287 -0.1568621697546311 0.11383850601577353
0.0952025138731779 -0.1570429962598128 0.11442110398223312
0.09540982775300959 -0.15722212640711622 0.11503093567071881
0.09571980220782991 -0.15767920982344052 0.11560952761880428
0.09469882277531058 -0.1558829459588631 0.11411651750021715
0.09507828938365526 -0.15639482785425127 0.11481203690825224
0.09535915668435488 -0.15653127342723314 0.11551045034704509
0.09559948248302204 -0.15694458306545295 0.11574573143058195
0.09442223553295312 -0.15498391575656628 0.11435431880743165
0.09478001460984344 -0.155405286030812 0.11502354640186406
0.09513411130553784 -0.1557917157785816 0.11564331292531371
0.09406434117817708 -0.15417147069903192 0.11450666962366263
0.09443209479353407 -0.15445359486874524 0.11528964955614888
0.09485944699297141 -0.15490060190280142 0.1158553568961696
0.09360792604952528 -0.15339854328941066 0.11435422987314041
0.09397201508347736 -0.15355321504485042 0.11528760896941076
0.09432024001095558 -0.15383953039864123 0.11580458850990331
0.09461012209571414 -0.15422710633391767 0.11601448979548352
0.09298329538226195 -0.1524364958821733 0.11431158123978438
0.09347705314407175 -0.1527104353347558 0.11518166836907609
0.09383619009995729 -0.1529097040210853 0.11575912252829947
0.0941261757847871 -0.1533252537168777 0.11594202812784728
0.09248323361327247 -0.15142239218740208 0.11438378590231274
0.09296930871434968 -0.1516952507758746 0.11526165874314735
0.09353012731944438 -0.1522079367263981 0.11592510531395249
0.09188846225172673 -0.15053001972302327 0.11415177223067655
0.09241844228463994 -0.15061284013048043 0.11506239890821178
0.09284729329935244 -0.15093161869411642 0.1156956127875224
0.09320352554177094 -0.15143576830085473 0.11602949341116173
0.09128849405251295 -0.14958495787632553 0.1140145539889386
0.09179386545378118 -0.14956860794672977 0.11479256869702306
0.09229448692382729 -0.14984368908941367 0.11536385808710842
0.09263598016951922 -0.150298407624708 0.11567797690411528
0.09098415478311003 -0.14846724820018423 0.11450025181727451
0.09160372328384332 -0.1487267239967531 0.11507882678300055
0.09204050978100066 -0.1492200365077071 0.11534636356703806
0.09011548863745078 -0.1474541068083046 0.11437225619295037
0.09062029290070082 -0.1474211524681174 0.11487243773246848
0.09124980134360454 -0.14794268866559668 0.11515045165622946
0.08936161574167775 -0.14657111669874134 0.11434419114060462
0.08995665651743798 -0.14660265244706974 0.114833928125544
0.09047715826041253 -0.14681411621112214 0.11513383946223418
0.0909066359461526 -0.14721779620507847 0.11525103828060122
0.08867120916768946 -0.1457485330994656 0.11432215417209093
0.08921267582140044 -0.14571620686809175 0.11478411853072494
0.0897467881778841 -0.1459291043971643 0.11510340558755291
0.0901671252814376 -0.14629476335422162 0.11521860325850915
0.08832807657603377 -0.14472695558446913 0.11467121945888674
0.08895971796312621 -0.14498161252664524 0.11506611840621414
0.08942613389649981 -0.14541036174007238 0.11518252870305173
0.08755491660561171 -0.14381091144001704 0.11454496179899162
0.08797835338364383 -0.14369043285924982 0.1149920498608295
0.08859973559532984 -0.1442444444183823 0.11523666012005913
0.08730852177669965 -0.14281865666181243 0.11485149550780549
0.0878563945152135 -0.1430116280452463 0.11525813287487018
0.08829431800506297 -0.14350469623721987 0.11539159394895343
0.08680883284116972 -0.14160749971875441 0.1150238774034809
0.08755501558566689 -0.14221270426388904 0.11539826065887532
0.08615735257347223 -0.14075144973526152 0.11488474179083084
0.08661725705743512 -0.14059871531227178 0.11535079841657152
0.08724702155927423 -0.14120143618329278 0.11561264009828476
0.08592130567186614 -0.13969532146519423 0.11522905087335787
0.08654769262308924 -0.13990653565708885 0.11563953535747815
0.08697583186535009 -0.14038865782634427 0.11577113323948597
0.08514246227157525 -0.13866280060275799 0.11517651504446319
0.08575004047394229 -0.13875088674330568 0.11558183176248851
0.08630143871411768 -0.1391793357287956 0.11578143709128802
0.08460516267581097 -0.1376491356138124 0.11532854949219006
0.08533714769609485 -0.1378678874923023 0.11573135607158538
0.08604386937754845 -0.13831923915208885 0.11599926070615896
0.08401753823332053 -0.13669926547782496 0.11535481477423878
0.08477117039163155 -0.13694189366226583 0.1157625341249189
0.0853405266421754 -0.1371051774209698 0.1160643793232286
0.08579430897980714 -0.1375764026368178 0.11616459698425508
0.08356790219910043 -0.13556937211273198 0.1155126641291257
0.08433566619322488 -0.13598180551448216 0.11587244605310039
0.08504721752126672 -0.13631032181925526 0.11619426662134767
0.08302389310458588 -0.13474233875173738 0.11537576374851606
0.08347934351422284 -0.13482890855717766 0.11570666950740603
0.08398602688030105 -0.1349537086725397 0.11601378701144016
0.08469144898819492 -0.13538256209609215 0.11632906688137815
0.08342185444663386 -0.13399176160750048 0.11588017257860075
0.08405664483188764 -0.13415916840982178 0.11631135722987757
0.08444852210326398 -0.1346172012993749 0.1164407836231615
0.08333919603715839 -0.13268862577607213 0.1161630658621092
0.08390116309995391 -0.1333537777898201 0.1164482930050678
0.08307685234686618 -0.1315827862703979 0.11624397959103636
0.08383012385906523 -0.1325841367151716 0.11661973564363423
0.08360555874012304 -0.13188405404793965 0.11664062565979172
0.0840303048309417 -0.13213150917617825 0.11693481290915064
0.08285200183333506 -0.1305824791248643 0.11637084517107493
0.08337800040843299 -0.1309365496759988 0.11677457346636874
0.0839255402694126 -0.1313440024299817 0.11712907982916365
