# .PCD v.7 - Point Cloud Data file format
VERSION .7
FIELDS x y z
SIZE 4 4 4
TYPE f f f
COUNT 1 1 1
WIDTH 791
HEIGHT 1
VIEWPOINT 0 0 0 1 0 0 0
POINTS 791
DATA ascii
0.06613381885679019 -0.14102323952024579 0.09961605206373295
0.06601792379672192 -0.13979910775494137 0.09987013485346173
0.06562661936841156 -0.13886471053864977 0.09975605254657159
0.06555330610611636 -0.1380063772181085 0.09983923444132056
0.0654397233784549 -0.13700454397581283 0.09992847531632879
0.06535520617129034 -0.13602332197194433 0.10003818068766875
0.06522817886313641 -0.13508200021840663 0.10014935115369696
0.06506509747048878 -0.13414399411403738 0.10023542071200897
0.06495258149136354 -0.13316051426530345 0.10033412783285003
0.06493871487349111 -0.13231629587565671 0.10051819574274368
0.06435809544785817 -0.13076460192754183 0.09995925061019346
0.06471999572047274 -0.13138892937418173 0.10034780372536287
0.06448028500351302 -0.1298096612940638 0.10015419070614172
0.06476222270513336 -0.13027407508906022 0.10043519302936789
0.06450319242169962 -0.12938233143313888 0.1001927501341764
0.06485145988519381 -0.12929367650834672 0.10049695259485664
0.06529797288780648 -0.12810413153775407 0.10071781398525086
0.0653694881016844 -0.1269448834414616 0.10065818953581918
0.06535488130855684 -0.12604648118141243 0.10064044012268368
0.06539332465975929 -0.12547513505605773 0.10073964432593462
0.06564137519740673 -0.125014202643254 0.10116806249102771
0.06546963180519497 -0.12427034632239467 0.10129402005578937
0.08435383892708244 -0.18086030746428702 0.10369075891045584
0.08416552168791266 -0.1806399519462414 0.10343249989212784
0.08353925142829956 -0.17965072703126278 0.10279568445661465
0.0840500927613749 -0.1798595860569169 0.10332102184261713
0.0837822123514817 -0.1792153908633845 0.1031181502737131
0.08338585988459325 -0.17906769946495057 0.10273223848012021
0.08281598815496823 -0.1778701489170144 0.1024223410995341
0.08332866875775324 -0.17802550892115085 0.10284557574662219
0.08209613428952385 -0.1765765466709034 0.10223970503529275
0.08264125873195349 -0.17665820492392575 0.10262528214684652
0.08296144393115504 -0.17729708000269556 0.10271722112173508
0.08242838315362588 -0.17603405216633505 0.10257108337868587
0.08196602103652262 -0.17598518718472805 0.10218753811704535
0.08148708151647537 -0.174451542350263 0.10192270704066216
0.08204918216655654 -0.17480670476062896 0.1023598355108288
0.08194631944336674 -0.173895171756088 0.10237634444840875
0.08151111750718469 -0.17360499223705764 0.10199159971113199
0.08097988884082476 -0.17230767827452026 0.10152687683499483
0.08137042943237807 -0.17266476163139577 0.10188023593742424
0.08142144791467364 -0.17181809346951596 0.10196738289610952
0.08102404766270642 -0.17146958093789602 0.10161472339258054
0.0804841468207612 -0.17019279679369764 0.10115036297758398
0.08086399382632244 -0.1705366862572058 0.10149132347514854
0.08086003825794214 -0.16972331052758863 0.10157238310773474
0.08047663183767036 -0.16948803084935277 0.1012383618211002
0.08000450290252058 -0.16818334514734448 0.10109129149652422
0.08052273349816418 -0.16842631059121113 0.10149933679285916
0.08028659145264276 -0.1676764739275939 0.10145748843277126
0.07981653402227465 -0.1675917917573247 0.10105923470485781
0.07912509616894735 -0.16640823913682812 0.1007454996908273
0.0796882222247689 -0.1665624821330245 0.1012128082246783
0.07840099547712731 -0.1648875205724404 0.10059034348785073
0.07883091387956048 -0.1653198457316666 0.10083582572144112
0.0792723220236886 -0.16580733688907998 0.10105779998973737
0.07847990330257965 -0.1643563513955314 0.10083522410562093
0.07898178885045423 -0.16440065194317427 0.10127378090551517
0.077648570085327 -0.16303912556517247 0.10063493540392758
0.07814866640691492 -0.163246483910372 0.10099691615308781
0.07856285558070951 -0.16383964943461743 0.10110685761241886
0.0778405964412491 -0.16265157999344118 0.10099497874326005
0.07741873336949212 -0.16250491707966525 0.10065970645589371
0.0766653662351356 -0.1612627370891668 0.10054100656053967
0.07720758435796474 -0.1615704231640108 0.10090084604723591
0.0768720682825341 -0.1608859473262424 0.10092044992544551
0.07643294236682753 -0.1605923174211305 0.10062783783131485
0.07560817517838163 -0.15935035614100335 0.10034228651621753
0.07605569810156072 -0.15970653248561287 0.10064317573797665
0.0758673888196904 -0.15890600176882502 0.10078122951410601
0.0753607363369936 -0.1586044013237595 0.10035732083351265
0.0754431790173073 -0.15756737433916115 0.10078430905775496
0.07462198068754587 -0.15641103167947779 0.10025227413653524
0.07506049454242449 -0.1567348241578039 0.10063353442513163
0.07486126208425879 -0.15593508007449866 0.10065378341618975
0.07438211785105012 -0.15568323704098747 0.10021268392824417
0.07443564385897032 -0.1547748686901427 0.10054446850224795
0.073686501594949 -0.15350271711492744 0.10023136002197598
0.07425299443463584 -0.1537887566009305 0.10069261612803924
0.07389755381610791 -0.1529669392641838 0.10063012232550436
0.07340992133466775 -0.15284374740849263 0.1002135164057871
0.07246338242677633 -0.15132631291878473 0.0999576956923347
0.07312407737659948 -0.15176142375054869 0.10039188963309195
0.07238497446677282 -0.1505603280814046 0.100200443756028
0.07285380243764616 -0.1506959741585873 0.10059689157373884
0.07261270385898902 -0.15007508490577573 0.1006432675688934
0.07213636827850506 -0.14982889422807144 0.10032923220295162
0.07125713609840038 -0.14887279155514158 0.09997327963279659
0.07166561588647066 -0.14901960600161562 0.10029772243283028
0.07044019165256354 -0.14748823174655679 0.10006418264650324
0.07094930880497625 -0.14764672715411364 0.10043649029308194
0.07133220410332734 -0.1483357292709528 0.10035411500809487
0.07060374341932121 -0.14698174437380238 0.10053138437064496
0.07012245531238047 -0.14692723804074403 0.10014771981477291
0.06906473989125383 -0.14558521715477174 0.10009388567203781
0.06975706594979379 -0.14594338382773822 0.10045230959426897
0.06899391763896948 -0.14501693519210077 0.1003107950892907
0.06943126298067853 -0.14497356463260413 0.10069389114110763
0.06792177335164103 -0.14351449241113126 0.10010963721405919
0.06855785883639368 -0.14382698995118143 0.10048957232612685
0.06904583155867283 -0.14442771824372888 0.10062010489286947
0.06787586617163045 -0.14279771069826713 0.10035199856617942
0.06833867297279704 -0.1429150742230046 0.10070457626742411
0.06811014986895332 -0.14232615143220076 0.1007560904542368
0.06763847908608552 -0.14215635408978805 0.10043040629007136
0.06670057110680866 -0.14048180956360198 0.10027709975088017
0.06739524881632018 -0.14108543603746074 0.10067870408764004
0.06663593411100854 -0.13966887078632984 0.10044663195315232
0.06716040558040294 -0.13995919610399898 0.10085552529312948
0.06688788855495441 -0.13919310905898394 0.10081934086464563
0.06625004076300896 -0.13882367697893064 0.10031139099378936
0.0661007747331566 -0.1377477850685178 0.10044434134905848
0.06595928209561948 -0.13676327483669487 0.1005789917510897
0.06583190306737388 -0.13579410659099317 0.10068990153419557
0.06566397381548865 -0.13482114661337846 0.10077545600935726
0.06551398490671041 -0.1338483960765126 0.1008786384547538
0.06543516161621703 -0.1328825291244123 0.1009821495449328
0.06533531005864777 -0.1319135336864403 0.10103195881237265
0.06530145619696039 -0.13089024147440845 0.10098892898322655
0.06533594074290165 -0.12986539563246066 0.1009573893619951
0.06545733835471879 -0.12892053948313392 0.10095148834772263
0.06565612387549706 -0.128230969039751 0.10103414403579407
0.06566622531630886 -0.1274519583856319 0.10096076891601051
0.06611132004545042 -0.12807218838425033 0.10142696876929805
0.06566205367657066 -0.1264634104660454 0.10092080139986717
0.06618913567202901 -0.12709256838977448 0.10143419029155895
0.06556734181954525 -0.1256977005439873 0.1008887414085859
0.06618282588303076 -0.12582580006266772 0.10156635368743633
0.0659559088487515 -0.12492046887799878 0.10158753642734941
0.0653620942514864 -0.12369834727313639 0.10154626076247647
0.06570894081862093 -0.12420158101595097 0.10165063225865054
0.06546002426353906 -0.12331682260864518 0.10199571808995975
0.0652307208567853 -0.12312433038963916 0.10185767636923786
0.0843728681675178 -0.1804873875234104 0.10370058081599272
0.08476974912129782 -0.1806867756898168 0.10428941063455302
0.08443553029016668 -0.17998109111493307 0.10375079329403594
0.08476355919097624 -0.17997500043110404 0.10418434489364077
0.08381376444575449 -0.1784746576565857 0.10322543395511154
0.08430003422102066 -0.17873717924505755 0.10368672583098858
0.08461117923683022 -0.17934938019702942 0.10397998018934597
0.08384775305689857 -0.17791051561915677 0.10334999212392056
0.08426944133237185 -0.1778238286557473 0.10373320119347564
0.08312811357991708 -0.17671346559672102 0.10298879086619156
0.08366230512425285 -0.1767330453633756 0.10337072369871637
0.08401870837974701 -0.17731706751966486 0.10358076304181744
0.08252045240054647 -0.17530325704213576 0.10270585990763774
0.08302582665159611 -0.17556823265825275 0.10305388447382915
0.08332535948784865 -0.176124987100408 0.10321319121943398
0.08262939302951262 -0.17472643689923165 0.10284280736389413
0.08308229607228312 -0.1746871250664546 0.1031770717149046
0.08213928585249147 -0.17322034110518364 0.10253242536277939
0.08267292503300654 -0.1733844753003286 0.10295108985247983
0.08291291974459587 -0.1741154885512828 0.10307991056380811
0.08250493054995674 -0.17265652222421662 0.10286964998714561
0.08203940299561857 -0.17258985354652817 0.10247653461385804
0.08161858632438206 -0.17117489506947683 0.10216244777668283
0.08211954951632193 -0.17146774992736433 0.10260115438487707
0.08196629345981944 -0.17062831272795526 0.10252033962077775
0.08150216763584937 -0.1705084228841244 0.10210586361683381
0.08095487397382804 -0.16897775598785672 0.10181309444652059
0.08145237020775482 -0.16943959164352912 0.10220587013397922
0.08101588816449434 -0.16840553325615645 0.10197643317915413
0.08140966813655529 -0.16841254135446165 0.10233947810097399
0.08026307524163633 -0.16697523384007462 0.10161337527059362
0.08079645415566082 -0.1672522541507463 0.10201973819864041
0.08117288690670241 -0.16782755098682758 0.10223258076157232
0.08026806993134016 -0.16644351388648798 0.10174527189459372
0.08070305625866532 -0.1663954023477515 0.1021171397719249
0.07939282095441301 -0.1649623937466411 0.10143782703458842
0.07994756440526972 -0.1653437490006926 0.10177339208265959
0.0804011291184469 -0.16588621025606287 0.1019882926327346
0.07944646509132192 -0.16445424510170475 0.10165918302753159
0.0798429508757729 -0.16448886392657264 0.10195127427059263
0.07864236007056158 -0.16333217886646706 0.10137653546297351
0.07915325156843299 -0.16341280176307174 0.10175153284127186
0.07957554733141467 -0.1639792530338308 0.10189205725456608
0.07778810280357508 -0.16203490861515846 0.10120652394018766
0.07825370040251262 -0.16240437918929512 0.10142858497180432
0.07869765269745954 -0.1628360127098275 0.10161161137069577
0.07775195312432426 -0.16153021664774053 0.1013887341350713
0.07829579913951312 -0.161545439560524 0.10179085803427611
0.07684737403649729 -0.16038695087535648 0.10112659216895235
0.0772278784762035 -0.16064160154874552 0.10134036414743093
0.0777462386563687 -0.16097652012083086 0.10159883474540168
0.07709290837400908 -0.1600403795193382 0.1014675568312641
0.07666165748371397 -0.15980481813128825 0.1011757546593906
0.07588028459782688 -0.15814539512066353 0.10104075654536306
0.07648889251561589 -0.15874976190005705 0.10138051761949865
0.07586560839961982 -0.15741430199485648 0.10126775616982665
0.07630663134061937 -0.15765950131317702 0.10157555917774456
0.07610728190656359 -0.15697040140457819 0.10160251765170916
0.07565588504533516 -0.15675629018147233 0.10123903980432311
0.07483909044729554 -0.15518769722931572 0.10084620122407997
0.07542888196944635 -0.15568080268534565 0.10129558919549261
0.07476988467439008 -0.15434908272238448 0.101036619575207
0.07518400197557099 -0.15472585381755463 0.1013379559162721
0.07474422232335177 -0.1537925969241206 0.10119371732652135
0.07518536454121752 -0.15385124127430147 0.10162062737739233
0.07376405664977628 -0.15218522662636985 0.10082269421914536
0.07433118785226664 -0.15254034706507621 0.10126290399940238
0.07478040002115119 -0.15319557816099733 0.10145456921666246
0.0736748138747347 -0.15143506917839686 0.1010599668789155
0.07410728633189333 -0.15158644280851355 0.10144812533507372
0.07388751114621293 -0.15097515603281322 0.10150412958651132
0.073446209132043 -0.1506873863335181 0.10120447995198176
0.07259908362925592 -0.1495180344611106 0.10091868935797062
0.07303098108288458 -0.14980292306914553 0.10123449579107797
0.07280062388478287 -0.14909648531362832 0.10138721549335973
0.07234469742964629 -0.14881649379244655 0.10107977356626606
0.07140516074265377 -0.1477905069232275 0.10075839233172598
0.0718294248816417 -0.14797695363076602 0.10107814807772654
0.07043542362282404 -0.1462814049922026 0.10083175119431546
0.0710115184138671 -0.14657981778282395 0.10118780445704312
0.07145713834695522 -0.14722888095346062 0.10119081341826291
0.07030418029638491 -0.14558114457471322 0.10114868645807996
0.0707655380971093 -0.1456907064991748 0.10149688055285579
0.07051793580613415 -0.14511777038685114 0.10160412082858834
0.07005437581119658 -0.144871500711587 0.10132763520102876
0.06912763175585339 -0.14367809675961954 0.10104132510099317
0.06960655267437697 -0.14400923569255997 0.10134382001824487
0.06938350335414013 -0.14324660245519572 0.10149553163351305
0.06892822534566274 -0.14290987256868234 0.10123265816950554
0.0680534810437371 -0.1416341758751167 0.10101593376617835
0.06852888040630853 -0.14214637794575513 0.10121762901441714
0.0680162332448906 -0.14091249317522597 0.10129062335926138
0.06855704276330109 -0.1411778094110161 0.10167968935588129
0.06825516555069094 -0.14044429624174692 0.10170797996623046
0.067768733074613 -0.14019444104887002 0.10133150676422244
0.06676918837525893 -0.13838807632538788 0.10092760878624148
0.06749870950796348 -0.13903889165238364 0.10144616541947864
0.06659698938185167 -0.13743875095696054 0.10105782226596915
0.06716541856903573 -0.1380068502967729 0.10143201569033683
0.06647340482873577 -0.13648932726540253 0.10120214151868841
0.06713423163797363 -0.1371528903012794 0.10166099344354658
0.06633250002344797 -0.13551953634776379 0.10129979510415055
0.06700012827739499 -0.13617670876544957 0.10179180378178773
0.06617787105617925 -0.13454884530550892 0.10140135225072569
0.06683822299333214 -0.13523939577061306 0.10188125634581431
0.06607679089348185 -0.13357031177387593 0.10152058716372446
0.06672716926701486 -0.13429892149848627 0.10202991183971785
0.06599952609644792 -0.13256504153912885 0.10159998144038111
0.06667097608587859 -0.1333035030755326 0.10218469566418172
0.0659362158534389 -0.1315345339890411 0.10160513637742873
0.06660757042560406 -0.13223375801431012 0.10222924990248888
0.06593509783479623 -0.13050778990322462 0.10154925987435558
0.06654114245124186 -0.13116712708468367 0.1021590647506039
0.0659509496197846 -0.1295225535877964 0.10144641654480556
0.06653199610823121 -0.13015826734757585 0.10205916246697808
0.06592758149572553 -0.12874022049708758 0.10132614580133953
0.06653942308269017 -0.1290357135734962 0.10190205359139096
0.06680767543926032 -0.1279540299077231 0.10201472163107919
0.06676394632715449 -0.12687580699586495 0.10197028436238628
0.06685572557895314 -0.1262088920519748 0.10213276484759623
0.06676686784128093 -0.12559911572965243 0.10220769243949046
0.0673111788561198 -0.12605443961488247 0.10268644689289876
0.06702308988233005 -0.1252397179053871 0.10263058554606412
0.06639615649646219 -0.12471603579156099 0.1022188570461593
0.06596607022043219 -0.12360928323866695 0.10240658675748207
0.06560890800296096 -0.12290592230256037 0.10256700231692747
0.06525299195891694 -0.1225068879128604 0.10249316085343821
0.06501267744237697 -0.12176636706789185 0.10287380291938829
0.0648995950095308 -0.12114475201844607 0.10331619487961663
0.08510804559542975 -0.18091178203118105 0.10481748396157012
0.08516246946927362 -0.18065882509690748 0.1048938912697992
0.08552651263226553 -0.18065782810052194 0.1053621908640564
0.08548298490105982 -0.18023002980618905 0.10524297342506904
0.08516857328649168 -0.180057595840722 0.10477223765775606
0.08483818473386302 -0.17855111304633367 0.10427335664367768
0.08531134731312441 -0.17889592526964246 0.10477874915462045
0.08523431916430968 -0.17799317172104723 0.1046200346042519
0.08482057869812629 -0.17781638053174492 0.10422340422682148
0.08424911635127018 -0.17668436921822675 0.10381962830447393
0.08486389158539509 -0.1767174674548051 0.10428332686396022
0.08357635194401221 -0.17541631777817215 0.10349895622196435
0.083947266986597 -0.17568412599035768 0.10371761571083005
0.08444764591742576 -0.17601149540210467 0.10402063836599858
0.08399487696810887 -0.1750118749496998 0.10385968891437207
0.08361119955660676 -0.17476994105835084 0.10359233547154538
0.08322530049175095 -0.17347557684202808 0.10335972626850654
0.08379827084135874 -0.1736457323853595 0.10379441915118064
0.08256559553699737 -0.17194008328937996 0.10298961872743964
0.08306420694073056 -0.1722115395643068 0.1034049784660737
0.08345407540159518 -0.1728152336840463 0.10363606282319453
0.08264448160752227 -0.17139098920617604 0.10308658394050864
0.0830414772322563 -0.17134669137754677 0.10346126469095107
0.08199408898737007 -0.1698393479354506 0.10266772579296236
0.08250677856383105 -0.17019498543222736 0.10306933892940491
0.08284141564172465 -0.17080139883907702 0.10330029687295762
0.08205056383549249 -0.16910570448527357 0.1028210976154656
0.08247545011576522 -0.16923320038352316 0.10318961644807655
0.08236058603236251 -0.16860098792744393 0.10318760279537752
0.08193491407540472 -0.16846738365786387 0.10281609451642815
0.08136930956328393 -0.16709861364104253 0.10255057091643832
0.081910699779712 -0.1674153480956295 0.10295851908528673
0.08168841234161002 -0.16662503627720204 0.10291936138646718
0.0812484017471821 -0.16644401916426887 0.10258105264981232
0.08056718659181761 -0.16519394202347237 0.10230441314011686
0.08117237581017529 -0.16545372402091854 0.10270945804722927
0.08088076388230807 -0.16474585124176327 0.10263614006523744
0.08040488581190315 -0.1645805733106414 0.10233311662143424
0.07970567957563378 -0.16349319004459656 0.10213468106615087
0.08028786584732892 -0.16364708750300594 0.10247752405294132
0.0787501210713837 -0.16211251242737262 0.10191976988468562
0.07923818273310729 -0.16252112147053294 0.10211200630893551
0.07978284752431347 -0.16295205227857756 0.10233415101630175
0.07878987672564489 -0.16163462199535975 0.102125348414724
0.07921079049043749 -0.16175495107418822 0.10233873301099593
0.07767376622688434 -0.16001446394564137 0.10188566438490458
0.07837786809362553 -0.1605693802245727 0.10216597654417066
0.07891764184470275 -0.1611438135938883 0.10234292523687116
0.07712238125534508 -0.15937613502057982 0.10170540180770854
0.07769491911274581 -0.15908049473983932 0.10221350585941111
0.07851669987943702 -0.15943724012115107 0.10260178072352244
0.07719208726070201 -0.15858405692736463 0.10201974814387817
0.07765829622071234 -0.1584361343869762 0.10238485607051696
0.07808835539360255 -0.1586378958147684 0.10259208552975753
0.07739797095823861 -0.1580128631493059 0.10233295733276168
0.0768894578561699 -0.15785928583861997 0.10199463418927088
0.07609252933356153 -0.15619973618842142 0.10178122721275862
0.07668493348032138 -0.15684116595615308 0.10209968721873015
0.07603719606382263 -0.15537363715127842 0.10195538587181417
0.07672006726508766 -0.15558817202957226 0.10245305577929158
0.07628557264076945 -0.15482544102038698 0.10232752553055434
0.075726750554664 -0.15457976204426324 0.10190767483328837
0.0757727072485189 -0.15356048293069982 0.10229285734041631
0.0748514776815206 -0.15243163155032705 0.10183009378382035
0.0753464415965816 -0.152785145484474 0.10216178580467992
0.07514269373423957 -0.15200258317920173 0.10229674278646776
0.07466816834509224 -0.1516491686944015 0.10201138338061379
0.07388715226030719 -0.1504306482610484 0.10178380688404376
0.07431027346231042 -0.15074560674485582 0.10207461674593715
0.07411627479138637 -0.1500237804752267 0.10225325413259674
0.07365259900208382 -0.14972901088009594 0.10193892452681459
0.07278416913027988 -0.148524556256845 0.10171809345084029
0.07322390837345008 -0.14884373337206894 0.10200780216568592
0.073017467077465 -0.14809356836382606 0.10223308847458733
0.07253786769542084 -0.14779433536147563 0.1019073987996172
0.07152504663795546 -0.14650640378489493 0.101722754859215
0.07201768054150688 -0.14689534150065117 0.1019608434586426
0.07180084303042816 -0.14610975840253113 0.10224198826804672
0.07135905632473466 -0.1457258733205653 0.10204267610607842
0.07049975219427707 -0.14458248450159708 0.10189852040908205
0.07095030516203235 -0.14486058314067385 0.10216085511894538
0.07070901223377582 -0.14417805310425325 0.10233747048986838
0.07026720849549321 -0.14388332140930218 0.10206452007627476
0.06937768437040003 -0.14266221119377728 0.10177680828822705
0.0698309751299354 -0.1430043339777608 0.10206460778639079
0.06960222897656848 -0.1422409585195737 0.10221857855420124
0.06912221408643696 -0.14193656955180953 0.10187330654424726
0.06915808612190924 -0.1409278233856303 0.10238448170482935
0.06818146887877549 -0.13966478319086195 0.10193208686450736
0.06869262143342117 -0.14022997226674305 0.10222750273195862
0.06810598907547334 -0.13884539659077674 0.1021322945785739
0.06867404495557342 -0.13916813631266606 0.10262217920469707
0.06833381057364063 -0.13834327492602336 0.10254677863914562
0.06775026424605096 -0.13796409826997189 0.10205983330459603
0.06767272097166782 -0.13676217024489362 0.10236881358378733
0.06737272880087104 -0.1358269312697584 0.1022905127589086
0.06733900290885571 -0.13503476119470187 0.1024766208229663
0.06728310754662409 -0.1340868749245192 0.10266353578845568
0.06732690920951527 -0.13304512403324642 0.10287406808697974
0.06725682331821606 -0.13180245890417505 0.10283446467287836
0.06704907341353687 -0.13081202092783933 0.1025725138538576
0.06721978787061285 -0.12995511453390032 0.1026367266582642
0.0672199701599425 -0.12890593836175887 0.10251279141584861
0.06735063402473938 -0.12824136803653682 0.10258233636085998
0.06728284742165191 -0.12749653453412346 0.10247662344225182
0.06772828222649686 -0.12810593220521824 0.10301839547328479
0.0672054529475411 -0.12673839337894466 0.10242133269847903
0.06769948512554917 -0.12709772382668905 0.10301481324852106
0.06780835797095924 -0.12629995383976184 0.10330725370904828
0.06698492761766256 -0.1246411786430522 0.10290702049665977
0.06757647527767152 -0.12525237492406907 0.10334591946214657
0.06726630538678686 -0.12429494185935738 0.103406504008714
0.06666160660035883 -0.12378277288134128 0.10307655331343833
0.06552284140442009 -0.12238222492805391 0.10293996251326824
0.06604028873716807 -0.12279171171247885 0.10316386362443494
0.06569458643473583 -0.12205789966022383 0.10340408447255982
0.06522382952131378 -0.12171956503344364 0.10318831516268545
0.06509382079407952 -0.12089553183340136 0.10380959695605102
0.06483837657026177 -0.12039508852074783 0.10391205372555135
0.06484565155215807 -0.1198359206595745 0.10438374961959623
0.08613830044581912 -0.18108582280477517 0.10614764887441176
0.08631752672307792 -0.18086789451000848 0.10639203941864446
0.08604366638617299 -0.18075728554491075 0.10601770067381572
0.08565181855518555 -0.17948331879437718 0.10528513890545829
0.08601012340494804 -0.17992033276604577 0.10588239418820546
0.08578714067021677 -0.17884374011877682 0.105311971421711
0.08612219349349035 -0.17885494955546244 0.10573502153056817
0.08540646901289693 -0.17716123701192948 0.10472140883882448
0.08575184087215883 -0.1776252178086544 0.10509379566512853
0.08600847306189738 -0.17818168906713636 0.10546072770393226
0.08552876380025713 -0.1765308621566864 0.10482809745937091
0.08609741350821534 -0.17648590317894483 0.10530986628581644
0.08464384007319126 -0.17493847358474557 0.10429455141906753
0.0852357629812936 -0.17543473391576983 0.10463888709744289
0.08570853669934021 -0.17588893727022756 0.10497234772017205
0.08426462797135496 -0.17431504435961048 0.10409775929648597
0.08497835425044402 -0.17395739721913858 0.1046311850091679
0.08563653620934412 -0.1742363833529214 0.10506555100810143
0.08459988794804252 -0.17358835985303886 0.10438017756390806
0.08521160113151245 -0.17315615382801688 0.10490446178755355
0.08549942944825567 -0.17353832468094146 0.10506552094254555
0.08367636015303487 -0.1720231603076353 0.10392141573195886
0.08424743835518732 -0.1722341428027038 0.10434811838974468
0.08468714874072772 -0.1728541730470544 0.10454861907853519
0.08400456362189124 -0.17151633883359194 0.10429633822605283
0.08356449299269024 -0.1713793357884484 0.10392853146805361
0.08306791843806545 -0.1700599933650003 0.1035959125118779
0.08355504662521102 -0.17036504046171158 0.10405784150633243
0.08337606606633023 -0.1695720986323726 0.10398803320529959
0.08297743725533888 -0.16936485509787755 0.10361962692023381
0.08239714614447771 -0.16791765362458697 0.10332426610628323
0.08291851798878218 -0.16833556278576828 0.10373770276219475
0.08242246280135701 -0.1673714267172631 0.10342376682508199
0.08280665176385103 -0.16738420157461897 0.10377398187573085
0.08173219754910296 -0.1659148986074625 0.1030831261892222
0.08216014156580986 -0.16632605190230787 0.1033679021489716
0.0825462503723475 -0.16681041605304606 0.10362011072154784
0.08177955233613966 -0.16536409607922112 0.10319572147695527
0.08232155655054033 -0.16532830000605042 0.10364678869890723
0.08086865178450525 -0.16410306129165264 0.10275958903904218
0.08134198653795653 -0.16442667034568803 0.10302967506246563
0.08183978145912156 -0.1647788065904635 0.10334217521917789
0.08087938563224227 -0.16361115331951903 0.1028824193903685
0.08129737803724396 -0.16364882741801673 0.10317807878016752
0.07983393635041311 -0.1620720526009699 0.10260389428156001
0.08044061560192167 -0.1625816875876378 0.10284889389723958
0.08097622041343687 -0.16308150008865174 0.10309055744683342
0.07972770276513731 -0.16105980125652586 0.10282292895803817
0.0805150247684352 -0.16158126466586092 0.10315941700456874
0.07912176514164485 -0.16032008979244736 0.1026836789180875
0.07983824908909858 -0.16010066059870795 0.10312859423396306
0.08059021119409399 -0.1604643294509475 0.1034877515874367
0.07933311712822445 -0.15962125039950087 0.10299034068073394
0.0799055034977083 -0.15935024348702015 0.103384005296637
0.08026879560363845 -0.1597942541427482 0.10346141089860515
0.07796180105869467 -0.1578681468654223 0.1027329404828311
0.07863523518568005 -0.15836908966660887 0.10298890681410744
0.07926468291288785 -0.158893639643071 0.10317292491675367
0.07736286775754088 -0.15731250183868384 0.10248979164267448
0.07795152089307239 -0.15696114720838392 0.10296495338478438
0.07871400188057302 -0.15733463584234592 0.10333362321517973
0.0773927412030027 -0.15631410194252102 0.1027616446751786
0.07797939708969627 -0.15629128025734398 0.10317076907932841
0.07836720697741405 -0.15660720774623574 0.10333522450993059
0.07730136750031198 -0.15561781085849946 0.10288925214952817
0.07784961539764244 -0.15554734665445968 0.10331096698192238
0.07625070595247795 -0.15405782778616756 0.10254541384844001
0.07676531604208707 -0.15452003426747563 0.10281117727015936
0.07728364811821388 -0.1550004560015264 0.10306872801136534
0.07623259807019904 -0.15334960283937502 0.10277010917768005
0.07680748384417949 -0.15350777827533932 0.10317543518271745
0.07643082163383191 -0.15287423201865297 0.1030951288137487
0.07596324862186542 -0.15274977961176875 0.10275401211046797
0.07514045866801483 -0.15143212773888387 0.1025607269412657
0.07573561061309553 -0.15172832938987332 0.1029425497305572
0.07534775090285804 -0.150977610857299 0.10295238859369654
0.07488234246695873 -0.15080384781167228 0.10262135744245766
0.07408324912359834 -0.14947069353489037 0.10253720287599277
0.07466297687847064 -0.14974675412498675 0.10293539038504207
0.07425976799873295 -0.14899493247074844 0.10296352709856794
0.07380022302826036 -0.1488590954045123 0.10259764832068494
0.07300266392243515 -0.14750457068245793 0.10258152555499478
0.07356571773597696 -0.14781716731322458 0.10295214240028741
0.07322149079538925 -0.14704782362682395 0.10306809913055259
0.0727241310123102 -0.14678542095418046 0.10273816351422072
0.07182471861705442 -0.14553295031586364 0.10264117147097497
0.07228086068533025 -0.14588969554005946 0.10286544537351393
0.07208316714437617 -0.14513046495581985 0.10315748719684771
0.07160133795639981 -0.14479879694867287 0.1028728157843298
0.07069489399411487 -0.14362824141572111 0.10265123765537149
0.07112933837022796 -0.14393436934306642 0.10292707472910119
0.0708950145755504 -0.14322571001699883 0.10310502706154513
0.07046973088457986 -0.1429145465819234 0.10279454401835536
0.06960483358866645 -0.1415069927596594 0.10259470342600996
0.07003695529384932 -0.14210664707531817 0.1027526865170862
0.06959191943741766 -0.14074542259042397 0.10293455110669451
0.07007430693228227 -0.14107610570401155 0.10331127500858735
0.06980947636731642 -0.1402553495761749 0.10338562122847146
0.06928329904643082 -0.13996002287818615 0.10294546143143764
0.06924953336404614 -0.13891038901616792 0.10336019769800206
0.06826263801114475 -0.13752267370551316 0.10276340885984774
0.0687880266796415 -0.13817473779041597 0.10311208555341174
0.0682054608269299 -0.13672209689118764 0.10298080599921888
0.0687667142082234 -0.1371114069603817 0.10344843326016831
0.06843502349636316 -0.1362857529003547 0.10335219278424858
0.06790592137608283 -0.13586780305903995 0.10288386257179122
0.06786389856324405 -0.13484864346614295 0.10307546421520675
0.06782846146218822 -0.1339617557881242 0.10323179851000046
0.06791702396573657 -0.1333283361700994 0.1034023176255188
0.06784927735932048 -0.13257033641463772 0.10337496910141745
0.06834516011237457 -0.1331947190683812 0.10381658698587758
0.0678427969196071 -0.13180059494771823 0.10338432844547982
0.06836144222853639 -0.13221980790204976 0.1038896525642959
0.06809070825592985 -0.13140547216089585 0.10364284860659528
0.06763217331455745 -0.13098620415183893 0.10313778978485534
0.0677688242036349 -0.13028584041489855 0.10322229679800134
0.06769582727852157 -0.1295159387227702 0.10307356645952287
0.06814779954579503 -0.13013927507848977 0.10363764599001375
0.06762492201051029 -0.12876131836583177 0.10294151005354003
0.06811970315216305 -0.12905181613154096 0.10353135683936193
0.06821619366376927 -0.12800060835072632 0.10362173812895473
0.06820895962217574 -0.1270311433800205 0.10372947884309892
0.06816067509644146 -0.12610338800809776 0.10386817370468665
0.06812569679247571 -0.12528674909307505 0.10408584645221254
0.06720210801137025 -0.12366881577696233 0.10371492966519583
0.06780410633279274 -0.12421878414423872 0.10415028531323262
0.06739431787449059 -0.1232776664888452 0.10418978418100966
0.06678161812947712 -0.12285847467372137 0.10387871871969606
0.06557945272467955 -0.12141912020143075 0.1038723825066743
0.06615413412839743 -0.12201660853863912 0.10392428677954682
0.06542848101992356 -0.1207660845527798 0.10432380290992876
0.06603405877005702 -0.12110167554044969 0.10458204527411794
0.06560463843524826 -0.12036304919856657 0.10478489111993568
0.06510549602475067 -0.1201325134063473 0.1044575310315388
0.06509633347528894 -0.11954174334236424 0.10487579543954167
0.08638372245999056 -0.18034156894845346 0.10648647055736778
0.0867761891245183 -0.18042241146095264 0.10704360735986247
0.08648125832569684 -0.1796456432776112 0.10654465480738612
0.0868007729936789 -0.17977461890206767 0.10701742474757346
0.08682555777478439 -0.1791094585631206 0.10684596018555474
0.08653520765615602 -0.17893369053787045 0.10633240973182909
0.08637438772077262 -0.1771757679445778 0.10567731105656722
0.0866548687172447 -0.17785076531949756 0.10614946991857473
0.0866285278242515 -0.17649327591701047 0.10576262891413037
0.08710342395631061 -0.17654246831872664 0.1062490032539341
0.086020652456262 -0.1749098232648458 0.10524306636139427
0.08643938294811267 -0.17537508164143562 0.10555316653915396
0.0868352338480991 -0.1758492967110907 0.1058875584647292
0.08622665954485122 -0.17428638196984803 0.10544411694566093
0.08677958752805018 -0.17430821947220235 0.10586538047364773
0.08562575371291532 -0.17315572635292387 0.10520669418929465
0.0860535338754401 -0.17318002053859843 0.10553654239530229
0.08640657674630693 -0.1737269612817405 0.10566887689142351
0.0848091798299908 -0.17225719490996028 0.10477305052617136
0.08532968732784471 -0.17224486991437768 0.10519160979652403
0.08572512831892355 -0.17270780973846023 0.10537207000648342
0.08402112625953992 -0.17082971367054026 0.10442941955651976
0.08450641322037117 -0.17113680601373174 0.10481515895668936
0.08491739552827207 -0.1716859390774346 0.10501959705143642
0.08403988633963368 -0.1703047972987416 0.10455274661890293
0.08440540184950905 -0.17030940079875206 0.1049006978634382
0.08344177665075898 -0.16879672427597464 0.10416894857340996
0.08382000547528187 -0.1692620662582374 0.10449264317349016
0.08416001053592516 -0.1697605760827759 0.10476909029022283
0.08349886114347589 -0.1680512335164573 0.1043370168292823
0.08402934035685394 -0.16819260209172457 0.10482479926725016
0.08376856491858561 -0.16752112458767232 0.10465620596616822
0.08332730491538369 -0.16742309131911193 0.10425838738786483
0.08273806885100131 -0.16593366250606698 0.10392613019672936
0.08318674224518907 -0.16650343023047542 0.10425560684718041
0.08284247269540301 -0.16533365126867194 0.10408989778308257
0.0833276554582269 -0.16534711833922475 0.1045572441464488
0.08187146134217702 -0.16386062807638901 0.10356999510973572
0.08242497129597333 -0.16427716171829132 0.1039410230444298
0.08291683813126276 -0.16472751418692919 0.10427152918347576
0.08171515907768165 -0.16285539480372077 0.1036900023890993
0.08249190292348332 -0.1632012838128157 0.10423979698074295
0.08113066343275083 -0.16217947584829387 0.10342522878056364
0.08178557228201751 -0.161826350951497 0.1039741475027891
0.08234528039307747 -0.16218802925114853 0.10433982250096734
0.08125857133059407 -0.16115319366106867 0.10375567115323542
0.08191167613800814 -0.1610614163254989 0.10425519754202911
0.08225560056338238 -0.16149101294819931 0.10442353040129193
0.08116821585782073 -0.16049647592815058 0.10385400593550284
0.08159688029682045 -0.16042903150919344 0.1041927292309872
0.08030659064945382 -0.159450517377644 0.10358916804677323
0.08063500202992312 -0.15960972034227172 0.10376308170470168
0.08115918480393108 -0.15991456544832708 0.1040366940360337
0.07930032903496366 -0.15802785603264272 0.10345937600414581
0.07989028781502401 -0.1585332317206294 0.10364561339164025
0.08038558523164101 -0.15904321645012817 0.1037831495290521
0.07933119998312563 -0.15746053680327096 0.10366058847726235
0.07994527889920434 -0.15754776659564762 0.10402996977846281
0.07837321694410707 -0.15599364335455929 0.1035356886143215
0.0788454261498468 -0.15641786405142716 0.1037166803625345
0.07936563156612472 -0.15690480575745258 0.10387895440907624
0.07835933373347584 -0.15552576402781265 0.10367429236560698
0.07888907643624056 -0.1555288968260933 0.10403627642505901
0.07730003750697263 -0.15413059149510105 0.10335983240020462
0.07782996052040639 -0.15457853269274957 0.10360910259049849
0.07836731445500875 -0.1549970406657906 0.103847515266098
0.07731813177884314 -0.15356142308254273 0.10356705461354296
0.07785666498003325 -0.15359345819717019 0.10395710660535586
0.07634905275957654 -0.15220188630832576 0.1032670989039052
0.07685430644128918 -0.15256578756925815 0.10354500981479248
0.07734442350985853 -0.1530047567869478 0.10377629580209799
0.07631182390024899 -0.1516632689343934 0.1034273981593615
0.07685215745144967 -0.1516329041889205 0.10389180377817618
0.07526591651329184 -0.15026183353191921 0.1032163628577324
0.07578765227752866 -0.1506622318716207 0.10345482140002529
0.07631204420939375 -0.1510956723581723 0.10367260447119263
0.07523014788541325 -0.14970128098418314 0.10344322868485571
0.07578861715068355 -0.14967686549067596 0.1039273618693149
0.07412159996475744 -0.14830260833171008 0.1032104883211427
0.07470826701964163 -0.14859155644480668 0.10356960088963918
0.07524670707808834 -0.14911730325372713 0.10375194724495265
0.07404263239631674 -0.14778850385329823 0.10342565169546207
0.07444035116033809 -0.14776891173839735 0.10379651566607592
0.07317460567760097 -0.14648269854861662 0.10335152055286613
0.0736869648054354 -0.14666121637495413 0.10374350696874403
0.07410046228563767 -0.14727130136554392 0.10376992155543481
0.073342614483689 -0.14602794072352285 0.10379994965347307
0.07289816159069291 -0.1459023440386369 0.10345228917465746
0.07208337612135143 -0.14455263485795922 0.10350637592174233
0.07265931540026 -0.14486995784054446 0.10387430769601401
0.07229796549188339 -0.14410886846858015 0.1039853705686918
0.07179238562080871 -0.14384655588461526 0.10363848882047624
0.07086964078645515 -0.14264922129500957 0.1033934137620863
0.07131645121094082 -0.14298708700782098 0.10366828213058008
0.07107915875451035 -0.142202952244102 0.1038336776870042
0.07059307216485694 -0.1419070733314704 0.10346216482485779
0.07058103324445962 -0.14098722058273955 0.10390242563322763
0.06973428108505003 -0.13947174196397497 0.10365173586506131
0.07032107127810389 -0.14002321770527082 0.10404657573270047
0.06965536176786313 -0.13871247745491255 0.10387929931242636
0.07008634118195517 -0.13895957756212077 0.10422537724119221
0.06986924154854134 -0.13825685345254746 0.10425940736336325
0.06936834658298768 -0.13794483125278398 0.10383555068606487
0.06936871417207652 -0.1368982265331494 0.10416419735106008
0.06838603040543687 -0.1355028241213861 0.1035072057339988
0.06888258338644283 -0.13616157880072363 0.10386358234480841
0.06833078857556941 -0.13458076743280184 0.10363765391381113
0.06886551288047214 -0.13518589404606374 0.10408270125789688
0.06824188881526672 -0.13383803063842048 0.10366176877110907
0.06875994310163688 -0.13407699150122876 0.10416464218401612
0.06883243464084386 -0.13307260041507826 0.10436559140409568
0.0688661732673587 -0.13224443832400387 0.10445760541132737
0.0680454011226271 -0.13080719148474296 0.10357949840954837
0.06857576993622219 -0.13118448165487478 0.10415379656976238
0.0686522199547777 -0.1299575540589003 0.1042128397870221
0.06866116309511211 -0.1288667618162272 0.10424033578288742
0.06865012077958216 -0.12784294184976772 0.1043027257756993
0.06860715325982317 -0.12687136575009464 0.1043918754768774
0.06855349673989196 -0.12594040221208253 0.10452313653040717
0.0684498055686914 -0.12499869874818033 0.10470463282790393
0.06843639707226523 -0.1240374448651035 0.10508564144687378
0.06727277166010431 -0.12265549816102489 0.10446948790201929
0.06785317392684731 -0.12308824377004163 0.10482366288086443
0.06747980815509917 -0.12224782031001834 0.10493068240472873
0.06680432942397105 -0.12190576816757404 0.10460373415224547
0.06664009673925121 -0.12105734371387329 0.10511156870512751
0.06549244921170032 -0.11969958809615142 0.1051274341989937
0.06616961934495524 -0.1202308564041206 0.10530796935886357
0.06547956746443744 -0.11912540797406095 0.10546650276345268
0.06594366926150068 -0.11925969420383184 0.10572696196912595
0.06591401542041662 -0.11863941375084719 0.10604168137871883
0.08726011789998656 -0.1803347374475113 0.10771176943357104
0.08758353310037689 -0.18023298282393793 0.10813672646771912
0.08754994082268006 -0.18001306857868343 0.1080269065419868
0.08722395458623812 -0.1798776577294183 0.10756080513609065
0.08708744683404875 -0.17824780190409237 0.1067972538873824
0.08732646246658551 -0.17888172000279187 0.10739091726607072
0.08736369300051786 -0.17719868187393004 0.10670378187692198
0.08775462241723897 -0.17757488043200845 0.10734351429248683
0.08754721571122709 -0.17653989380960827 0.10669595977466641
0.08786934947698477 -0.17657253434112755 0.1070933660367656
0.08711712899866786 -0.17493004547540358 0.10611594181995432
0.08746868575590042 -0.17542814972151421 0.10645295796037386
0.08775482449995425 -0.17594982728095884 0.10681491921393628
0.08729843785538782 -0.17433288421985285 0.10629076338349681
0.08777546211065043 -0.17435333862257785 0.10676582073216019
0.0865550718410378 -0.1731939317404422 0.10591353653584015
0.08705715082095564 -0.17320438744927205 0.10633952292977392
0.08743866160511957 -0.17376577436703025 0.10652264211516756
0.08580687062544334 -0.17224038273001271 0.10555275730525962
0.08625923226478792 -0.17221303866240084 0.10594543749549544
0.08666902010424639 -0.1726757295294502 0.1061555072690323
0.08503902978199476 -0.1709990731311918 0.10530341873401222
0.0855391698789299 -0.17120738103599675 0.10566754071743456
0.085866851326337 -0.1717702839853115 0.1057637056078156
0.08532055376501287 -0.17054011501660477 0.1056574105513144
0.08490227335684526 -0.17038379076494098 0.10533162864258343
0.08438265744264652 -0.168871274316415 0.10508917385298958
0.0847934232469935 -0.16947725676209235 0.10540274817754648
0.08449841156890231 -0.1682387484740266 0.10528336020756164
0.08497450491366544 -0.16828119393089536 0.1057629460393656
0.08375936609177134 -0.16677640320691672 0.1047486989533519
0.08419390797626664 -0.16716424582990733 0.10511620268491248
0.0845929133554653 -0.16761594138066926 0.10546808071069126
0.08374693660468947 -0.16590438367712923 0.10487753308565377
0.08426651460337667 -0.1661726989167666 0.10535774287551615
0.08377212084116963 -0.1653330617177156 0.104996770703658
0.08412048946495304 -0.165318586069088 0.10536982236410102
0.08300559298823905 -0.16379454615855601 0.10456407545469626
0.08345579055142083 -0.1642915897023931 0.1048895510829297
0.08385578363776373 -0.16475949287389602 0.10520758897725344
0.08307353084383937 -0.16303834722203542 0.10480028424900205
0.08358002328503349 -0.1632392061117928 0.10526747198944017
0.08332543460550064 -0.16255616358221597 0.10516009291284781
0.0829033166717042 -0.1623753433415596 0.10479516640973194
0.08234524929998073 -0.16099643309402173 0.10463711022720404
0.08280890169713843 -0.16134872473906464 0.10498351371868954
0.08255133967668837 -0.16061252310858198 0.10494990962532272
0.08213812227051653 -0.16042317290496144 0.10463462849292543
0.08104126260745655 -0.1589799056606569 0.10426543648820072
0.08184494861506846 -0.15948100007026483 0.10472775571580328
0.08050499356235298 -0.15830697411320177 0.10411908425010308
0.08108349490794685 -0.15806300360913866 0.10462178833570623
0.08162005236880755 -0.1583962639651616 0.10493286134444338
0.08065127966256387 -0.15763545664365372 0.10446529876588942
0.08114238941806229 -0.15729751357162755 0.10497814344760642
0.08148941968192333 -0.15773303634961575 0.10508194344299948
0.07941097766405965 -0.15608881243223652 0.10419426726489442
0.07996482138067654 -0.15652877245671887 0.10441407306689601
0.08055137287090665 -0.1569350285247286 0.10467728193378041
0.0794322773132504 -0.15555057289151022 0.10439823247551601
0.07998424361782862 -0.1555536951190869 0.10479687258751957
0.07838816887896294 -0.15416705102609166 0.10414392295337582
0.07892218756952271 -0.15458608911019786 0.10438458513805253
0.07945333946443764 -0.15500228032041455 0.10461414338495977
0.0784051143576641 -0.15360900235957606 0.10435069021590913
0.07895598907710641 -0.15361325888660768 0.10475820059522024
0.07737551908038083 -0.15218110071444982 0.10409320679799731
0.07789711718903987 -0.15261460704795507 0.10433503614409335
0.07842557752404994 -0.15304976708235718 0.10457084728003392
0.0773852758250557 -0.151629988430651 0.10431732642423122
0.0779266925009828 -0.1516402234085904 0.10474595871482892
0.07631896028248666 -0.1502464321409325 0.1040759527058694
0.07684811593507367 -0.15066520646376153 0.10431408673323003
0.07738802568850313 -0.1510721640532759 0.10456504450300162
0.07632871719156098 -0.1496948909334458 0.10434902821455178
0.07686704026522179 -0.14971084150144534 0.10477224155161818
0.07525118616043089 -0.1484070650590335 0.10413980558681396
0.07584901872203179 -0.14858065891388383 0.10454712800836222
0.07635386631630016 -0.1491585874384474 0.1046443564008959
0.07547591034383065 -0.1479452477166363 0.10458239123608869
0.07499401046247627 -0.14780889709011769 0.1042543346208298
0.07417676694437625 -0.14674084612053528 0.10415901309442277
0.07474525677871834 -0.14685727108258315 0.10458557089856081
0.07324212937709183 -0.14536779079587847 0.10411861578774505
0.07372158107301711 -0.14573568331480838 0.10433637673809573
0.0742100674795996 -0.1461746809387555 0.10451905801942846
0.07318972177829126 -0.1448449926394362 0.1043939604972134
0.07370738883117425 -0.1448308159011545 0.10484570605923599
0.07221958757858626 -0.14354848688882152 0.10423816780970703
0.07273799644306149 -0.14370854745339542 0.10463630089616156
0.07320157768270771 -0.14430623257966374 0.10471860497876169
0.07236425650270305 -0.1430785285144123 0.10463060859071839
0.07191476647121817 -0.1429823921391996 0.10424897821035303
0.07105140608687564 -0.14142085269882734 0.10416494072919848
0.07160691922741862 -0.14204564223347724 0.10441335970906558
0.07092465659952538 -0.14050607511895177 0.10445011872615746
0.0715677066780985 -0.14087434664547038 0.10487005590258706
0.07082643848452914 -0.1397842104821293 0.10464192404344222
0.0712937041873932 -0.13994179826637654 0.10498757397158705
0.07105851721750991 -0.13931104409470033 0.10500972869077992
0.0706055222612082 -0.13913264100482373 0.104662099216103
0.06987013546861133 -0.13749397103375763 0.1045108011219622
0.07039109943287068 -0.1381479111139941 0.10479262255472822
0.0698250639051361 -0.13670009447167641 0.1046988695972867
0.07040307800019441 -0.13695929289299535 0.10518751014246656
0.07000925088889298 -0.13618544813261024 0.10502669956507132
0.06946851212809492 -0.13591327049505753 0.10453256062478658
0.06937459691256945 -0.13480124070686428 0.10468321323826689
0.0693173109207813 -0.1337801238189391 0.10481739724686466
0.06929064532248477 -0.13282618497173437 0.10491436771640872
0.06922075875579978 -0.13184852268146624 0.10489773827860997
0.06916447976113327 -0.13077339968576326 0.10486193485472665
0.0691369431003013 -0.1296753593386355 0.10487373587997395
0.069080602563207 -0.12863137307974953 0.10490598481945637
0.06902942914063476 -0.12763858205226034 0.10495894162329865
0.06896695161108676 -0.12667597174949857 0.1050550954365473
0.06889101797765676 -0.12573220399636498 0.1051744082887451
0.06882679835575252 -0.12487121628326854 0.1053435953445414
0.0688569825877137 -0.1243001846762961 0.105585179179601
0.06876077153099672 -0.12378370967246231 0.1056331473200914
0.06913300532506322 -0.12411833782980612 0.10608756392508709
0.06888052243716818 -0.1233897268701656 0.10597038306758334
0.06845088426275389 -0.12316162798091582 0.10552083996085893
0.06729059079199898 -0.1214922905272127 0.10529845956103488
0.0680331843781993 -0.1221734850399732 0.10555766743238795
0.06695854412415446 -0.12058218642618758 0.10567821302074022
0.06772558805744948 -0.1210579492513941 0.10595415417537049
0.06663080201525172 -0.11963155455110874 0.105993136327769
0.06738137509904722 -0.12005472420088298 0.10628653083726429
0.06637966948481881 -0.11873563873874057 0.10631822207208169
0.06706056150133127 -0.11908232111329721 0.10658435400875749
0.06635539616303678 -0.1181240349620304 0.10658832949420835
0.06681211013604045 -0.11820073361913169 0.10686695271835828
0.06676884686293731 -0.1175503184946672 0.10711837278869073
0.0877329698794288 -0.17925113462828313 0.10804268064604777
0.08802445805023258 -0.17963017924638267 0.10858516484642249
0.08796671281962345 -0.17819876084383257 0.1079707177825008
0.08835095907952988 -0.17858199082048198 0.10864001696462641
0.08823791486509623 -0.17735451866378074 0.10788499181570668
0.08851435139261422 -0.17752772375943424 0.10838945159067553
0.08859171639764873 -0.1768167027267916 0.10812563282279679
0.08829174387899227 -0.17665909179573575 0.10763825899832359
0.08807044777642198 -0.17502868606876304 0.1070408703416577
