# .PCD v.7 - Point Cloud Data file format
VERSION .7
FIELDS x y z
SIZE 4 4 4
TYPE f f f
COUNT 1 1 1
WIDTH 791
HEIGHT 1
VIEWPOINT 0 0 0 1 0 0 0
POINTS 791
DATA ascii
0.07990065442517894 -0.152728225878769 0.10720612758170704
0.07836161171466825 -0.1513218675545606 0.10642569960183454
0.07888657854615866 -0.15173992080642099 0.10671135787932258
0.07940077604308692 -0.15216438709851846 0.10699221798044907
0.07836662444274148 -0.1507355848332028 0.10668251356725965
0.07891126989913994 -0.15069764223568388 0.10719575343765896
0.07736615696058723 -0.1496223097681825 0.10629747932185601
0.0777846097340623 -0.14987511347829582 0.10655776138925213
0.07833665182478977 -0.1501392259290589 0.10693255136398916
0.07764616395677393 -0.14926140607881494 0.10671568096637199
0.07720680202820149 -0.14900778184919347 0.10644740951424395
0.07642445104781241 -0.14782675554183453 0.10634019546811331
0.07702298367563476 -0.14798378171790325 0.10679072449472207
0.0754226889721959 -0.14631543211980635 0.10629079143865874
0.07593460736074872 -0.14676501789349972 0.10648388202438033
0.07646621810171966 -0.1472509030127804 0.10667675154812115
0.07544770376762569 -0.14576991815395987 0.10660923604419707
0.07598223267345326 -0.1457830313474462 0.10706074810501086
0.07437923449910129 -0.1445223811973233 0.10638209356024136
0.07497899180304138 -0.1446767171144792 0.10681508281504175
0.07547663608283998 -0.14523636681407978 0.10692782641115886
0.0746196002100542 -0.14405328431168532 0.10685921310202184
0.07414482653306452 -0.14392358674829275 0.10650927562531887
0.07335064387382502 -0.14286121471386912 0.10634689819238094
0.07391943955701208 -0.1429683132044634 0.10681319251317858
0.07234332397635015 -0.14131897754153708 0.10615594439272272
0.07286655884685977 -0.14179932862001088 0.10642004615679536
0.07339034372630218 -0.1422799499053747 0.10667361363446234
0.0723086149732693 -0.1404509313577483 0.1064750630284047
0.07289696704422598 -0.14079160874608865 0.10688210788123562
0.07229061654281319 -0.13990338461503427 0.10666372897550054
0.07267035576075612 -0.13993773789130817 0.10700232798720305
0.07138873205665096 -0.13841963892035553 0.10632946913405703
0.07189936465876558 -0.13885116425225333 0.10665368278318957
0.07234912096036485 -0.13935205084892802 0.10691042970414567
0.07128354319327894 -0.13750795641014973 0.10652843211134104
0.07190262102457684 -0.13784300463688934 0.10699608381464261
0.07123648330730524 -0.1367754244750387 0.10671663147138041
0.07167451239116188 -0.13693399778959253 0.10707455961412701
0.07146120579805464 -0.13631390646919028 0.107074478764943
0.07101850272902568 -0.13614980689696976 0.1067146245792204
0.070194214744884 -0.13449539869293045 0.10641932758634376
0.0707671625734577 -0.13518734240695654 0.10677328237076168
0.07015865621871763 -0.1335123830820122 0.10661435324583443
0.07077286393111938 -0.13395622644432023 0.10711043821026006
0.07011774092162358 -0.13277250159530843 0.10673427660216844
0.07053854949072169 -0.1329658894128146 0.10711248930208159
0.07032572864442668 -0.13235330937610187 0.10703244362576873
0.06991856336453557 -0.13208274182897073 0.10664487190986272
0.07002822833664765 -0.13140762003403017 0.10686094226489648
0.06997953464671915 -0.13064630243020733 0.10687185795417266
0.07039679792371499 -0.13119920388403353 0.10726421521121957
0.06995232029562072 -0.12966188986747887 0.10695650858617167
0.07042267285992035 -0.13026616554427173 0.10741174077034893
0.06993528163550479 -0.12882043804336785 0.10705553628330075
0.07041801205456054 -0.12918045289064822 0.1075934986604086
0.07015247543664616 -0.12832292134202072 0.10742214240784108
0.06966669228109873 -0.1279423741471752 0.1068512645641362
0.06960166724464655 -0.12686741585034028 0.10697116084631654
0.06953432894361523 -0.12586643120216898 0.10706225278677044
0.06946444837777785 -0.12485859357722283 0.10714204434468874
0.06939736315045057 -0.12387652083573303 0.10722884296366257
0.06931091398164242 -0.12294636679180435 0.10728351921062386
0.06922040008614264 -0.12206063651795837 0.10735382795834762
0.0692315375907078 -0.12139264574219037 0.1075459246226407
0.06905288369578161 -0.1206363291295137 0.10759003338299017
0.06957030153654527 -0.12121112500475546 0.10802882970538812
0.06883614267695222 -0.1196610334160011 0.10776669646815328
0.06945365594118369 -0.12028230355316416 0.1081974918838783
0.06868606473500874 -0.11885040005109684 0.10794770973956742
0.06927541491788586 -0.11920785892931879 0.10839277750075167
0.06887276802804844 -0.11839954625037034 0.10828434934450872
0.06827122632710819 -0.11804479371863037 0.10794840307056697
0.06827045434913954 -0.11732910460074836 0.10827227945890476
0.06811784345665811 -0.11673855007858495 0.1084112486824351
0.06872114767528144 -0.1170832130682529 0.10871381042012099
0.06834661732740512 -0.11630303542016851 0.10873594423228708
0.0677254569581699 -0.11598829459807466 0.10842255973992994
0.06769001469926483 -0.11515751446026559 0.10873901475965066
0.06752325936597502 -0.11464220841410012 0.10878924997637254
0.08875135773854075 -0.1793204470358679 0.11120716836096957
0.08877432941444549 -0.17906995129502934 0.11125736287162802
0.08920477276918415 -0.17907509021761187 0.11181399356942923
0.08900840136884215 -0.1786557431677057 0.11157782198497196
0.0886848997528678 -0.17849953024987364 0.11107997240744533
0.08847900492827108 -0.17683294722788123 0.11032351357453973
0.08872032085982372 -0.17749556353978663 0.11091276170297969
0.08861763458964549 -0.17593617165599737 0.11036840374925569
0.08897442055821143 -0.17618373569928375 0.11110564257390286
0.08888539446057904 -0.17534226865800662 0.11076612559531905
0.08854833834230615 -0.17507684853719963 0.11015565701509641
0.08874182252372301 -0.1739690972793723 0.11046823921107679
0.0881488415323177 -0.17311693619083998 0.10961632296747502
0.08845791609662351 -0.17325201597459075 0.11009312606841243
0.08754048543090975 -0.1718412814399803 0.10930780218517441
0.08795490086717345 -0.17192482968898384 0.10980591614402578
0.08823759566780884 -0.172580598608159 0.10994022460705512
0.08675314854521014 -0.17044456119634271 0.10905894710245272
0.08725425571437292 -0.1706673533464838 0.1095448895051552
0.08761177611873382 -0.17129731396485454 0.109673209074785
0.08700917793135084 -0.16998141037472822 0.10954767282700495
0.08660043018898865 -0.16979896228307736 0.10914584882798647
0.08614801887228932 -0.16859204476121575 0.10907437672394785
0.08653160479183382 -0.16880530014460451 0.10942786820580097
0.08544315509532094 -0.16730689347813338 0.10861454255150203
0.08585937743193683 -0.1676526067841536 0.10899142794465141
0.08621492123073984 -0.16810158299004424 0.10928285256250796
0.08543784488626732 -0.16673982376697666 0.10873842120186115
0.08589912925404383 -0.1667056635783762 0.10926713057783245
0.08466117295315856 -0.16520317904470616 0.10828122586586818
0.08506837414580344 -0.16566397545756895 0.1086268252713356
0.08547384482725981 -0.16613712726279517 0.1089449923348386
0.08467436626650669 -0.16445844592751885 0.1085027731803421
0.08516864307866558 -0.16461259784108545 0.1090216848967792
0.08488679409191828 -0.16396008721029698 0.10890612984304542
0.08449581672369341 -0.16380565888819004 0.10849860842726293
0.08391535137086445 -0.16248070315827423 0.10820083343720051
0.08438072212422955 -0.16276338137614108 0.10867132023545668
0.0840927007191364 -0.1620283137804663 0.10855923950776969
0.08371391243237905 -0.1618662333337052 0.10813373352018206
0.08305396221295738 -0.160302832804966 0.1077604053681562
0.08354849368483533 -0.16084168765947746 0.10822574898252721
0.08302949651856295 -0.1595749337632622 0.10796480243215568
0.08341722948256228 -0.1597989103554344 0.10838180680081107
0.08326129731258389 -0.15912544073576956 0.10839664673476922
0.0828632811405614 -0.15890585795307893 0.10796911141018815
0.08212882613337429 -0.15732438152587694 0.10765898710703238
0.08267546204980027 -0.15785209068052944 0.10809532110519954
0.08211294883738146 -0.1567784176808265 0.1078490906599445
0.08245249298756112 -0.15685679535261937 0.10819718755044079
0.08124548966966105 -0.15529480063456463 0.10746726464085771
0.08176725886998566 -0.15567916476385707 0.1078671981138547
0.08216410865788211 -0.1562738023331717 0.10808352954571833
0.08124412277355135 -0.1547530352329767 0.10767920244247133
0.0816063573428461 -0.15480957144690716 0.10802814954801652
0.08039153015882888 -0.15329585071651114 0.10742135736994453
0.08087089823730326 -0.15374264851199304 0.10770333476081767
0.08131571959715732 -0.15422568024450684 0.10795633708138629
0.08042108081536863 -0.1527194210543313 0.1076827000262392
0.08093257945307972 -0.1527321078640452 0.10816823943098437
0.07943783767889852 -0.15128747042706034 0.10740320478160763
0.0799479181333906 -0.15171885795513634 0.10767467593240045
0.08044591442807456 -0.15214692513781397 0.10794929391526553
0.0794593649986015 -0.1506983866681231 0.10769122974314153
0.07999247748346018 -0.1506999190305198 0.10818730744470355
0.07817972323161641 -0.149191021630075 0.10724055533396552
0.07891442928762175 -0.149549889058619 0.10774633538759491
0.07947805249558174 -0.15010405412882277 0.10799679973906792
0.07766777422234962 -0.14861241480674078 0.10705366567105958
0.07818005412617295 -0.14830424079011814 0.10768105752571606
0.07869864710523065 -0.1485860020068812 0.10802843196520855
0.07774482533331419 -0.1479318241244081 0.10746628665762238
0.07820792561672872 -0.14754730658087326 0.10809377996871097
0.07855811340895692 -0.1479595705479838 0.10821271559302795
0.07649638033694194 -0.14637325152628447 0.10717437777166242
0.07703711154350265 -0.1468324737059288 0.10740004999897952
0.07761831009089376 -0.14722551907946596 0.10771597033573616
0.07651305093588016 -0.14581199029888076 0.10749536471658942
0.07703566803102455 -0.14582773838281946 0.1079373258763244
0.07550509395155634 -0.14470321676980713 0.10725734919984672
0.0760276582850812 -0.14473948274477139 0.10769762409085996
0.0765292078680867 -0.14528551990697963 0.10781077256362763
0.07454718656054372 -0.14339379674300864 0.10716744174519821
0.0750490059907529 -0.14374077336669425 0.10741863131370091
0.07553294629033609 -0.14416456470968025 0.10760140755508998
0.07449997917907894 -0.1428608073115723 0.10742337278264234
0.0750414319630479 -0.1427953422921205 0.10796443976886921
0.07342364455303405 -0.14136287571793932 0.10714279172096748
0.07394710324416419 -0.14184964686674367 0.10741194333269789
0.07448458100629551 -0.14226774292067274 0.1077250443066345
0.07343863506791769 -0.1406251538192435 0.10747138564934614
0.0739863731166198 -0.14079456033630786 0.10794632148379167
0.0736516814209957 -0.14013661737277083 0.10788274447154762
0.07320307800293324 -0.14000360958788463 0.10748538018068285
0.07242525457186644 -0.13845303085367244 0.1072920154324574
0.07295465231816783 -0.1390847638630702 0.10759242365088668
0.07243211413257028 -0.1376805714318883 0.10756304244583871
0.07298236234602011 -0.13788149389102142 0.10804659805422827
0.0726402076332516 -0.1371753071288214 0.10793294906922458
0.07219322585168368 -0.13703196218184982 0.10754220492756368
0.07141342342359813 -0.13557693565489162 0.10725647098287219
0.07195015585390153 -0.13612609905967366 0.1075923610771472
0.07135172299168983 -0.13459898135257092 0.10748104791669182
0.07190704427777699 -0.13507814431310236 0.10786468662686144
0.07133409762623515 -0.13378704420064835 0.10767759723051544
0.07190172393202239 -0.1339957137622345 0.10816530228195942
0.07154755505180363 -0.13327158517386833 0.10799831472891303
0.07107667594824145 -0.13309256373158382 0.10758908423365451
0.07028609151118813 -0.13183316910398957 0.1070817301480968
0.07079204456182189 -0.13205148094147315 0.10752272338525704
0.07088631892619973 -0.13091151541919233 0.10778683081438449
0.07089824966699361 -0.12991290397569163 0.10797429070109438
0.0709110559248932 -0.12906629323983992 0.10816319537421548
0.07007082256500051 -0.1274908726748925 0.10748924115014219
0.07064703149887364 -0.12808657756881445 0.10807400049968488
0.06998120641827128 -0.12653625707781058 0.10756943853408947
0.070388643757215 -0.12709345445283468 0.10798407515367396
0.06991949620221347 -0.1255662738420251 0.1076813017155385
0.07038711246272955 -0.12625025848020172 0.10815504876721449
0.0698538347955057 -0.12456656090824203 0.10776663229663248
0.0703301120694004 -0.1252522918692535 0.10827876063857275
0.06977579018773336 -0.12357340194499292 0.10781592030274478
0.07025164867501689 -0.12423288519390484 0.10835255599726343
0.06968142239654813 -0.12262143853629844 0.10783966922112834
0.07015625377202998 -0.12321145961550653 0.10839348010642809
0.06955556791807423 -0.12186853169763998 0.10782283622211576
0.0700246456251921 -0.12210955712235037 0.10839845417918345
0.07007060810721633 -0.1210589350328707 0.10869666085782839
0.06991618616983494 -0.11998891891677041 0.10878384872270938
0.06982236363927481 -0.11912811925749986 0.10893182380547162
0.0687053272277071 -0.11778515775634167 0.10839046286246587
0.06935478570685755 -0.1181228305278136 0.10882988743135101
0.0693221185351088 -0.11713734130037408 0.10917355855199869
0.06823613043240087 -0.1155597384910598 0.10896719753823567
0.0689399274323094 -0.116212081581964 0.10920506901479811
0.06810117512520934 -0.11473437925044136 0.10918927694541548
0.06875707686039338 -0.11515808932082307 0.10947805931650423
0.06810374953246913 -0.11418854551103699 0.10939569750705876
0.06861061986906311 -0.11431820021387903 0.1096938772916622
0.06854472049450083 -0.11391830542151248 0.10979796193468051
0.08959921444446327 -0.1791975641087456 0.11231305255586511
0.08982768157642372 -0.1790690051548467 0.11262284986020563
0.08907982697792266 -0.17789654855395964 0.11160057622302666
0.089402011222497 -0.17836253089677387 0.11209858091850858
0.08968268739628918 -0.17884625537710308 0.11246600614641114
0.08916453105264974 -0.17691653397781876 0.11163998389253281
0.08956017843566404 -0.17731376614003677 0.11231248385072355
0.08925361246909695 -0.1762651424057493 0.1116998919188135
0.08952506082905386 -0.1763095626333617 0.11218656653206305
0.08900050072458199 -0.174511241850506 0.1109246993243165
0.08922051703503882 -0.17505090617266053 0.11140927125984942
0.08940682517428789 -0.17563139679607004 0.11187175966334063
0.08910650536363854 -0.1737154824914161 0.11112027861791318
0.0894371164193233 -0.1739495868422736 0.11175496966477094
0.08930880620937118 -0.1732227162538577 0.11155651887383082
0.08897573056538793 -0.1729965732262553 0.11102086254116501
0.08834098590612287 -0.17203461581901242 0.11028602687840688
0.08867153234303031 -0.17219605201847007 0.11074163945848603
0.08768588044514443 -0.17076011246654876 0.11003051873712813
0.08809844699969671 -0.17084723384897849 0.11050663493676618
0.08844019890299151 -0.17148055500387988 0.11068132461559965
0.08698103462198485 -0.16931464837916846 0.10976937117025955
0.08742423593231959 -0.16965669202349437 0.11016322475622616
0.08776102221862174 -0.17023885721542423 0.11033163577081607
0.08696625315160411 -0.16880393936219043 0.10994711285117151
0.08729940942541221 -0.1688228831800673 0.11034111148640262
0.08628944668541116 -0.16728124830067326 0.10956807618725951
0.0866647296877139 -0.16776328839573335 0.10988077951768874
0.08703938445744891 -0.16825647684750317 0.11020659534297937
0.08632868388500893 -0.16670971283064204 0.10975753926377757
0.08675232604013104 -0.16674183622635422 0.11025340325557288
0.08555363771698138 -0.1652332237389674 0.10927728729707607
0.08596284702282617 -0.1656878545540121 0.10961260545935524
0.086365902162062 -0.1661306269391138 0.10996424916276785
0.08560118187691829 -0.16465035462611466 0.10949146165501782
0.08603024044014322 -0.16467435395975552 0.10996664420498255
0.08486226496260464 -0.1632768109186326 0.10907049237201764
0.08525369705192976 -0.16367073722453715 0.1093974525671251
0.08563266446074065 -0.16410731744968002 0.10969055022912724
0.08485301055885941 -0.16273094710845293 0.10921336103246783
0.08530157355159286 -0.16276229026478084 0.10968367819553955
0.08403216220285584 -0.16133189001465403 0.10868624313715
0.08443357792641469 -0.1617396377264056 0.10903618716444216
0.08486137342100913 -0.16216762097923754 0.10938283266787109
0.08402154684851501 -0.16066102039031865 0.10886704303420007
0.084390421155477 -0.16092107175867762 0.10921548913496354
0.08426387948922387 -0.16028134901814162 0.10924721820560969
0.08387907673805241 -0.16001585529918944 0.10887721980858324
0.08326596206765431 -0.15838568592909785 0.10861004996213537
0.08375029663009692 -0.1590487226066983 0.10898417655326843
0.08323021751821504 -0.15761583618406153 0.1087978821809015
0.08381727027456562 -0.15787901053327746 0.10934740063476396
0.08343244832678792 -0.15711057009235094 0.10916616722853147
0.08296171997982857 -0.15695385716057134 0.10871742073163596
0.08225561616399556 -0.15563833820797843 0.10840724762530361
0.08268366023339754 -0.15606977494072397 0.1087128705125541
0.08254764955022571 -0.15528213100941696 0.10883632856206102
0.08211686616501111 -0.1549764051978035 0.10849426819695704
0.08141871385501818 -0.15336979088612485 0.10838763388839086
0.08194880025152612 -0.15401849654615557 0.10866824599372482
0.08145384995262069 -0.1527601666992837 0.10865721223350819
0.08198873862400048 -0.15281138257231003 0.10916397805927856
0.08048146947273725 -0.15128967315230737 0.1083611802784333
0.08097213944558175 -0.15172622089183924 0.1086290687707202
0.08147046041033394 -0.15217440974339924 0.1089124636398999
0.08050452186668056 -0.15072711075661202 0.10865009179288114
0.08099872213896496 -0.15075379619091814 0.10910871091697255
0.07949255662319041 -0.14938166261781072 0.10837728964184717
0.0800662477348909 -0.14959429233178198 0.10881266187093505
0.08053170291197718 -0.15019375805348192 0.1089434130235028
0.07972396265781931 -0.14892716923565932 0.10883311072503915
0.07926298741139405 -0.14874416000850518 0.10848694810670431
0.0786171667471761 -0.14759523483511425 0.10845101465342655
0.07907864131651286 -0.1477696377388071 0.1088048463445288
0.07756623253198087 -0.14636830310414653 0.10810888949687776
0.07810606737799651 -0.1467232020635925 0.1084173565131862
0.07861362858657893 -0.14711206906348326 0.10869312402359904
0.07754165622323146 -0.14583084982806702 0.10837128984938266
0.07802854607985199 -0.1458082876369177 0.10882971528528616
0.0765479464417636 -0.1447635817382996 0.10812821491687716
0.0770589395893535 -0.14482146558279882 0.1085316704978235
0.07751933004636181 -0.14534932661088545 0.10862042335867596
0.07556198483505064 -0.14334616387719987 0.10812117876080993
0.07606790156646746 -0.14377841872396227 0.10831387015461501
0.07657316955258311 -0.14422829446322785 0.1084747902876191
0.07557014872069612 -0.14279195381159454 0.10846399993906401
0.07609739556456983 -0.14279443718321538 0.10895615065719397
0.07445128954339335 -0.14139071979208467 0.10813657298532253
0.07503130232753522 -0.1417095752972244 0.10856235132741406
0.07557380488199333 -0.1422176157469338 0.10881102886654453
0.07442967338854302 -0.1408350045061706 0.10838665602969105
0.07479275286369037 -0.14084662399580025 0.10876005032935013
0.07356040786901394 -0.1394057631545603 0.1080792420574681
0.07403421283876105 -0.1398180505092341 0.10841033857884427
0.07446802614278167 -0.1402796946842364 0.1086809384358776
0.07346076621262562 -0.1385176607476704 0.10831142232726132
0.07402012993160927 -0.13883751497906757 0.10878251311872043
0.07342763849744093 -0.13792403153754965 0.10849659296175201
0.07379062227281022 -0.13794307299396094 0.10887962429228187
0.07254075898695721 -0.13642285326792192 0.1080839615273144
0.07301951881008689 -0.13684697007946073 0.10844274892914445
0.07346146427220356 -0.13733751532395286 0.10875281453478533
0.07242179333810685 -0.1355222356154778 0.10824844726141726
0.07298307584836287 -0.13582917178778983 0.10874772804367769
0.07235484137748087 -0.13465126206569236 0.10843311592589937
0.07275098546330401 -0.13502408853968026 0.10874126167130309
0.07235344131329588 -0.1340892398852012 0.10858981312420155
0.07275186199330111 -0.1342097073439975 0.10897188407321737
0.07145029304339044 -0.1324896381212899 0.10806639124429787
0.0719440664377435 -0.1329774186880395 0.10844684251120522
0.07239165694414172 -0.1335108860094595 0.10877370911714797
0.07139575461548091 -0.13150423585087823 0.10819293150525365
0.07192505231717838 -0.13202543383747609 0.10861809930295517
0.0713908880678328 -0.1304879951405643 0.10836625779242
0.07190117116035959 -0.13103456967426455 0.10878197344264708
0.07135977243250514 -0.1295116687598796 0.10852880015716987
0.07187503339892852 -0.1300294299829319 0.1089476611109278
0.071245124772988 -0.12858505155866104 0.10861473485628628
0.07183698743184228 -0.12896480657006926 0.10914491241367423
0.07113153748428275 -0.1278172118726396 0.1086828058107045
0.07158012476174405 -0.1280176408283379 0.10910661356280638
0.07133845098483409 -0.1273285831761357 0.10902960851181594
0.07085527994399288 -0.1270208051743784 0.10857055149862585
0.07081186163661762 -0.1259295131309369 0.10875530925840736
0.07074122537411752 -0.12489869057047281 0.1088681498600304
0.07065680242078132 -0.12387623738706269 0.10893459737189505
0.07056127839052931 -0.12286385513774482 0.10897558385777749
0.07050090832498651 -0.12194428324612902 0.1090571666316006
0.07055248819842364 -0.12131569503036488 0.10923131837936852
0.07046459287537898 -0.12059826383829951 0.10923646988486634
0.07091734917104114 -0.12117465782531334 0.10964788699755565
0.07039662799711159 -0.11966980862359014 0.10931249663647492
0.07094068501558595 -0.12032582666837385 0.10974518527246857
0.07019269396151909 -0.11864803125953312 0.10935972531147292
0.07099441910717405 -0.1192675577876359 0.10987655809053755
0.0699437962159348 -0.11762022031852133 0.10944466809676574
0.07070122236151921 -0.1181037576298722 0.10982306132475143
0.06971493322655925 -0.11663393956334754 0.10959282827470498
0.07045905405176997 -0.11708700019227251 0.1098881701212973
0.06947068577200688 -0.11564749574727232 0.10976737415533046
0.07022680801975563 -0.11610389587383467 0.11003026180892247
0.06927689837795116 -0.11470626466279622 0.10999584522506671
0.06999794139285612 -0.11514551933137314 0.11024122108475887
0.06915369151842851 -0.11401000588118826 0.11016339084691065
0.06980924203232183 -0.11426295818709674 0.11047096956631287
0.06980778701946444 -0.11369952427527882 0.1106802075407893
0.08986824741870537 -0.17800245718294505 0.11277910249313206
0.09002213340415832 -0.17848771953488457 0.11295007661611328
0.09000499584640984 -0.1771888837749843 0.11301325536689423
0.0904291359602773 -0.17736226989444792 0.11358219376856216
0.09025591418799096 -0.17667030582055104 0.11340946063334034
0.08992531113070415 -0.17644091125842534 0.11285728532773297
0.08960175367300467 -0.1746982172518396 0.11212162825533528
0.08991794742460785 -0.17530544007314924 0.11275776695138395
0.08971707043277681 -0.17408259332269782 0.11225566064240036
0.08996114029708142 -0.17419583571306285 0.11270766723683447
0.08932851907214563 -0.17265558729952693 0.11169090917307767
0.08966518181140141 -0.1728482310273239 0.11225808550340566
0.08985123621231086 -0.1735375378025652 0.11250399188266116
0.08949802289883947 -0.1721792544549966 0.11208087167004842
0.08917171208508415 -0.17208034427814983 0.11156422822599717
0.08853245567958758 -0.170909683219406 0.11107000154635621
0.08900801425827731 -0.17105359940377649 0.11165585393878007
0.08785744472943446 -0.16959842420073173 0.11070421506666503
0.08817256814056243 -0.1699097369241271 0.11098278818879963
0.0885861486886738 -0.17029716067057818 0.11136919195627833
0.08811013876555093 -0.16925087992106785 0.11116604932680821
0.08775234652997888 -0.16896594878223886 0.11083434300102796
0.08712787146333573 -0.1673871940798407 0.11054517083861158
0.08764128248576085 -0.16794389034418672 0.11103858355479355
0.08715157757529855 -0.16679361178544377 0.11073163390989559
0.08748879634885295 -0.16686779928463055 0.11113844886120126
0.08643302051591041 -0.16526058921540862 0.11026523323402984
0.08683335960596773 -0.16573149815962893 0.11061786505359208
0.08722116763162775 -0.1662288046023443 0.11097013976300532
0.08647333206786433 -0.16467880547004013 0.11045953196656491
0.08691192588935202 -0.16473209774420897 0.11094606426846708
0.08567204667149834 -0.16334053603308227 0.10993739011050563
0.08606491181103233 -0.1637325682188422 0.11026253747095237
0.08649703683465063 -0.16411978180725917 0.11063378553618791
0.08571211558373056 -0.16284251611021186 0.1100942260752827
0.0860420682833555 -0.16295073329126264 0.11040664038070874
0.08485835850431649 -0.1612864118218725 0.10960719118289244
0.08535257229897726 -0.16180123933799206 0.1099738316984984
0.08580077984369525 -0.16233434868161148 0.11029115873676112
0.08474766089639442 -0.16029989175387935 0.10973530144149816
0.08536034198391955 -0.16084591519197036 0.11019558781004316
0.08429451097662195 -0.15959968913119119 0.10943911388900271
0.08478102774437432 -0.15937718221837174 0.10997916082694527
0.08529675977658309 -0.15987295763671916 0.11034904566754687
0.08435339029934688 -0.1586711371260402 0.10970749981654708
0.08483975128642149 -0.1587481974695157 0.11016569312714013
0.08517294324330617 -0.15913524095993362 0.11039252896906857
0.0843060575475094 -0.15801792503536666 0.1098031943068781
0.08469525719547585 -0.15812343338965698 0.11014766868700629
0.0833079700578103 -0.15633872445214567 0.10926914409001391
0.08385377590783404 -0.15685880978483205 0.10966095440198814
0.08435961401960791 -0.15746518395690953 0.10998491774816328
0.08311939210453836 -0.15527827429846558 0.10941375484858148
0.0838183262941505 -0.15588046140940984 0.10990065377615639
0.08257827680776095 -0.15453307100507985 0.10911759144278967
0.08312670293461191 -0.15423082453118425 0.10976127693037811
0.08382474161348488 -0.1547391479720281 0.11024596700665543
0.0826201911799522 -0.15350857809448382 0.10951914834576629
0.0831543986310887 -0.15351862122461052 0.11003010300809711
0.08350389784163172 -0.15389782649598094 0.11023110007876528
0.08253247488022827 -0.15280502458208578 0.1096891988034508
0.0830342485825578 -0.15275870773515043 0.11018325882430118
0.08147785506429797 -0.15132376322921928 0.10929443023048901
0.08197664354553054 -0.1517692374445952 0.1095766389377838
0.0824955364552455 -0.15220620126600726 0.10988926507781657
0.08147870022527985 -0.15078845078386574 0.10954121469669957
0.0819496402674357 -0.15082278034847452 0.10996797756110467
0.08056290580172655 -0.14966715555070617 0.10923995284304074
0.0810462495267368 -0.14976743811455273 0.10964102790015649
0.08147368448801753 -0.150315972197617 0.10976399034386927
0.07965736872093093 -0.14826576985548726 0.10910743632968296
0.08013502067433577 -0.1486720969647437 0.10935087585295218
0.08059620916433043 -0.14914943701681024 0.1095372957002149
0.0796126574247802 -0.14774469084072187 0.10933380322157085
0.0801223345708751 -0.1477750017087042 0.10979868721723571
0.0785695499062689 -0.14631384238716166 0.10906493842377174
0.07907946497323953 -0.14675135668062042 0.10932236931220943
0.07959225573123993 -0.14720293419318733 0.10958548974418952
0.07852834393714173 -0.14576637098390102 0.1093130177182538
0.0790409177963634 -0.14577691192517434 0.10979002034922535
0.07752474688446316 -0.14487941582370747 0.10889112005348306
0.07790129401567435 -0.14497867780899212 0.10917592440102787
0.07846188295515205 -0.14520987216092246 0.10956051810186461
0.07661026097245084 -0.1434006300289326 0.10903017373530624
0.07712020852679806 -0.1438881814924978 0.10916487337795577
0.0775963013531305 -0.14440321263170514 0.10925147413039378
0.07662779907092078 -0.14284115778832762 0.10941230323359383
0.07716783125631427 -0.14288511973086326 0.10987375467940957
0.07555865672842936 -0.1415084069177605 0.10921475325855656
0.07612815099170646 -0.14167646749146834 0.1096969095545216
0.07663080211877799 -0.14228733909030122 0.10979096385683453
0.0757522517652708 -0.14101444418966835 0.10970216174801094
0.07530259778021953 -0.14089569498990176 0.10928043664953994
0.07448924505496188 -0.1394155009337014 0.10907038757441095
0.07505153974060261 -0.13992734126126802 0.10948114049874598
0.07447125508616284 -0.13869182690947504 0.10934912486210566
0.07485800218196162 -0.13890477381056204 0.10971307641040091
0.07467653205278461 -0.13824468200374138 0.10977522499432463
0.07428198371815478 -0.1380354504597038 0.10939345544034063
0.07347019688538027 -0.13642309634932717 0.10908779802485534
0.07405623458095592 -0.13698511875290054 0.10954498601859156
0.07343589377179394 -0.1356471293083091 0.1093118427169803
0.07384503730360478 -0.1358834772254824 0.10970286891375942
0.07364768890715058 -0.13518112737210422 0.10971206928653861
0.0732091581302243 -0.13491207933409874 0.10928160087576923
0.07321354391764322 -0.13406377260468905 0.10952997598510307
0.07242698635677776 -0.13257377648660953 0.10901353961982992
0.07294874640729586 -0.13323639261824313 0.10943330522330072
0.07240881233303499 -0.1315770839427255 0.10919380953546884
0.0729082827903848 -0.13213617111074208 0.10962131971376904
0.07238652213401237 -0.13058126195160508 0.10935835388488829
0.0728804550110322 -0.13113467392402267 0.10978266096592894
0.07236207587646516 -0.12959764999212695 0.10954235530731601
0.0728608146094787 -0.13014079474660126 0.10995423986305279
0.07233445405503736 -0.1288256493929015 0.10969797663551836
0.07286602764601781 -0.12906370290881053 0.11019744183324671
0.07251607677383604 -0.12833958587514346 0.11000477011756425
0.0720857177452684 -0.12816193947489352 0.10960352727309906
0.0713023980656032 -0.12653392275687908 0.109189756552352
0.07182455073971525 -0.12720832309790842 0.10957603335611937
0.07123828525504877 -0.12552690246222997 0.10934420956305893
0.07175893903724287 -0.12612180432418635 0.10977797484514719
0.0711587531411637 -0.12451111915795675 0.1094482066338811
0.07167507595958307 -0.12509947877095975 0.10991648388439006
0.07107468009962925 -0.12350130699999541 0.1094983913427189
0.07158961935889617 -0.12408792692379603 0.11000190043167948
0.07096730650605237 -0.12252873023111409 0.10951845341775121
0.07149542820206511 -0.12306645613605975 0.11002901377838485
0.07084871595932689 -0.12179109839605494 0.10949781915430531
0.07135446428696972 -0.12197940640845378 0.11000186768756601
0.07142146812481732 -0.12100246934974752 0.11013114693611864
0.07149580385523474 -0.12014785832450735 0.11021997191387353
0.07182817352070876 -0.11943033163636063 0.11046834219436086
0.07144130989342007 -0.11848202780785286 0.11025238230910239
0.07207189242380006 -0.11866157885755249 0.11061804980419834
0.07121015165634192 -0.11751306068170257 0.11021206070600803
0.0719262765638409 -0.11787721856881699 0.11057092721157352
0.0709936245169729 -0.11654731653513031 0.11028473633388103
0.07174222551970391 -0.11695692304427513 0.11057408004956873
0.07077717014200174 -0.11559436753607089 0.11043818209095335
0.0715469824897928 -0.11602337822032498 0.1106692365086273
0.07051758129967249 -0.11466467117317822 0.11068032729130285
0.07129158946097915 -0.11508372107523596 0.11085534317589703
0.07033034691363788 -0.11386878126147759 0.11091222669050806
0.07100145924871039 -0.11422615373468728 0.11110963696635535
0.07025430218754584 -0.11348047828890596 0.11102631868177695
0.07086871105139306 -0.11362541073671345 0.11129804171690769
0.09095561572564821 -0.17728778148910238 0.11423021975084177
0.09123147161534498 -0.177081013675892 0.11458577989078939
0.09032380385405508 -0.1758498408857243 0.11345680211150212
0.090661543422949 -0.17637475189469348 0.11397392244125688
0.09101678007759396 -0.17687327042367243 0.1143721700859902
0.09038733148601 -0.17505114870752594 0.11352875120189386
0.09083369971256211 -0.17527565466016778 0.11418299275409985
0.09061172014708631 -0.17454480501018893 0.11387687311880407
0.09030084723484 -0.17436018929692482 0.11335719719982483
0.08998964661764763 -0.17301273730120398 0.1127846899943305
0.09033779435582913 -0.17328876990606357 0.11334779907266596
0.08948000486416378 -0.17150080562706574 0.11224086796306786
0.08982640340837934 -0.17189769722595238 0.11266533126567571
0.09011024604741924 -0.1724585186068402 0.11303834644436575
0.08948234985386212 -0.17095702402637955 0.11240103487553901
0.08991960147414602 -0.17096874826672656 0.11302021069728115
0.08856664267294768 -0.16925974999290921 0.11173862138236425
0.08910027256760639 -0.169844295898492 0.11217024025207674
0.08953743369245426 -0.17036568057947743 0.11260413884028124
0.08816172593894706 -0.16856849147146066 0.1114982575172207
0.0886386650500817 -0.16830626432097698 0.11219270766101783
0.0891864331750317 -0.16873446439282122 0.1126768385474831
0.0882678209119783 -0.16773338009562205 0.11188369538204447
0.08872602732300222 -0.1675633458670276 0.1125162479005371
0.08895727309134191 -0.1680334486199177 0.11267405317869987
0.08841300238554246 -0.1670945621678125 0.11223359351887999
0.08799171110534378 -0.16698578800148778 0.11173321551045352
0.08729766779946224 -0.16538151182732364 0.11126102164315636
0.08780256671227875 -0.16595110648275058 0.11175767917902522
0.08732611551105658 -0.1648103055120971 0.1114111258630257
0.08766812394056635 -0.16493103892403158 0.11178976560393385
0.08651413437115604 -0.16325274035739565 0.11083617369475822
0.08697629431874941 -0.16374562783407615 0.11123825496256165
0.08740058239498665 -0.164272222438445 0.11160225027388189
0.08643210234064849 -0.16223333407097526 0.11093195298906515
0.08702634729279225 -0.1627944129152527 0.1114503719589428
0.08590806398072472 -0.1614609011588649 0.11058387666781475
0.08649281042009914 -0.1611933546735519 0.11117686161932817
0.08714101112423273 -0.16170676639084833 0.11170985883218712
0.08597611819411657 -0.16040645949888893 0.11084553812607299
0.08654717117435101 -0.16049734140118133 0.11133922942646987
0.08688912744551236 -0.16088211195154367 0.11159418396764005
0.08574721410672463 -0.15923436086138554 0.11086358055383452
0.08642275311272231 -0.15976875715871647 0.11134441020655103
0.08521254621012996 -0.15847994472637805 0.11054375612163407
0.08572348529592241 -0.15823876704529616 0.11101387264413304
0.08641655777307827 -0.15875584637486967 0.11151042627542994
0.08509756408767301 -0.15743078243952668 0.11064945383657152
0.08574253013364795 -0.1575525639909375 0.11116246541274509
0.08611118625196387 -0.15796844275914143 0.11138220951095115
0.08441450060650954 -0.15657770560895415 0.11025764212251297
0.08496830991479462 -0.15631384864539918 0.11080620344466165
0.08567081679867371 -0.1567350206336679 0.11129303360842767
0.08442217836945629 -0.15557901622375325 0.11053312258575602
0.0849238325732659 -0.15562992582447832 0.11095793141662494
0.08530869705620157 -0.15595823086110147 0.11119217481800238
0.08433277016327066 -0.15493261807447453 0.11063909938734537
0.08471866660548039 -0.15503075867558194 0.1109530646963543
0.08351491774858422 -0.1532641667004448 0.11045412746462743
0.0839425769513875 -0.15379998243123977 0.1106626163353053
0.08438489165015362 -0.15441272895522803 0.11085035374129183
0.08350310040158711 -0.15278685754114713 0.11060671463859767
0.08398943485188368 -0.15289411365545666 0.11101354510053497
0.0824672042309727 -0.15137412068720543 0.11020967251217577
0.08298103013001024 -0.15182093546009923 0.11050037182661222
0.08348519172562688 -0.15227751618945604 0.11078256753210519
0.08244376522801089 -0.15083353629894578 0.11041911103068511
0.0829494703972734 -0.15090003814752131 0.11084930797308093
0.08148987806064766 -0.14985961795335148 0.11000496246741372
0.08185169108570643 -0.15000662326480121 0.11026314682049594
0.0823874368304426 -0.15030676882530294 0.11060653733895162
0.08063230510975365 -0.14837334801292273 0.10996636668860463
0.08111955213753423 -0.1488899436408916 0.11015078417118537
0.08156955901330806 -0.1494277424243465 0.11029300159903822
0.08063730538335472 -0.14785192483675094 0.11023451937149646
0.081171036422426 -0.14798569061810776 0.11063710480724466
0.07957099831712507 -0.14638373853175454 0.10997187099484404
0.08009125298009002 -0.14685560166448391 0.11022281034783037
0.08062171409741996 -0.14733534869268744 0.11047048683784287
0.07955465750513627 -0.14584457992648103 0.11023143196187189
0.08006540011375803 -0.14594894953310825 0.11064778508391562
0.0782448245381154 -0.1442824116891364 0.1099132710914531
0.07900661855126812 -0.14471463579738267 0.11034868664871413
0.07954306304036998 -0.1453302610960534 0.11049441741744473
0.07769960335687286 -0.14362594921054014 0.10984493894107455
0.07824138125236055 -0.14338415189835926 0.11048376097180954
0.07878721881074154 -0.14374303078785713 0.11074153618760865
0.07781235788513065 -0.14296529230155142 0.11039015450864369
0.07826264991950085 -0.14265753493582992 0.11100091563529091
0.07863598879991665 -0.1430988234656416 0.1110233555895765
0.076630988043133 -0.14173714412968433 0.11016426197885616
0.07713985774083887 -0.1417908250702118 0.11060906758027887
0.07768664578139364 -0.1423161794114153 0.11073810048998095
0.07561901002644277 -0.1403269150800606 0.10993455359558772
0.07615474371235466 -0.1406358360218505 0.110354501564726
0.07663787508255158 -0.14118907481332896 0.11052470408021427
0.07552635000447981 -0.1396611687556703 0.11017250241670777
0.07592620867812096 -0.13979339398503585 0.11056784310017245
0.07571591725240874 -0.13919820707201838 0.11061700693364884
0.07532166548505023 -0.13904288396548367 0.11021045386049376
0.074639081828368 -0.13749593346370234 0.11003384579261585
0.07511618360868469 -0.1380871240765306 0.11037026449084943
0.0745830386674859 -0.1367183776530654 0.11027413877883317
0.07510012061808194 -0.13690439701970541 0.11083530133973796
0.07476055704466758 -0.1361790472942106 0.11070004306982235
0.0743378874004771 -0.13603031968796453 0.11023425918084041
0.07362398552272158 -0.13442914474664866 0.10991419866550145
0.0741019505420158 -0.13502908424269516 0.11030017671779738
0.0735072621042643 -0.13354028235741258 0.11001711834055723
0.07404197544929589 -0.13385418320926212 0.11058802084762939
0.07339156346010711 -0.1326381429779429 0.11008565271665616
0.07379753725782429 -0.1330257536960472 0.11050008951205001
0.07335060093314574 -0.13168303686454672 0.11022883277352302
0.0737980283964845 -0.1322221576140933 0.11067106668099774
0.0733259642204069 -0.1307185189628174 0.11037734955523948
0.07377355779758232 -0.13127486137803762 0.1108212187194098
0.07330471617947004 -0.12978697369898556 0.11052950970877314
0.07374618114981886 -0.1303187437667227 0.11095447868520282
0.07330669246166979 -0.12919144444192146 0.11064819166847395
0.07370488224692576 -0.1293299678721399 0.11107708761453998
0.07240524974686076 -0.12759325086931483 0.1100810604220938
0.07288558448668266 -0.12806132112825344 0.1104519993609094
0.07334052421920063 -0.12860247390314303 0.11080690162386544
0.07229600285011861 -0.12665048560391012 0.11020968954519192
0.07283130983597155 -0.1271321518606993 0.11062225064888653
0.07220920226012395 -0.12564858155474462 0.11035650113596848
0.07275427016832377 -0.12616036615472234 0.11077090945708291
0.07212244110689527 -0.12464520899812362 0.11046761438103292
0.07266679106671456 -0.12517102519685191 0.11090363376886608
0.07204337984952415 -0.12363665031882894 0.11052821138478182
0.07259252330655633 -0.12417820136671118 0.11099356642659147
0.0719647180279436 -0.12261834789666838 0.11055546653066056
0.07253031799527103 -0.12317658067763579 0.11104215946668827
0.07193800859033772 -0.1216251502171082 0.11057788255324402
0.07249929439206211 -0.122182047240209 0.11107081235268419
0.07194086801085066 -0.12070639664105516 0.11057838281643297
0.07251111493932093 -0.12118068483080821 0.11106749865571294
0.07190991915179029 -0.12010629749882815 0.11054334718198092
0.07242515438248431 -0.12012536700488655 0.11093890843883197
0.07252212158353284 -0.11917455880099022 0.11092159035205638
0.07266395057262158 -0.11828808103040803 0.11096677140498686
0.0730513803362706 -0.11888078234522552 0.11123945873410945
0.07248594028363688 -0.11733695301091954 0.11090264530328828
0.07328613471322665 -0.11838891576808024 0.11134231548126183
0.0732995984101515 -0.1176342568757766 0.11134085764848897
0.07373672741028207 -0.11821849458553267 0.11162982362670357
0.07231262390089004 -0.11642464470786255 0.11092905915086866
0.07297367895543871 -0.11680989011111874 0.11119012232297186
0.07421865943848326 -0.11768663515577149 0.11195304323879424
0.07371856542149145 -0.11672877669511687 0.11161253102631212
0.07444683983370962 -0.11687918210225953 0.11208252463661181
0.0720869602894077 -0.11548265030284474 0.11106880337568809
0.07298690469938048 -0.1159138447281223 0.11135768085238061
0.07371886864313439 -0.11590738770800273 0.11173432007428431
0.07420084515977642 -0.11626236063171251 0.11196871530850573
0.07174600834994098 -0.11455806236098422 0.11128422879937665
0.07256006560872214 -0.11488587802099272 0.1115056209657114
0.0733640782806991 -0.11515427126753862 0.11181439058307499
0.07143037902449842 -0.1138785496204173 0.11146621456771355
0.07213128220621533 -0.11394343743164874 0.11176426417338504
0.07292319471947063 -0.11426484518254817 0.11201236353924336
0.0715868052090264 -0.11352680703776794 0.11172244518432092
0.07219416591243719 -0.11342533780916253 0.1121264299350698
0.07259828806683168 -0.11361715661956487 0.11222453157240679
0.09114859486745967 -0.17601796345640727 0.1146228310878386
0.09143895326049971 -0.1764186552596556 0.11491985324513944
0.09124495049711796 -0.17540595858710034 0.11475560993090378
0.09165107891480902 -0.17550223457868536 0.11525379330358926
0.09065760873475413 -0.17385607356913077 0.11388107340166136
0.0909722795430468 -0.1742778335422624 0.11436497687550291
0.09133037446717454 -0.17479159196744692 0.11485129192269972
0.09073293179247455 -0.1733266446674595 0.11392714662814472
0.09101834464041558 -0.17346059196359329 0.11437360730375501
0.09025927275701875 -0.17161246772894848 0.11338610091148435
0.09056049873760844 -0.1722129991442959 0.1137835867691949
0.09086448861679856 -0.17281846221253822 0.11414988131034728
0.09034442016402283 -0.17106042605095764 0.11360045892818178
0.09076139119393238 -0.1712083522913774 0.11415665681713087
0.08961630327199603 -0.1694570555516253 0.11295235440212913
0.09001482406731123 -0.1699947050425204 0.11335630214036506
0.09041224648461811 -0.17051822437727582 0.11376833184066783
0.08965136926866299 -0.1688708020961147 0.1131789218250725
0.09009579861424781 -0.1690223762274502 0.1136696424647971
0.08899968468829082 -0.16769755846999182 0.11282091976812257
0.08924311909595198 -0.16790464551475148 0.11301912893672748
0.08965725765938572 -0.1683168379864898 0.1133450082555914
0.0883237206438472 -0.16644015618880056 0.11228569953116288
0.08872632877785408 -0.16683661094690655 0.11268288795537655
0.08906485054693339 -0.16731872021708585 0.1129732026135364
0.08831253780100981 -0.16579810501851291 0.11240720673989725
0.08869542685487036 -0.16610007221936243 0.11279853522702879
0.08857802461304758 -0.16545177123766844 0.1127690362195314
0.08816191140916975 -0.16514666027039723 0.11233162464062543
0.08749752326974639 -0.16339605041348212 0.11186590545472579
0.08800002359041414 -0.16414646959967388 0.11229714956002243
0.0875519909152969 -0.16248585433353965 0.11203389319284414
0.0880280390377209 -0.16304114613856874 0.11247675675420482
0.08760505505673676 -0.16192059830279107 0.11214104329360684
0.08796627270417738 -0.16211699379138916 0.11250090093435612
0.08691367679168144 -0.16023111505236404 0.1117092898395054
0.08731676854918309 -0.16078881988624766 0.11201102039313106
0.08771229657454777 -0.16140512330872053 0.11231638134847727
0.08689213811954845 -0.15947375440910705 0.11179976364407176
0.08736301000801147 -0.15995920115607626 0.1121706219286614
0.08689668115171864 -0.1589642966091377 0.11189125514374654
0.08727887979368434 -0.15913625624288624 0.11222561851893623
0.08611836729112582 -0.15737457434861152 0.1115160567192222
0.08653708242368176 -0.15789336006226934 0.111771100862944
0.08697176066530507 -0.15846599546134735 0.11206409880774332
0.08613552184254294 -0.15693220688194556 0.11163605719652177
0.08651515433307216 -0.15713233932564513 0.11192928013779152
0.08524260630504142 -0.1552883127900151 0.11133549024108436
0.08575564918119849 -0.1558308718142384 0.11162016532516969
0.08623562313515211 -0.15645901213615254 0.11186202427755476
0.08503374718771649 -0.15436223397178309 0.11144707160767375
0.08573988650529474 -0.1549132828499916 0.11190006507558953
0.08448267404942786 -0.1536557223358685 0.11118681357634347
0.08499262481349736 -0.15344883039688917 0.11171323862985856
0.08569796876154236 -0.1537860706831623 0.11225187750884694
0.08456939038000412 -0.15304572551985043 0.11147089601816595
0.08488586930717786 -0.15283299209036214 0.11183348195792087
0.08527455802312014 -0.15301765081308907 0.1121267881443851
0.08345022376539511 -0.1515122389321527 0.11104667777001138
0.08395517770076855 -0.15196945923827276 0.11132745111048749
0.08448978490929127 -0.15242361023312068 0.11163377582379505
0.08344558440392563 -0.15101098873336113 0.11123898851013599
0.08385519217374128 -0.15117116497320163 0.11154257581180756
0.08220192245731107 -0.14942788167596016 0.11084973637704135
0.08288848648747472 -0.1499582268421239 0.11120281602250835
0.0834935928951445 -0.15051307148165838 0.11148758601675371
0.08168215107953014 -0.14873662153408565 0.11072669047392394
0.08220363561958398 -0.14861978450247126 0.1112218523530291
0.08277816333784281 -0.1490644687888062 0.11149254803064249
0.0817927850045217 -0.1481793346561297 0.11108082678887955
0.0821475351269529 -0.14805269981879443 0.11142710707262367
0.08256898031473331 -0.14835014183485562 0.11163156353757935
0.08057914122624689 -0.14657343594952008 0.11079732562104001
0.08113379196526531 -0.14706807384420184 0.11103868757156538
0.0817294131785079 -0.14759162877505655 0.1112897360797775
0.08056243100151197 -0.14607319346555342 0.11102434806244724
0.08100926563508988 -0.14625781673249433 0.11131424812230815
0.07956879144570747 -0.1447064021400013 0.11086160214999459
0.08002833997922458 -0.1450840631974045 0.11106885984317677
0.08060882603979047 -0.1455764598892722 0.11131489132124203
0.07988051360013926 -0.14442996402173391 0.1113063951697845
0.07939069125966766 -0.14404904786983436 0.11109668409461516
0.07868921098350036 -0.14276121310432596 0.11130206745854813
0.07919794126475173 -0.14300916291564014 0.111599029121861
0.07763105792857651 -0.14181468957020962 0.11104878845559882
0.07811446180953106 -0.1418233269148646 0.11146642954280701
0.07866280692030199 -0.14232333957167537 0.11159131596756341
0.07663067028527223 -0.14051756840389354 0.11094366055753914
0.07715839575849229 -0.1407639062761639 0.11131524409785605
0.07759636539116373 -0.14134831875847081 0.11134313989260947
0.07682251814377758 -0.14008582164958785 0.11139617821538261
0.07639957691310184 -0.13990550613636243 0.11104126734492886
0.07565829600955014 -0.13846786099739727 0.11086789190875995
0.07615864668559559 -0.13901871237825086 0.11120820118948296
0.07555032135786947 -0.1375540836758985 0.11112442328892837
0.07609322846704986 -0.13791351165905977 0.11161886953150553
0.07550330830695817 -0.13696380803008512 0.1113082377681216
0.07584246073389304 -0.13702167761971423 0.1116843809216641
0.0746590720047854 -0.13539288826252804 0.110861919905129
0.07511903060877972 -0.13586529135360242 0.11125539112111618
0.07553414370290629 -0.13640479953686793 0.11155241938546151
0.07454206117732912 -0.1344367151061233 0.11103932999921617
0.07509620297605424 -0.1348339164838269 0.11159185739134601
0.07447383483126203 -0.13364399591368203 0.11119510314042262
0.07487569789771498 -0.13387095668503599 0.11162714050606705
0.07467507365916629 -0.13317981627221032 0.11156715767155484
0.0742386878779845 -0.13288288149509922 0.11108320533883449
0.07422051883584056 -0.13185083946410978 0.1112644065414835
0.07419266186847447 -0.1308840002499292 0.11139806586391089
0.07416560241845127 -0.12995402717490087 0.11150553308034321
0.07416713913611621 -0.12916384319674698 0.11162254165414029
0.0733511739313176 -0.1276618406308466 0.11102330738940493
0.07390108725594308 -0.12832611018645582 0.11146469168340446
0.07330088113455453 -0.12666963307215012 0.11118050734347543
