# .PCD v.7 - Point Cloud Data file format
VERSION .7
FIELDS x y z
SIZE 4 4 4
TYPE f f f
COUNT 1 1 1
WIDTH 793
HEIGHT 1
VIEWPOINT 0 0 0 1 0 0 0
POINTS 793
DATA ascii
0.09599545496653629 -0.16724626535691453 0.11116014222846596
0.09500021249728458 -0.16562096981386296 0.10993184966449983
0.09529575827423782 -0.16546969533953185 0.11047142265102503
0.09577072964798883 -0.1659380085431454 0.11104970421506123
0.09496148319145667 -0.16481915780571726 0.11012488394825921
0.09523877710695632 -0.16486205708822455 0.11060219040205477
0.09548808837289238 -0.1651742960902431 0.11089121255709025
0.09486918414787184 -0.16425973868780655 0.11017975839321294
0.09509138378708211 -0.16432699775104387 0.11055980447213411
0.09425784948812203 -0.16272226623055358 0.1096931663464951
0.0945418139143885 -0.16327198836935244 0.11004376582657785
0.09485607293410148 -0.1637922280391402 0.11038228775739012
0.09419581984482205 -0.16195607161248493 0.1100378055561476
0.0944808025545862 -0.16244705228849457 0.11042583715780678
0.09414901221191742 -0.1614505820540861 0.11027643555313336
0.09438113654205704 -0.16154772080841487 0.11086265930515982
0.09340439042392834 -0.16009300993974193 0.10985921929061523
0.0937369279924755 -0.16052719477629837 0.11018121754207352
0.09406235445511593 -0.16096359756366344 0.11054274692484926
0.09331158287923008 -0.15962790008312167 0.11013900375924093
0.09359541250465879 -0.15969150606549917 0.11066553299180887
0.09266715174659161 -0.15831307629030708 0.10987756712366724
0.09296128118071606 -0.15873654827996989 0.11014048102426165
0.09324882872605633 -0.1591539451198187 0.11041693969549261
0.09257048928894782 -0.1578446866182648 0.1101436724276972
0.09284604714096191 -0.1579256197827489 0.11062801753505982
0.09172359923856455 -0.15647985082363833 0.10972492167851366
0.0921281939541709 -0.15690785088929834 0.11006400517827367
0.09247455880490248 -0.15734665988877722 0.11039978471771544
0.09143375999360207 -0.1555793934708355 0.10997469613274041
0.09193845397309097 -0.15605972359683098 0.11039730782144158
0.0909341915389729 -0.1548695872875969 0.10981920370493388
0.09129143784878377 -0.1546831782333079 0.11041355743638197
0.0917396133814984 -0.15519080945006059 0.11071146143904814
0.09072240203390688 -0.15386476889916367 0.11026953115958324
0.09127134543595684 -0.15405303525636166 0.11080880524725036
0.09158252527775562 -0.1545067374623132 0.11093408382381108
0.09006451299373637 -0.1530055028152098 0.11009780827601878
0.09048245521775604 -0.15281358913256396 0.11070899037387952
0.09109086252922008 -0.15324213884940505 0.11117396889672324
0.08991030821327699 -0.15206854063001504 0.11058932448823675
0.09035265777696341 -0.1521695611813195 0.11101781198442692
0.09069158860711923 -0.15252736065638614 0.11117968869613705
0.08969216260268921 -0.15143035539728322 0.11081927585754846
0.09011202008178286 -0.15146670599367634 0.11127175631479773
0.08869361848001235 -0.15035823022361697 0.110663694774618
0.08900116524984027 -0.15053345206816238 0.1108224081655158
0.08952237819367242 -0.15087922550069813 0.11108329243140794
0.08792325704545345 -0.1495465971695523 0.11071255005267298
0.0882214775666444 -0.14970060040409916 0.11083051708708754
0.08866441042910507 -0.15002476071697068 0.11093898322661477
0.08683251842540465 -0.14857087992203655 0.11082247476991068
0.08732354878871769 -0.1486405450388542 0.11114561901419202
0.08791751284295911 -0.1492355472344482 0.11101475444471473
0.08569456347680224 -0.14750327409315173 0.11090391174103596
0.08614683901752074 -0.1476234150336945 0.11118170772632996
0.08670006887547885 -0.14814585230580127 0.11112983120959319
0.08430929112470094 -0.14619967574102627 0.11087625729163056
0.08501400292521034 -0.146637548328507 0.11110426617717536
0.08557896016837281 -0.14707791114337707 0.11121547829174865
0.08363781404493452 -0.14557708235679778 0.11086715170658024
0.08410195746353351 -0.14541027113550548 0.11141611311801874
0.08482716724030503 -0.14576249134717 0.11172060116729327
0.08361268784044308 -0.14500746539476136 0.11134002884728399
0.0839130689771602 -0.14484717304993347 0.11169872240150917
0.08433079042213554 -0.14505643713503436 0.11186681248670763
0.0822702130692724 -0.14328644968683213 0.11136798581955154
0.08289013303605502 -0.14385996236007498 0.11151852282702937
0.08346808898895001 -0.144414812869776 0.111637178969128
0.0816585780242466 -0.14254713185394227 0.11125913522916504
0.08220790783704578 -0.14254965485754306 0.11168728716339005
0.0827668998578757 -0.1430215826146057 0.11186241640447482
0.08126650504286394 -0.1416994102510927 0.11132843258902403
0.0818422108137263 -0.14173510026074387 0.11175802819658688
0.08253450858701689 -0.1421510641627014 0.11208768523141453
0.08119396829672892 -0.14082807921576473 0.11164837281701077
0.08179726805460868 -0.1409663809260111 0.11204475874567879
0.08224300938109835 -0.1414170232475836 0.11218091295335571
0.08074641894839517 -0.1396554608685984 0.11177590049268846
0.08152995998148227 -0.14016667115626516 0.11217413007952326
0.08009053703327178 -0.1388145370177241 0.11158000014403677
0.08059917285956494 -0.13859303349122096 0.1120949637548038
0.08123956488856302 -0.13915722698449945 0.11237612796219384
0.08002323005685366 -0.13775114197948604 0.11193249039180528
0.08057209156330873 -0.13787881210403405 0.11236261722868912
0.08098220440849338 -0.13834509485730628 0.11251087518495001
0.0797525379331845 -0.13664025131552004 0.11209311152269315
0.08035388124055864 -0.13710788016284256 0.11248982296635991
0.0795577387575711 -0.13561859998017425 0.112223731162021
0.08013064566287031 -0.13612410133383213 0.11264251441005291
0.07938324936822337 -0.13462270090753162 0.11235049713804317
0.07991726913750759 -0.13513810852311461 0.11276388921307545
0.07925190808999563 -0.1336383547176532 0.11245926007818166
0.0797668429832928 -0.1341753997779943 0.11288759519670508
0.07913448114275239 -0.13264160333139766 0.11256914605192253
0.07965883471433592 -0.1331849905897413 0.1130028127740916
0.07902368265365031 -0.1316399337239059 0.11267833086448002
0.0795473004913546 -0.13217482726629107 0.11310762284588459
0.07890390782155174 -0.13062596190281442 0.11279421854115167
0.07942769805647548 -0.1311576764145977 0.1132129201808554
0.0787832427757936 -0.12960542479412576 0.11291178533396594
0.0793074733350736 -0.13013701375773168 0.1133255308018075
0.07864884311210078 -0.12857519002184906 0.11302286038782543
0.07918455178011606 -0.12910809426798306 0.11343630919594393
0.07848537407701399 -0.12754289174646005 0.1131113068158957
0.07904583183343884 -0.12806595733124038 0.11354359847889513
0.07830091942855434 -0.12653266672493554 0.11313149596061826
0.07887914981036512 -0.12701146455699094 0.11362422373046879
0.0781200541173803 -0.12571052036526348 0.1130818781646701
0.07868084451289947 -0.12587576576615528 0.1136299384773705
0.07873127488947969 -0.12490884562176247 0.11381515154488206
0.07894154403857646 -0.12418324925919183 0.11413691097093943
0.07857676638003493 -0.12339192527243197 0.11371842611621279
0.07894036216339678 -0.12320663950298627 0.11431331466298437
0.07883393528790655 -0.12229143067127879 0.11450277861690246
0.07865564751915989 -0.12138261836892114 0.11478450393951102
0.07838538692927277 -0.120469052059856 0.1151175802073607
0.0779920471758253 -0.11952442095648613 0.11545722289536588
0.07757658029383535 -0.11856783348242007 0.11580596895992262
0.07741209006739047 -0.11798236751365153 0.11616088219389552
0.09660979040965172 -0.17407055489023257 0.11426064507342766
0.09669368550335299 -0.17425386075364438 0.11464831371785641
0.09661551899129717 -0.17371824163514632 0.11436741434333825
0.09672656096143814 -0.17384828658839022 0.1147857026312103
0.09643062931384386 -0.1721500559196441 0.11343510694240475
0.09651319571118964 -0.17269812694290462 0.11400380248421618
0.09664872568633381 -0.17327819190247423 0.11454744635707514
0.09650016061426163 -0.1717346135846301 0.11345362764090973
0.09658870166315806 -0.17197937651736328 0.11399077567326363
0.09663544268591569 -0.17005163784275407 0.11219216251097854
0.09665306510276844 -0.17064929454832717 0.1129138193656286
0.09661513576099261 -0.17130210287948192 0.11360198320172298
0.0966375066006791 -0.16916539176789916 0.1120509703333166
0.09684745818814765 -0.16979516615403803 0.11288184383031018
0.09638825788920957 -0.16842631719893614 0.11159695029113267
0.09670211401527258 -0.1683032678214326 0.11215805418512197
0.09695444695832676 -0.16885682584086661 0.11277911204348857
0.09637438363373317 -0.16750923736243845 0.11172055351286471
0.09677671676420088 -0.16770070959408453 0.1123178512457828
0.09697179993659084 -0.16812907680466024 0.11266864906832234
0.09608596372245659 -0.1667232785596782 0.11135870351026905
0.09637979590810783 -0.16669144987753923 0.1118435093677207
0.09666787755663239 -0.16706615018381862 0.11228844122401212
0.09618655087728313 -0.16623626603672917 0.11155248086043389
0.09640214677249712 -0.166161905344788 0.11193524122917771
0.09657700824165932 -0.16645042658832998 0.1122497637533534
0.09542121571516259 -0.1645661599998133 0.1110215209704934
0.09580088890646689 -0.16507745128349494 0.11137749881172958
0.09618270480952039 -0.1656704944624541 0.11170590018658043
0.09524229148716128 -0.16374170107949507 0.11112528251535594
0.09572307111922908 -0.16429125612666076 0.111641792890386
0.0948254044032122 -0.16304724338854348 0.11076811194767837
0.09515911737003738 -0.16286270819696727 0.11150540101850835
0.09564303071814845 -0.16338531812017232 0.11208216345217967
0.09477177012281451 -0.16219462886232303 0.11125023387390649
0.09506765702400759 -0.16228625179965905 0.11182686254118182
0.09532078388016776 -0.1626420657879052 0.1120739348682923
0.09461617381913139 -0.16162976739256885 0.11144815872805675
0.09486110553901511 -0.16168262796446964 0.11199982038969736
0.09394178568753409 -0.16024579350884272 0.11095401946870148
0.09422199500617104 -0.16069717631534716 0.11131341316167419
0.09450347618905694 -0.161150725468599 0.11166817038837175
0.09387825219298987 -0.15976189242494104 0.1112308063889116
0.09412110895746187 -0.1598808947954726 0.11179565416666126
0.09316920900472983 -0.15847093665301334 0.11081275686669821
0.0934719712146315 -0.15886038719498424 0.11112965586808601
0.09379587010993798 -0.15927409891789512 0.11150993568169373
0.0931237913784139 -0.15802725234481185 0.11108450241036502
0.0933449098826396 -0.15815083979212063 0.11144209777540667
0.09235562756071457 -0.15653578558745546 0.11077899576649937
0.09274208945504052 -0.15706112599059532 0.11111613550523507
0.0931042872395833 -0.1575792517887945 0.11141214124771932
0.09219669232236803 -0.1556502055736377 0.11113663681933211
0.09263045417728952 -0.15619158651304121 0.11155995417477259
0.09196408785204924 -0.15466334262343598 0.11146607313125811
0.09245316880094565 -0.155266225324299 0.11194265236587714
0.09156066123629134 -0.1539556460380544 0.11131285328505892
0.0918276806740643 -0.15385781122063794 0.11187980581059798
0.09230566100377187 -0.1542610253100042 0.11239434686349073
0.09151218875359725 -0.15344420833540826 0.11166308084814586
0.09167581414391525 -0.1533027482611892 0.11207271736342674
0.0919612417103596 -0.15352283004033065 0.11236532023115554
0.0905590257547814 -0.1519799699001942 0.11142279300169192
0.0909653041178635 -0.15241564626432288 0.11163592800029158
0.09137504943314069 -0.152886230096221 0.11189568596330748
0.09047049000397209 -0.15157063626800818 0.11162628474263617
0.09077647873289632 -0.15172631684166107 0.11193220115753186
0.0891745180324447 -0.1499962722084209 0.11151277744609044
0.08987026924662751 -0.15056063207169967 0.1118043637396073
0.0904158167493628 -0.15113642432304172 0.11197617913055644
0.08846888376485415 -0.14935062439923533 0.11141319417656718
0.0889369909993775 -0.14913732801398377 0.11212312560251252
0.08963481877942799 -0.14954805437526067 0.11251384509731503
0.08794412431894388 -0.1487793386091149 0.11151823274773814
0.088330403110546 -0.14863316502178417 0.11203357891898719
0.08876099293846114 -0.14843515037157973 0.11263404353250676
0.08919066313288272 -0.14886903902173423 0.11264781145035536
0.08658323363885422 -0.1477331550468501 0.11144478726319844
0.08696829812880588 -0.14786491712352356 0.11163680985508943
0.08764655747135279 -0.14808587088131833 0.11199343501506404
0.08819199954588297 -0.1480428033413305 0.11250500013474864
0.0854233268947133 -0.1464078328658829 0.11168302494581982
0.08597955363476932 -0.1468677771202266 0.1117514995316059
0.08652451612895762 -0.14732611695378253 0.1117850968640904
0.08535051629502595 -0.14595846078561153 0.11200874380889919
0.08577922398990662 -0.1461602163221363 0.11218950050019832
0.08405838280482893 -0.14433592730422223 0.11211707451504711
0.08474910085555909 -0.14490204049785213 0.11227759413867415
0.08536022554442851 -0.1455135411189671 0.11234292197371364
0.08340677890640269 -0.1436275677003893 0.11202306131484935
0.08394274346806999 -0.14344918599848577 0.1124935475931528
0.08458416623883377 -0.14403564094265942 0.11266207729356276
0.08329145639170622 -0.14265422496168825 0.11239294028131977
0.0839134893211932 -0.14277909762683638 0.11277692702043107
0.08437621773371765 -0.14326339540300434 0.11288800110789611
0.0828379964616702 -0.1415237384863095 0.11255433585334544
0.08360197644528697 -0.1420335971793864 0.11287192586829578
0.08218441209795159 -0.14072401667053827 0.11242479963635595
0.08268760980871975 -0.14057438607679 0.11284079650167139
0.08331578120088948 -0.14113285314422774 0.11304289558247865
0.08204173701346684 -0.13973109894496477 0.11272932727956032
0.08266337033200907 -0.13992261634711461 0.11309066714246689
0.08309795288927485 -0.1404122186501769 0.11319244146634261
0.08159331270231025 -0.13848500317759027 0.11294129612595816
0.0824058484669946 -0.13913043790256766 0.1132672638472131
0.0809383461233195 -0.1376400732274652 0.11277902803505802
0.08139267890283187 -0.13742994556590987 0.11328047353565959
0.08217456740845612 -0.13800795528986715 0.11363956364933132
0.08078481305769697 -0.13664671605756934 0.11308101042098682
0.08127108993675829 -0.13672781156777478 0.11352509815779584
0.08167631198838096 -0.1371390960607439 0.11368904544620789
0.08046529704602279 -0.13560867179674124 0.1131760335746148
0.08104903232730613 -0.13595091281331348 0.11364450902043681
0.0802751474900712 -0.13469611027182857 0.11329637585121818
0.08071604255112182 -0.13515212031980164 0.11362114277405422
0.0801892478845543 -0.13375083381902594 0.11345831795490671
0.08069017952457198 -0.13439080006026435 0.11384809446599763
0.08008831355080058 -0.13272209892621917 0.11358110458075124
0.08071072688142245 -0.1333420822704126 0.11413518888182395
0.07995439997440275 -0.13168283022335026 0.11366063820331422
0.08049305193784996 -0.1321876997756056 0.11414656793110856
0.07982429511681957 -0.13066460818426218 0.1137527688676555
0.08033787637755402 -0.13116803840593833 0.11420737273204297
0.07970106733181917 -0.12964324711594255 0.11386286363329606
0.08020730036973216 -0.1301645948208302 0.11429500627936609
0.07958094045432823 -0.12860814498727188 0.11397600445905122
0.08009269776495949 -0.12914173859305067 0.11440442737849539
0.07943983593274936 -0.12756096839012704 0.11409287392101064
0.07997249359460465 -0.12810627332068267 0.11452975060899945
0.07929143981421406 -0.12651286208746698 0.11417946998125698
0.0798336357182514 -0.12707241201007022 0.11466193233175291
0.07915743195681976 -0.1255212241820915 0.11425370818302434
0.07968567465796986 -0.12602420267037792 0.11477047698073953
0.07907291491813177 -0.12489131563520275 0.11425856913578814
0.07946130839397318 -0.1249186471766562 0.11475225148941055
0.07939005010037978 -0.12387740213725379 0.11483185473664068
0.0793043338498914 -0.12296519057492845 0.11497828843616538
0.07967993396457361 -0.1235298469336849 0.11539911577967979
0.07917407077872345 -0.1220614813689717 0.11520828326571587
0.0796569450528823 -0.12275420799795682 0.11564408123730009
0.07891196524361585 -0.12111000645475868 0.11553265867409511
0.07947046789277629 -0.12177318284004224 0.1159296762063053
0.0785614524730328 -0.12014286502944048 0.11589125214974186
0.07914491289137811 -0.12077489685258719 0.11628828251587509
0.07816826598527203 -0.11913981472032305 0.11625348617703256
0.0787821012159838 -0.11976392324023977 0.11665285281092636
0.07781641717409035 -0.11824859188697105 0.11659549064499217
0.0784142921654409 -0.11874350531788595 0.11701229187408914
0.07766499175734527 -0.11784368240193666 0.1167476613223644
0.07817169485904979 -0.1180002001683172 0.11727332571313884
0.09680458435846091 -0.17394629220210375 0.11507613298089023
0.09693495211441877 -0.17315157259702435 0.11534533023658225
0.09719051019722992 -0.17299100067183867 0.11590268480504115
0.0967293493586095 -0.17249382810408567 0.11472823841963724
0.09701292834303318 -0.1722205439401333 0.1154874792417151
0.09727713864605018 -0.1724764061748603 0.11614701926670458
0.09688461148596737 -0.1714350464847757 0.11465132558041198
0.0971225586298651 -0.17157993899625856 0.11557006426034844
0.09723805695715698 -0.17192003044568674 0.11605148627880632
0.09684915594298861 -0.17051749093313867 0.11376463054506877
0.09710034683738362 -0.17041467704086674 0.11461992579359695
0.09716703961047485 -0.17091768257401713 0.11540616523322322
0.09714892966762677 -0.16947398642125397 0.11386642254000319
0.09727156589309732 -0.16982779575086887 0.11474760638675628
0.09726419893360476 -0.1702525320256582 0.11526036269556987
0.09723553022109667 -0.16828582707411116 0.11338359156026631
0.09734233938013855 -0.1693151194480517 0.11465722336080222
0.097404814993745 -0.16868376222355638 0.11430096244695175
0.09751372839943506 -0.1689246334314731 0.11498832087321985
0.09704868788952921 -0.16746258376506465 0.11285326103614667
0.09735625127190282 -0.1674986883950317 0.11344685603034994
0.09757835045057682 -0.16783181025392127 0.11403024473384057
0.09774340447397468 -0.16821672252229067 0.1148657054075921
0.0969078557927004 -0.16654148294644822 0.11276087042584151
0.09728206259408416 -0.16692951648549956 0.11323618224105178
0.09765949944979452 -0.1669535850946094 0.1138442983116966
0.09797273140826622 -0.16734363579162406 0.11462782929129632
0.09659431997999571 -0.1657517105343571 0.11241239410861961
0.09691820122321733 -0.1659269782879445 0.11292429004165011
0.09734352866484314 -0.16613961384929898 0.11341228151139807
0.09783438467973005 -0.1662788447720053 0.11401095662316788
0.09807281628918134 -0.16663542945493218 0.11440904312960033
0.0962171548045642 -0.16491004314986765 0.11209163987011135
0.09656085684696403 -0.1650879443359715 0.11260172690785623
0.09688318919937683 -0.16528371862071778 0.11312479387664795
0.09737498808486221 -0.16543381873283491 0.11366402286707512
0.09771335401488063 -0.16575768212688843 0.1139651298913038
0.09604012738011727 -0.1641366027198624 0.11223221217109035
0.0964553403331534 -0.16442735145578669 0.11282142482397452
0.0967975170254798 -0.1645669264985219 0.11343863857552695
0.09715102833527568 -0.16490363165259142 0.11369201800453894
0.0960880994325509 -0.1637595880691817 0.11262601982363891
0.09631443318996386 -0.1637349227530696 0.11310213039528207
0.09659924425007158 -0.16404211841730246 0.11343627294882823
0.09519677340824736 -0.16214839071031442 0.11231012540521677
0.09552858990274449 -0.1626173735730527 0.11260934008527904
0.095960147068821 -0.16319981507044015 0.11292018331867305
0.09510672416641759 -0.16178943552636615 0.11245760534685376
0.09533171973836001 -0.16197228253449397 0.1128130499952893
0.09439521349784676 -0.1604741742088102 0.11202043053493366
0.09470843991141131 -0.1609387367311325 0.112342653538115
0.09505578842729015 -0.16142675793142788 0.11267584147476825
0.09437249938402485 -0.16003481745425102 0.1122874765566815
0.09459665652601507 -0.1602432188961199 0.11265321524515537
0.09365882387525032 -0.15849184162243404 0.1119114045356419
0.09402264323210816 -0.1590392478002797 0.11230073681255047
0.094381592118558 -0.159620319666955 0.11262511774014887
0.09346791211570564 -0.1575433902713768 0.11223201513459154
0.09392576133338523 -0.15815441720974313 0.1127788064057509
0.0930368387568846 -0.15680128009478284 0.11192110544164854
0.09335210553386447 -0.15658930779032462 0.11271273394770806
0.09382701177669846 -0.15710872352160718 0.11335704138762014
0.09294131343755367 -0.15586543122923377 0.11242259474158671
0.0933083514963467 -0.15593893054247507 0.11301516054716186
0.0935758987323138 -0.15629125863044627 0.11330355816696262
0.09273648846741546 -0.15496219688975488 0.11264327743019811
0.09312645847716143 -0.1553216636087601 0.1130970409074888
0.09266479100149917 -0.1544508777738662 0.11282934667953308
0.09293589114421952 -0.1546082521882854 0.11320404253045313
0.09173757319521572 -0.15280005422493823 0.11257839426881253
0.09224568650714922 -0.15339188247856067 0.11293222283118465
0.0926477195890157 -0.15400316975942982 0.11313271063818044
0.09123121342012992 -0.15214209749313667 0.11229719706134102
0.09150970566833189 -0.15192220443759136 0.11303769713810068
0.09211419982019607 -0.15247428086199194 0.11355429541296534
0.0909234853806403 -0.15116486243486418 0.11277243818484896
0.09134942189110497 -0.15130097426543748 0.1134115490483657
0.09170705303645131 -0.15169409417364985 0.11361264282164261
0.09028758334076946 -0.15038571891676908 0.11255712793490925
0.09064615455733699 -0.15021158987596803 0.11326806667138514
0.09113210018533419 -0.15058590856680915 0.11374063113678477
0.09019897043329327 -0.14973304033601445 0.11306988834174582
0.09044447581717577 -0.14951539895554505 0.11370022669668133
0.09078171842911938 -0.1499612578958965 0.11380278028055606
0.08911158678958989 -0.1485330775808908 0.11288835529113755
0.08939329836935873 -0.1487148417215456 0.11306398821156877
0.08989040844090379 -0.149062856212712 0.1133595790830975
0.08705290973298743 -0.147289681214243 0.11225547062625386
0.08773401418905408 -0.14735398816328385 0.11277170501282759
0.0884259901233436 -0.14773245688182085 0.11302667103637933
0.0889928295956181 -0.148145142415107 0.1131786616222277
0.08641745249815089 -0.14662306819951867 0.11232134369887624
0.08703255572599357 -0.14651168305626566 0.1129166518071993
0.08762002353553563 -0.14672496890507167 0.11325569219061765
0.08807920036465396 -0.14711705168571804 0.11331043535211091
0.0861450193339372 -0.1456081079831745 0.11287780446986949
0.08686965303033072 -0.14579855475588002 0.1133364628100663
0.08734280285585112 -0.1462124131438248 0.11342679705465619
0.08529817316499609 -0.14468974810666704 0.1128194707328989
0.08585029468821762 -0.1445127766937818 0.11334901516956074
0.08654604160426965 -0.14507522548123997 0.11356813212732891
0.08508847071027283 -0.14356468498351976 0.1132598536259947
0.08577546480882538 -0.1438306061622911 0.11366545313417827
0.0862466679990775 -0.14433665574961244 0.11377696848015972
0.08433289935489939 -0.14250261655511207 0.1131900630466646
0.08492485919710459 -0.14259875662152996 0.1135844367263474
0.08551560205879828 -0.14308824057891367 0.11382264082518842
0.08390528283574929 -0.1416033936411009 0.11325632418534118
0.08448300277663952 -0.14168925587989056 0.11364510800323746
0.08518746037938152 -0.14217116390287035 0.11398484639099693
0.08374184534229473 -0.1406682338994471 0.11354593904125948
0.08439403492273195 -0.1409260411921583 0.11391660066813583
0.08485320987933379 -0.14140195961966134 0.114055615550567
0.08306047960887362 -0.13977799209945405 0.11344805360646419
0.08353032252991219 -0.13967366598744943 0.11384519670068007
0.08413497975451112 -0.14018631124963532 0.11405575989019626
0.08291877672229069 -0.138901841407485 0.11376959520021769
0.0834468887083671 -0.13906064730935785 0.11408642438649204
0.0838792741743495 -0.13948022988039976 0.114195234497954
0.08272241918859749 -0.13826244359579679 0.11393708512831917
0.08315014322424565 -0.1384256897295969 0.11418521802737236
0.08155912358637822 -0.13650538104566584 0.11389615571735137
0.0820773784640048 -0.13707721003772094 0.11405337771224286
0.0826715275030395 -0.13772970873136953 0.114176973012136
0.08146362966340227 -0.1358955109822388 0.11408812323657523
0.08192124590568702 -0.1362809586184371 0.11432252626328405
0.08168045093215764 -0.135610687079802 0.11442334899081522
0.08118263662067662 -0.1351704801493775 0.11411042670337004
0.08117795376773404 -0.134279988081304 0.1144211319386417
0.08138449518605917 -0.1335011462486372 0.11483383063182898
0.08102873129116432 -0.13257799244643642 0.11465817370578153
0.08146874503290003 -0.13275908655659988 0.11509032342050653
0.08085160685772616 -0.1316249803522063 0.11465819161344858
0.08134286285620373 -0.13202498292652728 0.11509201604464717
0.08070946505128027 -0.13065704902204348 0.11473363656904433
0.08122017426937453 -0.131118098859589 0.11515101333405789
0.08059199709113772 -0.12966403983254812 0.11482758946017081
0.08109395420988323 -0.13015276009556834 0.11525034460188152
0.08047846625686916 -0.12864592808912162 0.11494876639281398
0.08097138069466901 -0.12916775768249228 0.11536377625091324
0.08035252889983009 -0.1276270196990015 0.1150928315681543
0.08085308126805872 -0.12816852005260307 0.11549958755598802
0.08020972184706385 -0.1266151020729831 0.1152564866760869
0.08070525917909607 -0.12719018934127044 0.11566537805867648
0.08009480325627458 -0.12549887084547776 0.11546467033967237
0.08057333643751925 -0.1262715488435682 0.1158256761032881
0.07986114219666361 -0.12437070285547501 0.11543529690241693
0.0805456936082851 -0.12555437033165456 0.1160261575276749
0.0803569737711853 -0.1247566084101773 0.11603596801150301
0.0808242815977033 -0.12523303611075154 0.11649896162934756
0.08013367834284855 -0.12361626472426585 0.11605972793251733
0.080698138459728 -0.1242466475263347 0.11664755382922908
0.08001227115675451 -0.12245758126060138 0.11636078985557542
0.0806052743089147 -0.12309894676492977 0.1168996228066108
0.07974940622913164 -0.1214067812570009 0.11665490376822726
0.08031896654020149 -0.12199234452975734 0.11707434543387245
0.0794099264749771 -0.1203726249667524 0.11701343338273323
0.08004136290248563 -0.1209614928890935 0.11735471452327775
0.07904589923923928 -0.11932423608182022 0.1173961071513812
0.07968168223602763 -0.11989671898184329 0.1177532415013901
0.0787615066349581 -0.11833908232563276 0.11772175474728662
0.07936366918181033 -0.11884869758770618 0.11812110087101964
0.0787015103678476 -0.1177191250510203 0.11800268881672715
0.07914740583508938 -0.1179332442514916 0.1183597548075843
0.07904656764472467 -0.1175263748199589 0.11845806508825522
0.09731772259943396 -0.1713017227912617 0.11611684044577072
0.09745049861131096 -0.17178501029716314 0.11658444133894323
0.09750907462902168 -0.1720608525420439 0.11676267277169
0.0974156902294253 -0.17041967740046227 0.11603665175612156
0.09760006015007099 -0.17098110679780967 0.11672679265842836
0.09745616500263021 -0.16960766990160364 0.11537178173302723
0.09768349411767331 -0.16963035289706513 0.11614209540477631
0.09781530184169168 -0.17007646251763633 0.11676625137319233
0.0978474326575592 -0.1687972444345997 0.1157076103777057
0.09806711684448281 -0.16918308626285627 0.11661733671798354
0.09825053690695086 -0.16772123007311254 0.11557999841071832
0.09832127198235853 -0.16831153764359358 0.11639614100653674
0.09841288575961026 -0.16668841973879917 0.11521519934181322
0.09859904156031207 -0.16764801524768266 0.11631738495626527
0.09869496138375818 -0.16703898773583023 0.11606887733450592
0.09884282026222731 -0.1672901293779236 0.11662959002247475
0.0981933086246816 -0.16587601651100412 0.1146153418762808
0.09859981205991147 -0.16594517246301524 0.11538323752323588
0.0988422912175723 -0.16624757503937052 0.11597537062363938
0.09899450361667023 -0.1666533188890337 0.11662335767105841
0.0976981740963292 -0.16505669844242288 0.11426718560369967
0.09823559662251244 -0.16519381898730326 0.11486775518166172
0.09851459050085605 -0.16545365339118295 0.11523224270480754
0.09882917123404251 -0.16542896809426857 0.1159125384399126
0.0990698471860258 -0.1657693922264628 0.11657718250627977
0.09703556069125889 -0.1641744114860015 0.11403190311690246
0.09763069772741566 -0.1643409657908587 0.11462042133605314
0.09803683847258482 -0.16471044507287436 0.11488639323758951
0.09849210592255209 -0.16479059695468204 0.11550119178072316
0.09883022862482661 -0.16483056394632598 0.1161359072878564
0.0990317279606745 -0.1650746524445894 0.11646186807453943
0.09642354687633918 -0.16330290989310295 0.11369774023070682
0.09681286088126963 -0.16347642873504356 0.11426618283303852
0.0972680726852572 -0.1636027783934939 0.1147490522585099
0.09797016885011262 -0.16410981763905835 0.11526524189495449
0.09837563991347689 -0.16419290571799466 0.11580303754874396
0.09864836131207765 -0.16442891444660251 0.11607872579441872
0.09581599270645622 -0.16242296190448788 0.11336059656933835
0.09621638718756965 -0.16257934005773347 0.11391983708692917
0.09660752320490806 -0.16278607555003594 0.11450777411315546
0.0971203475138578 -0.16293525692562277 0.11513201870733457
0.09761469074576838 -0.1633402951310866 0.11549399926948892
0.09807715613069005 -0.16374812999824617 0.11582894774524306
0.09539503143611655 -0.16151865869413903 0.11335446078796063
0.09596679434561245 -0.16182672537776047 0.1141667153937809
0.09639643901839513 -0.1620466762729931 0.1148435509913874
0.09678343081493243 -0.16240182379460022 0.11514192537685676
0.09497121339250757 -0.16075824495398505 0.11308660720697881
0.09537708261736517 -0.16075929430512867 0.11393446711212331
0.0957981362648023 -0.16106598916471443 0.11454608509955408
0.09612279791417527 -0.16149243032304866 0.11486322950351856
0.09479218150297311 -0.1597670707613679 0.11352814591382052
0.09522333136315939 -0.16000161869624047 0.11430867505869481
0.09555449247343759 -0.16047772021507814 0.11460644488413141
0.09432745472689454 -0.15886656805134197 0.11314904792288183
0.0945870656981592 -0.15874012861800768 0.11395886902900682
0.09497878532594309 -0.15925133494185267 0.11442598977610509
0.09423061054255374 -0.1579690709828116 0.11371039225868727
0.09454264447784838 -0.15811432140306086 0.11431228873983454
0.09478928712662012 -0.15852671887888636 0.11455660466386883
0.09411912910394454 -0.15735119101386513 0.11392246488426681
0.09437751171062198 -0.15749722901834007 0.11434804729482954
0.093494870262098 -0.15566436716651194 0.11354188172113415
0.09382560822517268 -0.15620074666141545 0.11389576151948887
0.0941216116397976 -0.15683158889331708 0.11420645863192706
0.09330442972263421 -0.15491655071626 0.1137121739314888
0.09372047880724052 -0.15536989364818773 0.11419778140754118
0.09303594708309118 -0.15404470271142653 0.11384512312083248
0.09350294835444808 -0.15450721491617775 0.1143940038825835
0.09259803819554839 -0.1533318098760028 0.11362836799907719
0.09289754226832231 -0.15329195604103363 0.11422880658305054
0.09327467532495425 -0.15369657143284862 0.11460904201228013
0.09256414085344494 -0.15282468338548888 0.11406927869654386
0.09278237446914912 -0.15277532646181205 0.11450407862381555
0.09305996935614623 -0.15308176640595395 0.11474244577342176
0.09156472352714046 -0.15114916224212777 0.11390668015612376
0.09197693193638742 -0.15165818791256988 0.11418023368896053
0.0924336611851489 -0.1522654693440637 0.11442791570375321
0.09146126682999234 -0.1507476530169277 0.11412490378648839
0.09172694002685852 -0.15096180184639357 0.11448060106149757
0.09070054110359575 -0.1496632000362106 0.11402625477113405
0.09094781727643485 -0.14989599388414176 0.11422209710515006
0.09136236614299172 -0.1503517652251368 0.11443909913295235
0.08946260558012145 -0.14816852208423606 0.11372231777108119
0.0901445213142982 -0.14875177937270093 0.11404900090679504
0.09063214866528778 -0.1493203143015342 0.11429439740165656
0.0886854250768981 -0.14733724698957804 0.11365418041425498
0.08923839177505508 -0.14728834044384137 0.1142353463147256
0.08987648287226156 -0.14789887802841686 0.11443619005131166
0.08791769643756875 -0.14643890212789054 0.11372473133896265
0.08859439702689909 -0.1464832376730056 0.11426328312935694
0.0891360863943724 -0.14670596008786313 0.11459774016182123
0.08958125890857373 -0.14715258635801617 0.11470352196598885
0.08724655854801243 -0.1456126975580072 0.1137696028211231
0.08782415484775594 -0.1455897541709955 0.11426666625715194
0.08839300990757754 -0.14582447233126294 0.1145900396452795
0.0888334170344811 -0.14619442321759568 0.11470397888211696
0.08693645567021892 -0.1446062584200596 0.11416509646868045
0.08758842548872442 -0.14486910773809114 0.1145674848107606
0.08805549093721902 -0.14530902631379963 0.11468332022932251
0.08616988270813852 -0.14368442592028477 0.11405129750621375
0.08661870486305681 -0.1435706882953667 0.11448704399904788
0.08726381784829798 -0.1441341076230861 0.11472112977656197
0.08593890307668466 -0.14272241713155046 0.11434412584378195
0.08648956045237442 -0.14291264299886758 0.11473642050168024
0.08694939440090389 -0.1434051370380788 0.11486996407373126
0.08542731998835598 -0.14154418247315817 0.11446257049743415
0.08617916328965439 -0.14213656921184883 0.11484437637878245
0.08475458583389008 -0.1407097871100753 0.11429848662833501
0.08519661016446461 -0.14054750125630472 0.11474257902890016
0.08584017979912735 -0.14114620848055162 0.1150180707804368
0.08449207598229244 -0.13967200082045614 0.11458644667500474
0.08511023695354686 -0.13988280349477114 0.11499320725560913
0.08554309625415765 -0.14036264780044885 0.11513218013661133
0.08376076705816944 -0.13883324598665017 0.11444184932952021
0.08418817709743087 -0.13861578040469258 0.11488902413673167
0.08484708804120492 -0.1391484592520134 0.11514147344447231
0.08338620602488767 -0.13777000792128025 0.11472119604751771
0.08407287082722636 -0.13790163852821136 0.11516753626097036
0.08457201313794864 -0.13838379115925203 0.11530121820186813
0.08254643245071538 -0.13687568841270983 0.11454005027415659
0.08302704100510495 -0.13665535186230823 0.1150446713405892
0.08371733036832202 -0.13715212356840065 0.11530571264505116
0.08229071428646476 -0.1357809215795606 0.11486913787291962
0.08294066190155937 -0.13593427319106544 0.1153192563599717
0.08339920767071309 -0.1363993815005325 0.11544998873090798
0.08163960383994456 -0.13498289176050848 0.11465535535060349
0.0820656615032614 -0.13477432728040256 0.11511996913754151
0.08265883721290276 -0.1351750674032125 0.11542844440801596
0.08161525329648905 -0.134307445398152 0.11487417851658
0.0819406940046967 -0.1339866371684296 0.1152586020591227
0.0823911807947309 -0.1344251697057277 0.11551058298653583
0.0818643404257056 -0.1332119999881626 0.11537144634805946
0.08180414621181398 -0.1324363504758339 0.11547394547158221
0.08222954531542981 -0.13287588554084215 0.11576560610923632
0.08172445576611696 -0.1315816210486171 0.11555597962139809
0.0822483982605563 -0.1321036697967917 0.11593876742577616
0.08161006951489361 -0.1306258065558176 0.11565171271609985
0.08215119284557305 -0.1311095386107845 0.11605452277292237
0.08147745246111338 -0.12965197425333652 0.1157676732465325
0.0819992652606755 -0.13010404056265587 0.11615893303055512
0.08135365848361567 -0.1286807362761028 0.11589735963358097
0.08184300620797319 -0.12914641949501313 0.1162822800636907
0.08121243554307146 -0.12769444595146565 0.11606445703933035
0.08172934119151173 -0.12819500326287542 0.11645086045859658
0.0810367969252969 -0.12673321276993896 0.11622359436400634
0.08157312420009358 -0.1271665217172491 0.1166636412970324
0.08086817318011472 -0.12597495645529858 0.11627289272460967
0.08133088663978463 -0.12599311910150718 0.1168111824705936
0.08121314260083605 -0.12482683554998751 0.11710664013198377
0.08109417680022454 -0.12382499445234409 0.1172743820309989
0.081038132212282 -0.12306952725713474 0.1174717234886992
0.08082489121097917 -0.12238029579749478 0.11752488193936649
0.08120782393991104 -0.12266338482277579 0.117876395189031
0.08060982004800506 -0.12146390540275631 0.11775172234978022
0.0811117148977834 -0.1219099942670051 0.11815502886820928
0.08031649488693628 -0.12042052098163661 0.11810374911649177
0.08089593392571062 -0.12089240835569129 0.11851684361936897
0.07999824290321753 -0.11935693366001156 0.11848763978125082
0.08063971331022582 -0.1198229830092084 0.11885241807738216
0.07979197621039402 -0.11829553247863242 0.11879825913989725
0.08039266723369295 -0.11882891386877766 0.11911760117281148
0.07947044447894881 -0.1176811593976118 0.11877272527344913
0.08027105261283575 -0.11813840803390731 0.11927138805979044
0.08000175084952979 -0.11781387285067625 0.11914294781473853
0.08038312223777112 -0.11793433781244983 0.1194094352760145
0.09765235067867506 -0.17144971796880448 0.11701613919598186
0.09796130027738856 -0.1704884813607241 0.11725414709825965
0.09826802992702427 -0.1695709877674537 0.11734019060019119
0.09829859900106964 -0.1699265219207091 0.11762616597740175
0.09849288419867956 -0.16867068110398845 0.11706257936506399
0.09845772851662977 -0.1695082708054002 0.11767330071231354
0.09857696043720218 -0.16897071721662735 0.1174771054858131
0.09872639000007341 -0.16788388017965153 0.11683752299807802
0.0987825631368941 -0.16817563762399762 0.11722645834827436
0.09899320632571634 -0.1672669635102556 0.11698395343379772
0.09913405188368538 -0.1664986245894472 0.11691349616624064
0.09889298098353813 -0.16457403142647195 0.1164479524630469
0.09910889697850903 -0.1650364597601022 0.11669860109830292
0.09843062240199242 -0.16395902972273538 0.11615843014763547
0.0972340492304239 -0.16247602738149033 0.11574350942539213
0.09781886791068453 -0.16312477240014892 0.11604636329990374
0.0965661621905969 -0.16169086693181647 0.11544872932144985
0.09696545731054605 -0.16164110647712526 0.11622608677746574
0.09739902114416277 -0.16211941711785918 0.1164618098217561
0.09594774957351408 -0.16080476179271894 0.11522078846587892
0.09642887195007789 -0.16090833339026245 0.11604349315313246
0.09678613461472954 -0.1611051522312997 0.1165425968044444
0.09712577449461729 -0.16148442084863884 0.11671128509888491
0.09737747664100409 -0.16178181893791937 0.11680242221719207
0.0954353064648287 -0.1598026381781649 0.11508057225139459
0.09590615371118508 -0.16011104452364788 0.11585170767924605
0.09622526473521872 -0.16027899145871868 0.11636956735108925
0.0965027045308534 -0.16065178259683216 0.11658018900756635
0.09509988288323122 -0.1587053523183949 0.11518877220805078
0.09553105260163598 -0.15920943448367397 0.11586918044066231
0.0959452568618234 -0.15959784146754402 0.11641364253555833
0.09475658291957614 -0.1578738718722306 0.11494347830092197
0.09500966256657371 -0.15804873136781358 0.11548298595882138
0.09527163430566342 -0.158233429297845 0.11599607285123938
0.0956704934138459 -0.15873251587922788 0.11648312437891087
0.09452394623380568 -0.15685888776170379 0.11499655733816692
0.0949242359890512 -0.15738758387556684 0.11576546780338089
0.09522787462069861 -0.15754689085811216 0.1163777668758882
0.09548069169951487 -0.15800435238620628 0.11657820785755885
0.09416142402667194 -0.1559755180166611 0.11473126053435409
0.09447403975162007 -0.1561565878059399 0.11530171479847563
0.094720104532287 -0.156334811578417 0.11589394135347432
0.09506988642007763 -0.156795596687383 0.11646115395440246
0.09394589207274746 -0.1549782957137088 0.11498070924660678
0.09436807013480891 -0.15549498306006557 0.11566544941978357
0.09468989631183918 -0.15563046545904718 0.11634343721315911
0.09494667858985874 -0.15605126129663172 0.1165795950231037
0.09367545508954256 -0.1540632581776664 0.11519197315609223
0.09407309332909332 -0.15448828767268466 0.1158503966343126
0.0944654965964622 -0.1548782683198251 0.11645839077695129
0.0933205715522723 -0.15323524891465992 0.11532048563738612
0.09373084138979935 -0.153518093766828 0.11608764593353528
0.09419146182704011 -0.153972678158596 0.11664632202080705
0.0928525063432111 -0.15244960282490902 0.11515367722403763
0.0932632389399072 -0.15260260053780852 0.11606670451138594
0.09363983521306317 -0.15289096338819413 0.11657630305029955
0.09394340655190196 -0.15328573776673818 0.11678747376911973
0.09222360024438363 -0.151471659052619 0.1150871551095801
0.09275651545396413 -0.15174655454924155 0.11594422583027073
0.0931430130548089 -0.15194852291138145 0.11651261246303593
0.09344673005859933 -0.15236969762550848 0.11670023696071082
0.09172326289782327 -0.1504445993340146 0.11513823497631054
0.0922476441111592 -0.15071790721777917 0.11600355532457632
0.09283952536200535 -0.1512359051611333 0.11666020033327998
0.0911189710593971 -0.14954162748228705 0.11489152795881664
0.09168444240558023 -0.1496260685368906 0.11579128367344435
0.09214039565395622 -0.14994768838985578 0.11641709289342117
0.09251330840215809 -0.15045520523167633 0.11674992869190817
0.09051212605728712 -0.14858600040122322 0.1147364023165572
0.09104853490448146 -0.14857092309973466 0.11550763417010523
0.09157121780938669 -0.14885096063256312 0.11607692988282933
0.09192604875009613 -0.1493104375108327 0.11639203622830918
0.09022659918572348 -0.1474567480456683 0.11519456333117585
0.09087132658370926 -0.14772138029370535 0.11577603467240528
0.09131788516092418 -0.14822092498934866 0.11605010055203077
0.089355113353103 -0.14642994579889318 0.11504020286824418
0.08987952988686708 -0.1463992465392657 0.11554113007528145
0.09051989147718695 -0.14692946450116023 0.11583169950113119
0.08860378683371295 -0.14553418511427232 0.114986070426598
0.08921563588476734 -0.14557132271925624 0.11548243496640867
0.08974622686866585 -0.14578730848532803 0.115790426262909
0.09017991172642709 -0.14619654738745239 0.11591639906383092
0.08791879682279455 -0.14470329920782643 0.11494175530690903
0.08847350750305816 -0.14467397289132572 0.11540715993676388
0.0890168991276443 -0.14489275065003465 0.11573569999497743
0.08944052030010555 -0.14526377440352128 0.11586270111098317
0.08759479757409118 -0.1436774003823063 0.11526640985838474
0.08823553025832795 -0.14393466574813926 0.11567104749399465
0.0887020656259682 -0.1443683207397039 0.11580023725540381
0.08682833237233845 -0.14275576219252004 0.11511557485452073
0.08726434437382659 -0.14263528243442292 0.11556358945276747
0.08788878596375807 -0.14319265748954418 0.11582348647172937
0.08659953844211785 -0.141760918658718 0.1154022002697182
0.08715577396234162 -0.14195492170516014 0.11581616886733168
0.08759353326338941 -0.14244965046080185 0.11596223492743114
0.08611751231603505 -0.14054657759385814 0.11554777117371573
0.08686678522630384 -0.14115422828954288 0.11593881835357053
0.08547229450580954 -0.1396882629928433 0.11538866264620466
0.08594426047364084 -0.13953680428348111 0.11585550976184943
0.08657468172355116 -0.14014146185728776 0.1161321042706383
0.08525608455719591 -0.13863121312561513 0.11571188244928998
0.08589060816332908 -0.13884459872133273 0.11613053827623111
0.0863168410517242 -0.1393279542203927 0.11627335910936439
0.08448945264247 -0.13759609468271625 0.11563444100461692
0.0851052204068833 -0.13768706916779627 0.11604554799228532
0.08565582344218282 -0.1381174959393263 0.1162574236037856
0.08397017277685344 -0.1365808249517044 0.11576244737114912
0.08470827042299013 -0.13680209052189973 0.11617457469855465
0.08541428443525988 -0.13725708790102817 0.11645572852287972
0.08339592748960979 -0.13562984501944356 0.11576866992099664
0.08415445860599773 -0.13587470925139525 0.11618604832511835
0.08472787366802252 -0.13603880057897666 0.11649444287470717
0.08517812836267015 -0.13651201494462809 0.1166047717473447
0.08296685962864124 -0.13450001341442624 0.1159031696253475
0.0837343561166362 -0.13491416303345807 0.11627562924479827
0.08444686047751884 -0.13524502034617436 0.11660877405553934
0.08243282050605752 -0.13367320252449083 0.11574814240070805
0.08289260461606483 -0.13375902198262782 0.1160842578117287
0.0834022793068449 -0.13388449418565126 0.11639677209856283
0.08410661412674711 -0.1343172287339816 0.1167240045470869
0.0828493640793192 -0.13292399682181302 0.11624370810861558
0.08348865014501146 -0.1330928011359274 0.11668176505384104
0.08387634958710913 -0.13355182507557292 0.1168210106724959
0.0827908194312132 -0.13162514750724214 0.11650377594994135
0.08334807629774214 -0.13229021719412884 0.11680356817992162
0.08254660098969582 -0.13052358145339138 0.11656449159849779
0.0832911139212005 -0.13152335697622164 0.11696138321705571
0.08307717238187858 -0.13082569008769743 0.11696820289560697
0.08350370885913301 -0.13107336204038814 0.11726889961786882
0.08234014046476681 -0.12952900770721576 0.11667215565952183
0.08286785708756197 -0.12988271202987178 0.11708304800367339
0.08341478180961898 -0.1302900546986362 0.11744634217662046
0.08215075062707188 -0.12869048761236487 0.11674022644706428
0.08264880276647182 -0.12879966291956294 0.11720725372180049
0.08323815723325947 -0.1292900693692842 0.11760902248971417
0.08218600488462771 -0.12777561405859772 0.11709341768150072
0.08270985330573861 -0.12793795953824652 0.11756768219587745
0.08306921271934616 -0.1284384290025656 0.11773309665368896
0.08196817340366291 -0.12657671281687632 0.11729997914739303
0.08253761177590475 -0.12707400021323437 0.11770999573504107
0.08180978078563761 -0.12536781804821515 0.11761691122699108
0.08234773899947241 -0.1260588292467934 0.1179318526950894
0.08156540953795158 -0.12426886414679596 0.11773660070694132
0.08224193332556543 -0.12528446063091955 0.11817053814634519
0.08203491370983823 -0.12459030017562274 0.11820087923139953
0.08242190532255346 -0.12485428467917213 0.11855293200071265
0.08139946798981021 -0.12334730521181297 0.1178535441414019
0.08185592508649883 -0.12365170313360337 0.11834667446981455
0.08235915061523766 -0.12406949228211156 0.11878174306339591
0.0816174225411645 -0.12257278759103571 0.11847501813657067
0.0822064012779966 -0.12301071365449358 0.11905505953660829
0.08144411723644314 -0.12140406676143037 0.11892487077931904
0.08201081996324817 -0.12189585829981213 0.11936537449755197
0.08129366462585949 -0.12023356501716084 0.11934362284056642
0.08183258438171227 -0.12083169661861394 0.1196806275934317
0.08101377051864153 -0.1191837874348408 0.11950368977520234
0.08176908869196571 -0.12003530975368157 0.11993066325052679
0.08159291160727035 -0.119384322312337 0.1199431497767108
0.08200058461811843 -0.11954254229178758 0.12029673351681834
0.08072149976134199 -0.11842869952579665 0.11954409139599632
0.08147181470984857 -0.11872220615098374 0.12003327781182813
0.08199236647027151 -0.11891315262842737 0.12039723858940182
0.08195879694185944 -0.11854022552402575 0.12044205968122573
0.09671370446083016 -0.16083159367301805 0.1167905621724707
0.09628715479778924 -0.16009724775740672 0.11673978472705997
0.09594669322025298 -0.15915175673915896 0.11678036848653002
0.09567427465445519 -0.15826973324146162 0.1168312078108204
0.09538398256985833 -0.15732878558788083 0.1167744762889245
0.09516127202505396 -0.15620606461028613 0.11693512345428568
0.09488469989356565 -0.15541037487986306 0.1168804332590217
0.09512345689244611 -0.15571506260226536 0.11712363508518257
0.09450284926316059 -0.15422119856528482 0.11713476332390227
0.09421993402562273 -0.15337051982457184 0.11733875052941344
0.09443876655451487 -0.153318155057134 0.11780401368419723
0.09380802292410487 -0.15259473035878515 0.11720330302771992
0.09422401581387282 -0.1526060697944929 0.11792458901651834
0.094456029133342 -0.15277223173737334 0.11815519743781468
0.09335079974352109 -0.1517708356910063 0.11707923269141672
0.09375879241366342 -0.15171739814012042 0.11778396022100515
0.09415074818705041 -0.1519182250701422 0.11822050972285607
0.09435535669143574 -0.15223830240994937 0.1183001183057647
0.09308061557108309 -0.15069289361732593 0.11742857123128572
0.0936424930992848 -0.15093059204985534 0.11803479249029526
0.09396936500316079 -0.1513688176309648 0.11825211275810782
0.092377848247633 -0.14959433203789294 0.11698207276107139
0.09287278410490928 -0.14953660900403537 0.11764788925295419
0.09339224611046307 -0.15011654714168493 0.11804308665684961
0.09181723881232783 -0.14853034011306115 0.11660414133424542
0.09237182321802816 -0.14861455808636664 0.11735865396551588
0.09283102408570125 -0.1488313629252905 0.11783968920848238
0.09317572283491066 -0.14928544318739495 0.1180627270442819
0.09121612216034872 -0.14743433022519367 0.11632092397175527
