# .PCD v.7 - Point Cloud Data file format
VERSION .7
FIELDS x y z
SIZE 4 4 4
TYPE f f f
COUNT 1 1 1
WIDTH 791
HEIGHT 1
VIEWPOINT 0 0 0 1 0 0 0
POINTS 791
DATA ascii
0.07178190696193963 -0.15872445610910296 0.10887508755648012
0.07245715523133711 -0.15906321305434837 0.10931987209150758
0.0712578762744666 -0.1582068104883995 0.10863202845728684
0.07178686267087184 -0.15797779070673607 0.1092113552502521
0.07214379805894508 -0.15847626407792909 0.10934370915848365
0.06990998240157249 -0.15641134528145678 0.10831716860377967
0.0704687317115409 -0.15688683395758765 0.10864064730713578
0.07110490116233559 -0.1574168043385613 0.10889501649668702
0.06937180521093074 -0.15581276260069576 0.10799454305644787
0.06989316563966487 -0.1554683144785769 0.10869489342046738
0.07053859725925152 -0.1558208712406148 0.1091725808215683
0.06938257503571381 -0.15478515865218379 0.1084382558737607
0.06990546913270401 -0.15482178153887838 0.10902933114409159
0.07021500875220334 -0.1551220540913616 0.10923209314407054
0.06922647786869701 -0.15404000451964167 0.10864693585206317
0.06972663867543064 -0.15405271970696152 0.10916273983709106
0.06817928960693125 -0.15253684035777082 0.1081755344140153
0.06869844549670436 -0.1529845131378015 0.10854341911987772
0.06916594672551496 -0.15348417468368772 0.10884947269887646
0.06816514872068177 -0.15190951612631912 0.10843411228331763
0.06870430451370689 -0.15205153344938113 0.10899587726965194
0.06838855447700867 -0.1514433301805232 0.10885575077377345
0.0679149174119265 -0.15128361299517318 0.10840184800034881
0.0671875297766126 -0.14992126856770652 0.10809588627917213
0.06777171359486676 -0.15023178911451318 0.10867016737718883
0.06741982056161422 -0.1494057915224533 0.10857051774610489
0.06691566523729402 -0.14916287581096416 0.10815662509852149
0.0661921552770202 -0.14774950001573237 0.10807541865828556
0.06672214618092161 -0.14799672647079806 0.10858965972057953
0.06639688686389406 -0.14716499859155643 0.10860329249150893
0.06597836955213159 -0.14706066472316687 0.1081427610023488
0.06526836335607347 -0.14573322223859977 0.10823919279515669
0.06580331760991205 -0.14596125929692177 0.10864580411560343
0.06551297136524024 -0.14521185997618713 0.10888110475912759
0.06509209026216359 -0.14501722051652854 0.10847938549343066
0.0642199371434738 -0.14369113904852057 0.10837701598586909
0.06467948625096381 -0.14405127612325053 0.10864164209297994
0.06447313225399529 -0.1432401841201282 0.10899084199228792
0.06405615562559022 -0.14293260219536294 0.10864344025035896
0.06317066056428777 -0.14152329964535496 0.10832679958234312
0.06359122863511174 -0.14190463031307823 0.10864252219461182
0.06325255180659284 -0.1411500326445256 0.10881813696739215
0.06290090656856615 -0.14088410114384992 0.10849383204447974
0.06215312191900812 -0.13948211489853377 0.10822686263156636
0.06252539398923469 -0.14010775400641529 0.10840111360547486
0.062130963144244794 -0.1387811916888508 0.1086052683438022
0.06249420864544993 -0.13905154429661662 0.10897061187340246
0.06228423824159512 -0.13828777584225335 0.10910420467615431
0.061915809582077444 -0.13803299590168105 0.1086362623907701
0.06186386815669353 -0.13697872656432236 0.10903188606108323
0.06136362676906613 -0.13562929565434842 0.10829969842586787
0.06161022236466675 -0.13630934116075152 0.1087759476933096
0.06135182019391956 -0.13477378606780963 0.10843649746976793
0.0616836906695751 -0.13519108450022368 0.10911325369761918
0.06150204828013563 -0.1343465588172263 0.10888137271365661
0.061178846870843254 -0.13395121452684877 0.1082418735324863
0.061210646989977295 -0.13298836089429758 0.10840544750346096
0.06123692665478676 -0.1320759172323949 0.10850837222260855
0.06131592917674774 -0.13140068518399683 0.10871505375081789
0.0612799710476589 -0.13061469592409458 0.10865693253955255
0.061564060700559586 -0.13125497710620837 0.109318206510654
0.06125852853880349 -0.12982611892509135 0.10859965894753569
0.061570708396978244 -0.13034398448021964 0.10932856029436129
0.06138041869023245 -0.1294848931808171 0.10888169153568458
0.06108170561064621 -0.12903425662792656 0.108251089480613
0.06115137332256707 -0.12844129856059977 0.10834410678179206
0.0611720376923193 -0.12765233528720782 0.10818103846181118
0.0614059020073333 -0.1282985871881772 0.10885950832631663
0.06111553458404591 -0.1268270847393198 0.10800743926599016
0.06140100601672683 -0.12714901466716305 0.10877671446800793
0.06146031325326175 -0.12611625872875595 0.10893739978626339
0.061527383742161885 -0.12515857278518147 0.10899581003972568
0.06159031368312531 -0.12428752854456067 0.1091006299669931
0.06164703277164255 -0.1234780537916243 0.10932438547511743
0.06114518192573915 -0.1218271484337398 0.10861133258678277
0.061481918690727805 -0.12236826305873844 0.10924379268941006
0.061303202800196355 -0.1214025741568164 0.10912087696975607
0.060943457322449976 -0.12092668386449763 0.10856772462037895
0.060240730533354256 -0.11941253376615267 0.10813094936388724
0.060585794902550706 -0.1200633499452405 0.10836477573006548
0.060150992309442854 -0.11871319768557013 0.10843276474748027
0.060554205607366574 -0.11908183981142881 0.10888075009648605
0.06028914839654738 -0.11834209217849709 0.10888598895214453
0.05997607271305428 -0.11813498073135473 0.10847400072871846
0.060002314058998286 -0.11753274715779768 0.10885385843816335
0.08229103218065931 -0.1783080079179564 0.10936260786182095
0.08264449195615141 -0.17840016320509733 0.10990016844055414
0.08220293667991733 -0.17779128457898338 0.10959055791922045
0.08248522987955903 -0.17792363947689935 0.1100036964801009
0.08231907266745758 -0.177353121728145 0.10999670215120595
0.08196032008462072 -0.17710534608432002 0.10955721230162943
0.08111454554584775 -0.17560577689323137 0.10936375815339072
0.08162804250916393 -0.17618365643696635 0.10964955458520284
0.08107147965689995 -0.17499653760255834 0.10967012467909708
0.08157602915815951 -0.17505173187358422 0.11017550935125918
0.08007204049412521 -0.17359088835326544 0.10945249135260846
0.08057477725127289 -0.1740556348591066 0.10974872947766282
0.0810366263006039 -0.17445493473827497 0.10998958164353673
0.08009388264467658 -0.17301694410022703 0.10984220693574553
0.08057683343140587 -0.17302397280746737 0.1103706390166212
0.07951653744203947 -0.1718375584032692 0.10971991228172293
0.07983544730749909 -0.17194650418990695 0.1102023477658423
0.08016143248408106 -0.17249365554453153 0.11027313817747969
0.07838094651673262 -0.17069529410796994 0.10919610018837683
0.07897042440396419 -0.17078587954193636 0.10979893702087441
0.07948031816675105 -0.17133801162128598 0.11004392850461371
0.07732798499852903 -0.16937747442849035 0.10910264312726847
0.0778513455284162 -0.1696972721039746 0.10942386329618646
0.07838413389412523 -0.17020158286161102 0.1095812665688761
0.07718356782158059 -0.168912451025048 0.10933148692313753
0.07751035086290797 -0.16893064516657338 0.10967200114639705
0.07625944710371473 -0.1673626464035905 0.10902524762106898
0.07679889322416586 -0.16788114106362517 0.10933238671743956
0.07720396882799635 -0.168430433465539 0.1096062806951465
0.07611018519702122 -0.166705353162613 0.10933940669997846
0.07671960524613845 -0.16682003610902452 0.10993692363887435
0.0762721034337642 -0.16617980428910276 0.10984313344937963
0.07581122124719501 -0.16615206369077462 0.1093907102198623
0.07513141713601962 -0.16477291419872803 0.10926439898876454
0.07557225073048854 -0.1653176877727134 0.10956863310655682
0.07516264527766665 -0.16406706700943774 0.10953245493811054
0.07560847980720393 -0.1641216120638635 0.11006012519707568
0.07412737324295612 -0.16256603914258705 0.10909063670650461
0.07464078196169487 -0.16301010889331174 0.10946323869067573
0.07513625797882688 -0.1634351830238391 0.10981462511113399
0.07385788279886243 -0.16157541709506776 0.10930328998534536
0.07461393303838885 -0.16193408714403174 0.10988470539715323
0.07319061111198762 -0.16086283124639475 0.1090389837208783
0.07377902973965217 -0.1605060594294154 0.10977930209849322
0.0743554501562395 -0.1608671028761826 0.11016678527546651
0.07315727052584182 -0.15975403125335247 0.10956431318588565
0.07378012120996386 -0.1596674287397603 0.11020283526507306
0.07419120474848827 -0.16015626433090482 0.11036828777032102
0.07295606626619208 -0.1590156358249924 0.109748732709138
0.07337322322722183 -0.1589568638921804 0.11017726518203456
0.07215877949072078 -0.15815349024993614 0.10947321512616263
0.0724391811656048 -0.15827175905120447 0.10966347572721263
0.0729179061032771 -0.15848820758907256 0.10998750557489403
0.07110059086953666 -0.15652832451461327 0.10935130969858128
0.07165324219552006 -0.15704336948034772 0.1095507162379526
0.07217222399583546 -0.15764781178891715 0.10967847949358797
0.07113125939291848 -0.1559704333539319 0.10961623685512822
0.07165899049204483 -0.1560554300656954 0.11002450052465149
0.070203682648674 -0.15456529998865332 0.10946254580893769
0.07059649005089619 -0.1549508297930841 0.10966102534646362
0.07111614411763807 -0.1554054490819527 0.10986803620439459
0.07018288091129196 -0.15408234009285737 0.10961296690382627
0.07065972794201986 -0.15410387990791083 0.11007173841671848
0.06913326901371229 -0.1526339446279096 0.10918804174590263
0.06965750254113669 -0.15311750384777828 0.1095052212381908
0.07017642962867565 -0.15354571127471892 0.10985308884365591
0.06912175328651735 -0.15209633445017812 0.10943272402940711
0.06966371712095303 -0.1521229154909452 0.10994830774999989
0.06832213165475592 -0.15069104547325604 0.10911622004729664
0.06877070099024188 -0.15110314427067903 0.10947851702447327
0.06918736610964026 -0.15154686204401419 0.10973170478339808
0.06830997190857052 -0.1500822921024075 0.1094163863525779
0.06875352285366283 -0.15002385245166058 0.10999097501955722
0.06734199831857081 -0.14856240539839902 0.10889841926303619
0.06787793314597053 -0.14906707263277716 0.10930612104999757
0.06833781782558207 -0.149535504655789 0.10972087602042628
0.06731459591488505 -0.14787585726780056 0.10927159468956714
0.06784742970590948 -0.14788325955639192 0.10993182723495247
0.06633093546203277 -0.1464460148664243 0.10891859134706086
0.06685388333282771 -0.14677201379775723 0.10948225853234826
0.06730863550924383 -0.14728343449376513 0.10975348752150643
0.06627552548151641 -0.14589549703340027 0.1091955598315839
0.0666305507271886 -0.14587663876468257 0.10970051540508363
0.06550391537475247 -0.14463522178224708 0.10933363702862554
0.06587828565390653 -0.14475773716166948 0.10977438514717841
0.066281534991448 -0.14532156403732344 0.10970958046612864
0.06563953829943373 -0.14418543715588317 0.10987025239573733
0.06527502294527715 -0.14403953809167677 0.10940671920736698
0.06451878691973566 -0.14264529812499174 0.10945739343806894
0.06501270533963488 -0.14291986622453687 0.10988318915025476
0.06468511490097051 -0.14219282519145435 0.11006320238745995
0.0642437230754349 -0.14193099181257726 0.10957320945736576
0.06319941267815142 -0.14064440440261564 0.10909869796846752
0.06368383452260064 -0.14097079892808237 0.10944737084199828
0.06344006904633968 -0.1402175407496525 0.10957300530311995
0.06297828600404515 -0.13993305459357824 0.10914538761812709
0.0629254863715932 -0.13895085923663286 0.10957360279910801
0.062224030409985795 -0.13752429216479592 0.10934933366126308
0.06266995230070646 -0.13799522320840854 0.10974201084358362
0.06216727512427378 -0.13672577249404388 0.10959146854432486
0.06250433762243007 -0.13692869363818783 0.1099777743115213
0.06233551032727676 -0.13622491813364443 0.11006198117483283
0.061981061578831646 -0.13598862388427668 0.1095861756501483
0.062055441484262085 -0.1350171605619079 0.10997070394992955
0.06147049887117707 -0.13360340799057863 0.10897329396572529
0.061801093632374585 -0.13427395013580112 0.10951900256297185
0.061500687656321426 -0.13273449848639954 0.10907945107985371
0.06183835090678377 -0.13331827068685748 0.10971021538120823
0.06149599900821869 -0.1319380570110873 0.10909830080820893
0.06182252994698663 -0.13217031925690131 0.10977273455459342
0.06183593460597746 -0.1311766909891744 0.10995639908767986
0.061883285462932876 -0.13043446208809478 0.11000870674081724
0.061308845467086384 -0.12892505990681857 0.10875419960560159
0.06171211204594278 -0.12933859675299594 0.10957622232546006
0.06177670784450596 -0.12807674232256275 0.10967445474142551
0.06176475701656212 -0.12693840977894352 0.10966347744735008
0.06178243654032365 -0.12591688758075723 0.10969054530618091
0.06183103109030723 -0.12494192154883968 0.10978897378365793
0.061870086643454676 -0.12407999432783896 0.10993120676514433
0.06189988131923763 -0.12312530240539354 0.11006384512731565
0.06196944789097069 -0.12214266634442586 0.11040809401023657
0.06129884105457964 -0.12073296083970081 0.10934741056146016
0.06162842590136196 -0.12117043331219268 0.10990360410411117
0.06143530790929106 -0.12033410967280625 0.10984688897942907
0.06102214787556301 -0.11995806834962261 0.10921265557075654
0.060969763758277354 -0.11905589715663661 0.10958262427915848
0.0602599687416589 -0.11769908278222871 0.10915891732678171
0.06070615501467465 -0.11823775990863496 0.10957014285721127
0.06030247798574402 -0.11714817940522436 0.10943898143115864
0.0606540527743776 -0.11730269578279007 0.10980784848378272
0.060723917057189346 -0.1166953989650155 0.1100713347472506
0.08307049625135739 -0.17837932955223604 0.11054360558709518
0.08337305121398239 -0.17832471068277658 0.11099824234303113
0.0832662089029719 -0.17811291595222986 0.11094875476291553
0.08288389336301667 -0.1779894921152114 0.1105047865951567
0.08219731531749264 -0.1765480657500353 0.11018303893764797
0.0826948890016068 -0.17717022042894798 0.11060562121222263
0.08206232110301524 -0.17562864694210714 0.1104488942532152
0.08260132500371035 -0.17597866260157605 0.1109667461159022
0.08201306530969062 -0.17508856873249654 0.11066551810423259
0.08231111393890411 -0.17511138663048584 0.11103444559071055
0.08105748163337816 -0.1736480577559993 0.11047693293547434
0.08153285041296544 -0.17407694091536396 0.11071167249042513
0.08200369244718975 -0.17456257641239914 0.11093633363709503
0.08106200401244015 -0.17308875935579224 0.11084558995116221
0.08150274289026363 -0.17311869995469992 0.11137095243811784
0.08019264308944891 -0.1720226424785814 0.11065433365679973
0.08056705236064685 -0.17201838480271311 0.11112833247863062
0.08102704858837857 -0.17255201280440247 0.1112432564653646
0.07945078018323673 -0.17086418792514985 0.11040032405290853
0.07976450045262477 -0.17093615151968586 0.1109011260308408
0.0801534726863039 -0.1714738108558934 0.11104157674233747
0.07838563056811247 -0.1695885658561551 0.11005151097070205
0.07895689558091164 -0.1698604794585244 0.11058895547048694
0.0794049421523548 -0.17045852328264752 0.11072356016641405
0.07858563246418591 -0.16919236981165675 0.11063645304052104
0.07808437766669642 -0.16901494797831393 0.11017417375363521
0.07723855306630903 -0.1675248853368277 0.1101636957918524
0.07775457031247565 -0.16815430088943234 0.11043670537116371
0.07721458853353758 -0.1669101976275646 0.11056453794651601
0.07767441709495825 -0.16699439902951072 0.11113937495704913
0.07615815133159233 -0.16550672621938958 0.1101350428084696
0.07667357409276603 -0.1658201126712905 0.11050666634418217
0.0771846074725508 -0.1663000272520755 0.11088047266022198
0.07608270507642646 -0.16471575983318007 0.1103925073689576
0.07664884289332538 -0.164928029603055 0.11094053898801218
0.07606226180687152 -0.16414019137296426 0.1105551723222774
0.07645141298417035 -0.1641303790176423 0.11101319341920497
0.0751491689312135 -0.1625573259490499 0.11022022755917195
0.07559815134454743 -0.16303664570448786 0.1105418328838819
0.07608831610235073 -0.1635513531001805 0.11084104396591074
0.07515757220692483 -0.16177227590378251 0.11050207705022211
0.07569816328903241 -0.1619848079859718 0.11104577795417335
0.07535598091824042 -0.16120302102625073 0.11094633263701012
0.07488863068442737 -0.16102438309825454 0.11058479090570746
0.0741812334456148 -0.1596101242357633 0.11062225536799893
0.0746861721481419 -0.1599489466608559 0.11093555716063355
0.07431003007611411 -0.1591617372659506 0.11099239036791377
0.07387253756336762 -0.1589487186536296 0.11068896905405187
0.07278521030604523 -0.15754511267102742 0.11026202087128056
0.0735522853956207 -0.15805440779821744 0.11083247827327766
0.07221596430705317 -0.15680984790085256 0.11011691626257286
0.07274227014847211 -0.1565697474160147 0.11074862675237569
0.07329242473766215 -0.15694005149930437 0.11110175954300672
0.07233955172818463 -0.1561480522350155 0.11057304253180836
0.07274487027471545 -0.15585411300934063 0.11114297199870833
0.07307384439780318 -0.15627186450093022 0.11126138321091124
0.07115167700428054 -0.15464533271867237 0.11027032641688927
0.0716400421745551 -0.15502473706852002 0.1105159842706036
0.07219525616267071 -0.15544756637777596 0.11079211671883402
0.07119123830019208 -0.15416225463993413 0.11052948478747912
0.07166852119108152 -0.1541304956412951 0.11098903903016741
0.07018509113401393 -0.15276933888611227 0.1102311307129066
0.07065223297467788 -0.15315999576438583 0.11052796889678125
0.07118643209217433 -0.1535939817202497 0.11079127972864079
0.07020892595800571 -0.15220049831092566 0.11048257466185395
0.07072033912952218 -0.15217218650857905 0.1110065118687539
0.06923354141894035 -0.150629441485581 0.11022279650302891
0.06970103791460457 -0.15108758021206728 0.11051360136023007
0.07017704613011068 -0.15150977613230918 0.11079675169040669
0.06922793498425207 -0.1500116570003535 0.11052088775388283
0.06972118340217631 -0.15006783975136648 0.11106677296595954
0.06837592889772916 -0.1486167329938253 0.11017993438163554
0.06879642764446771 -0.1490578253575889 0.11049920288667578
0.06923750903071864 -0.1494262688665762 0.11081459551553678
0.06837590013976787 -0.14792490488749496 0.11055011897278488
0.06886809722297206 -0.1479558772317252 0.11114220598901768
0.06734896412501216 -0.14662214370789428 0.11023208365619004
0.0678804171187163 -0.1467446833300793 0.1107686091518733
0.06838908745219778 -0.1473142449741123 0.11092117270176269
0.06757913312138686 -0.146117092698795 0.11080549698204772
0.06713892162744856 -0.14595431655833457 0.1103375201089457
0.06626933676231549 -0.14477678420546652 0.11022606321771428
0.06683626575384403 -0.14488104599732482 0.11074665294418459
0.0655663415870708 -0.14345498314102137 0.1101929725871919
0.06594148885235637 -0.14384040750161373 0.1104880212090302
0.06630641057520255 -0.14422603447974455 0.11069942334467323
0.0654946016546617 -0.14284194230741315 0.1105109775668014
0.06596152765978049 -0.14284276044113067 0.11116967755421402
0.06461799143563603 -0.14168381556701568 0.11031371040851494
0.06504379637004627 -0.14181350366758827 0.11077397747993821
0.06546388068471641 -0.14230215730777612 0.1109154811698365
0.06476246382102009 -0.14123001362366125 0.11070885949461458
0.0643330155441185 -0.14107086978349567 0.11021809599312503
0.06340667987184402 -0.1394435477589382 0.10994140025689146
0.06395714328529686 -0.14006712532027094 0.11031321976396276
0.063236475564896 -0.13846847763962183 0.11021569715343006
0.0638744264036177 -0.1388890690611211 0.11088399779434126
0.06312521662224813 -0.1376468065189716 0.11047629845034768
0.06358767010827976 -0.13780272077741534 0.1110153652335223
0.0633276636081909 -0.13712405338441977 0.11105384364264403
0.06293390747461605 -0.13701450389187983 0.11053879482866448
0.06233267106913192 -0.13554487600301812 0.11038081564924518
0.06275882382899464 -0.1360969706935737 0.11074854447354442
0.062392734974702796 -0.13482950086404927 0.11062186007299658
0.06279029902047482 -0.13504911634465608 0.11122680549333151
0.062585947573145 -0.13428191555574653 0.11102521383625233
0.06223252833074502 -0.13402055491608397 0.11040729992387163
0.06222094983756895 -0.1329457675264227 0.11052724127739312
0.06220476086049783 -0.13193112451650985 0.11056957112633187
0.062190299725275046 -0.13099461949078609 0.11059523237089171
0.06217564618031324 -0.13002564077679976 0.11053102037679564
0.06213747285232502 -0.12887874717446995 0.11050246784433326
0.062123982638017244 -0.1277970695846803 0.11046847077006253
0.062110060286889986 -0.12665892745233506 0.11041672124499448
0.062123437288582974 -0.12563613585365058 0.11046244924524433
0.06210816789097401 -0.12469794785931987 0.11053928115941775
0.06213900392989752 -0.123835503799507 0.11063185386803637
0.062194545955815465 -0.12294986287954067 0.11081223276157326
0.062203652251279565 -0.12239865182065757 0.11103643177854274
0.06217229729848051 -0.1219324915150139 0.11099284801651599
0.06240352024119989 -0.12224243298310118 0.11146096153610631
0.06231109191918952 -0.12154035070349753 0.11124678678075389
0.06201902596304609 -0.1212472440143555 0.11071391832600803
0.06136862697438656 -0.11956825488539657 0.11002134972275229
0.061777202327737146 -0.12026009240217425 0.11055674277686987
0.06123902530395664 -0.11862407384216853 0.11014871608048565
0.061761775693341396 -0.11916647913634427 0.1107078209975896
0.061136802411229325 -0.11772471889555358 0.11025547524785846
0.06169426026230915 -0.1181648593612793 0.11081453479844305
0.061081395366113796 -0.11680373048635626 0.1104287997595035
0.06160444374858766 -0.11722421451738575 0.11088714822706512
0.06115439396885395 -0.11625224237873819 0.110631063999727
0.06153712423726885 -0.1163324836419135 0.11099907308496007
0.06161398893325831 -0.1157021766717796 0.11118786981790328
0.08321624858089097 -0.17747528689601474 0.11120483805786828
0.08364275640030586 -0.1778174771339622 0.11165726627544031
0.08311590751212676 -0.17660950106173212 0.11142327715951382
0.08360446895147788 -0.17691019693165602 0.11200956040564806
0.0830456606345995 -0.17579024559999018 0.11158968134125041
0.08343272292754747 -0.17596624444153527 0.11210126153871577
0.08320603411407199 -0.17527366367914035 0.11205654358156604
0.08277684367556429 -0.17513381618424642 0.11157191870578481
0.08196294418882803 -0.17369836393173488 0.11147384679958477
0.08250038172969322 -0.17427265249690083 0.1117266450871237
0.08193095036303545 -0.1731653732835492 0.11183003065524215
0.0824424575949411 -0.17320849740250407 0.11237306070376905
0.08101796459765183 -0.1720115005279198 0.11166958820121377
0.08148678399988832 -0.17204100591317706 0.1121672970971333
0.08195700866370532 -0.1726357878455412 0.11224524338388003
0.08007567331076725 -0.1709312632281409 0.11139161400761913
0.08054351974698244 -0.1709714382300898 0.11191893490591141
0.08103789299346957 -0.17151268524461247 0.11206263850002769
0.07934946668964281 -0.17003978152454047 0.11104369583548235
0.07961423739666951 -0.17017974427626534 0.11133702418895905
0.08001730150295755 -0.17040711535926512 0.11170844327599681
0.0784227340516665 -0.16851455211488728 0.11098815512292683
0.07894225002804169 -0.16899441668982637 0.11133764866173354
0.07931759583611732 -0.1695378644522153 0.11145318264432522
0.0782077007715186 -0.16762315116636753 0.1113816307244174
0.07886613747093761 -0.16804765191957585 0.11192851751674865
0.07809436344509527 -0.1670319573482251 0.11165471245211825
0.07851949864426759 -0.16706897299776702 0.11212290273115774
0.07714858495477644 -0.16539780994105752 0.11130908318856292
0.07766533257054486 -0.16581281674804713 0.11178757648189691
0.0781189308725728 -0.16644743602186335 0.11200216302820773
0.07716210639142328 -0.16473934298127 0.11161545474263802
0.0775223295163634 -0.16491864205340165 0.11203413167115582
0.07736995385272008 -0.16427974916294436 0.11212260523121567
0.07699219183046015 -0.16414076411967227 0.11165794435328542
0.0761250491928407 -0.16267224206338926 0.11125419993909186
0.07676685873496586 -0.16319465460196264 0.11181931347748521
0.07612319130435065 -0.16207379825321527 0.11151600157550841
0.07647866611672464 -0.16212257883561695 0.11197207314549758
0.075228529533018 -0.16044303022626658 0.11118249954306506
0.07576861477006618 -0.1608410459977254 0.11164679961505145
0.07614924554969767 -0.161506242552362 0.11189317252222872
0.07514801299760494 -0.1598728997155364 0.11137172353121942
0.07550211775594998 -0.15988916595196126 0.11179650252361803
0.0741663649878047 -0.15843435811407955 0.11126225614951482
0.07467444481558913 -0.1588647896417113 0.11155921552056354
0.07512225479930885 -0.15932066709121856 0.11173111652948577
0.07411206500334265 -0.1577629187437069 0.11152805664283605
0.07463706234215761 -0.15791542538179595 0.11206497166078781
0.07428360520078214 -0.15724264005404853 0.11202108393949858
0.07387786969361693 -0.1571121045437206 0.1116258962326841
0.07312197253176048 -0.15592367604007754 0.11147871082497794
0.07363499918633366 -0.15609708102915013 0.11192200527512423
0.07213769103877322 -0.15460879436822786 0.11118049788562717
0.07266114762683754 -0.1549803708362233 0.11149677967643286
0.07314958390661394 -0.1553927737925424 0.11175356099748432
0.07217047766371744 -0.15408308017827022 0.11146724877846388
0.07265959104664017 -0.15405367933531267 0.11201228371232798
0.07122559601310398 -0.15276920480122225 0.11121690186025396
0.07170836948549263 -0.15314290952358275 0.11150651627871402
0.07217902740623706 -0.15352717406349123 0.1117787869943886
0.07127852637223041 -0.15220206581474463 0.11150599453201963
0.07172640950329864 -0.15215776106856513 0.11198773953145096
0.07013164952954554 -0.1506382780166277 0.11127278789909019
0.07064456101922546 -0.15103163192207125 0.11151974247083676
0.0712500060480273 -0.15151679693206693 0.11180046235422623
0.07014451535392811 -0.15012311576482926 0.11154003119302698
0.07062837126488088 -0.15004344312540396 0.1120355893538619
0.0692691840864424 -0.14852659432358356 0.11132022132945688
0.06975082387417517 -0.14888824732884048 0.11168852057362433
0.07018285147955482 -0.14950971711691202 0.11182209108364803
0.06927905661437861 -0.14797745837204515 0.1116654430034416
0.06958268967205658 -0.1480136072358396 0.11202952818102697
0.06841042662811336 -0.14676108751742348 0.11132078166962762
0.06890792804100317 -0.14683821229794114 0.11183524899863481
0.06934689553833372 -0.1474917428934656 0.11198525620928687
0.06749145632965588 -0.14539284005563488 0.11120119728662974
0.0679255905946811 -0.1457824695522556 0.1115452364436965
0.06837645019287092 -0.1461900390088214 0.11177108637236959
0.06741753852878066 -0.14484245078238353 0.1115095172354158
0.06788571976524467 -0.14486535260959552 0.11215728674416534
0.06633360163495407 -0.14337633302381167 0.11135565842188593
0.06676689198322915 -0.14368188146105648 0.11171550437148878
0.06732778321146883 -0.14420697591399656 0.1119077244090865
0.0663310415538894 -0.14288530406059968 0.11173208798789115
0.06656079184098919 -0.14292218921854152 0.11212342791921233
0.06547869795397968 -0.14179331241700943 0.11129313314864706
0.06594281590446409 -0.14184135173072007 0.11187197057696038
0.06634765514612702 -0.1424477953062039 0.11208510594561842
0.06460972440004695 -0.1404544216188437 0.11091591290199612
0.06512922326676686 -0.14091109477891944 0.1113379950241136
0.06553284509215884 -0.14130017534364067 0.11165734557659841
0.06440548674310588 -0.13950162663892068 0.11128806365276331
0.06501880774225745 -0.1399670848250452 0.11175372131391258
0.06435893887168145 -0.13869719424519272 0.11165554276953309
0.06490424427605579 -0.13888080469742548 0.11225988688145866
0.06454637747647486 -0.13812127588653392 0.11217352387839787
0.06408525461777538 -0.1379214699817771 0.11166315320734091
0.0632789042359818 -0.13645249524673464 0.11134681989333058
0.06375692640248024 -0.13697549261852024 0.11176273183335517
0.06313929518520349 -0.13564681229363432 0.11156344497598897
0.06364627291141081 -0.13601862945455548 0.11210763071844906
0.06307717748376793 -0.1351623932871239 0.11169557124355327
0.06337972410586158 -0.13520672874500186 0.11208889728424874
0.06253918952662128 -0.13347727680658125 0.1111217994027808
0.06286485514294861 -0.13404287660916508 0.11154564189681739
0.0631519105505063 -0.13462233367368337 0.11188901275650845
0.06254163785236064 -0.1325806145551733 0.1112171331350635
0.06286409759577616 -0.1331141289010824 0.1117378191136921
0.06253874393401428 -0.13161096151130877 0.11126111561992559
0.06290039226267673 -0.13211078579699165 0.1119264034518219
0.06253579917046642 -0.13066737851701835 0.1112906576847831
0.06277768349437596 -0.13120230399922836 0.11184091574621395
0.06253305584442172 -0.12961718700836988 0.11126877874427435
0.06285054875167513 -0.13040283570203137 0.11203677662146903
0.062475702975725876 -0.12850053367514058 0.1112138206811581
0.06287736970101672 -0.12923225304544744 0.11197251648292643
0.062457512932613285 -0.12739035933376372 0.11116544958033375
0.06287802218536744 -0.12796139538823026 0.1120167784819645
0.062433713369590735 -0.1263056027899858 0.11117533163581046
0.0627101273269199 -0.12689767572253524 0.11173920945410713
0.06241421956893328 -0.12539151818956001 0.1112230267640941
0.06269758390982522 -0.1260648766056991 0.11184229602906749
0.062419223820204525 -0.12446278095643942 0.11123864229837149
0.06268804785056756 -0.12515763655908954 0.1118881479859336
0.06243428831044956 -0.12355194175731478 0.11128695822929179
0.06271765599964457 -0.12416206358286519 0.11194097847766285
0.06236425815189203 -0.1228145190496183 0.11129540615939265
0.06267416877716875 -0.12313769015914212 0.11187591877921885
0.0627784437128608 -0.12235630853446489 0.11201801620711656
0.06229753063340034 -0.12071241294819623 0.11128036750788003
0.06268549852011919 -0.12146439980871926 0.11186087155813493
0.062238507953481244 -0.1197068214219674 0.11131260289624628
0.06274022517130237 -0.12031863951912143 0.11204229620875679
0.06219129342164072 -0.1186318949714067 0.1113868638379677
0.06268017997194394 -0.11919482528406788 0.11197623956055508
0.06211248613836287 -0.11767359254657961 0.11143243323094806
0.06264476522579927 -0.11805508351531845 0.11204200537726774
0.062048233175334595 -0.11669246009716248 0.11150663174476934
0.0624550722062384 -0.1171317021834285 0.11192265306111995
0.06199512709197436 -0.11577207484360756 0.11160724887904155
0.06253180454443114 -0.11611633071920188 0.11220179814842372
0.06204260305807038 -0.11486833121106041 0.11176755559595188
0.06232543220467424 -0.11516037733569907 0.11207284312421763
0.062228641822425455 -0.11411261669910311 0.11205230759575234
0.062449873486172876 -0.11426489866949557 0.11231182477538512
0.062424174243957416 -0.11381260210466689 0.11232312782280113
0.08412613992578927 -0.17781371552273345 0.11237576570240491
0.08408512621238931 -0.1773829349637345 0.1124663062410379
0.08460744101194587 -0.17750958716192522 0.11313209246258366
0.08401900175179222 -0.1766900148269946 0.11268536877307087
0.08440647587232752 -0.17685372057674698 0.11313368313728787
0.08418271906267506 -0.1762336655911567 0.11313017244308697
0.08384017653068977 -0.1760593341784472 0.11271082399408698
0.08304966540355743 -0.17456222751381553 0.11226070722554701
0.08363549873515518 -0.17504089848777601 0.11283810655445044
0.08291789494729493 -0.17379272898362716 0.11253952714401959
0.08332571614448984 -0.17411425746966996 0.1128877618694853
0.08288561249629235 -0.17322593039301634 0.1128400783254479
0.08328824929714371 -0.17328026321609674 0.11329186751558788
0.08197305471530225 -0.17211097325056138 0.11265807078804657
0.08245745979971926 -0.17217622179887615 0.11310287250228443
0.08286398559820009 -0.1727065518837152 0.11316622563591286
0.08103051533273657 -0.17101149129667428 0.11242952759898105
0.08154266144780573 -0.17102058349258298 0.11293733620767357
0.0820173717927435 -0.17159012617468677 0.11304713323154784
0.07979844781269219 -0.16943750291367837 0.11213369785005922
0.08047795222654085 -0.1698328917663966 0.11264214553169613
0.08100623113805311 -0.17039902311886632 0.11282260687725358
0.0793200990390638 -0.16877099838607337 0.11205122560162814
0.07979057539486498 -0.16848580836061983 0.11270967077282287
0.08027549178650109 -0.16884649536740798 0.11300376504261156
0.07936148928280058 -0.16790132592474918 0.1126313144365172
0.07985888088020669 -0.16772454496282432 0.11322433467770748
0.08018327254624882 -0.168199369601463 0.1132889628702379
0.07941092234774697 -0.16726218579633964 0.1130599973188558
0.07901846229648776 -0.16717456764934446 0.11269125155785557
0.07810579897036989 -0.16570612305466276 0.11239133718579689
0.07869671309715791 -0.16605045650598804 0.11291153006854583
0.07833144325689019 -0.16527796951312837 0.11288137052123712
0.07792950402385464 -0.16506992360870512 0.11249414593823746
0.0773128892272934 -0.1636178925654696 0.11239298817712336
0.07780227463141749 -0.16404734152464726 0.11279474701813828
0.07730209702220264 -0.16295861901131226 0.11263701917193429
0.07767873064888282 -0.16311010288532632 0.11305848023646792
0.07755728137853617 -0.16248141623259676 0.1131272653891262
0.07706991172326394 -0.1621635387577206 0.11270835301907052
0.07618309841063113 -0.1608299496027281 0.11232189131021625
0.07658154411271992 -0.16119568273702956 0.11269262089322214
0.07639959451337656 -0.16037241200542354 0.11282104189636297
0.07600175690845717 -0.16008309843356405 0.11237154899551982
0.07505723511495849 -0.158527829436707 0.11223100851208685
0.07566333101658129 -0.15898262676838412 0.11259248231137367
0.0750420416436296 -0.158001275071283 0.11249202298115508
0.07538467614739769 -0.15799408411007823 0.11285504146344573
0.07416375638252963 -0.15659008025819637 0.11232847404642952
0.07460776922775636 -0.15695985404583432 0.11260312654189392
0.07507885081784287 -0.15742956634009106 0.11283729961618252
0.0741107731994851 -0.15610665286720615 0.11253122737142
0.07456371018654095 -0.156082998721699 0.1130661381818575
0.07310450702610063 -0.15455522041515102 0.11221145603602801
0.07361069530097726 -0.15501493037339692 0.11245630058087026
0.07409968535600799 -0.15549105336532823 0.11278795835012859
0.07308442083104996 -0.15406104464952083 0.11249804675394455
0.07356472020147076 -0.1540676574054541 0.1129891424807804
0.07215165566779708 -0.15269577907100623 0.11218378141815906
0.07265726370043042 -0.15308708043302446 0.11248885626984627
0.0731074705663312 -0.1535115641964327 0.11278284292580228
0.07217936342629758 -0.15213826059751023 0.112430995682228
0.07269507611463029 -0.15206952251526573 0.11299881283010586
0.07117309979768581 -0.1505407246642046 0.11227724145962091
0.07169741828660997 -0.15097982222626005 0.11252119125234826
0.07221321900709875 -0.15146507970756623 0.112746696688206
0.07115322862849334 -0.14999314474833858 0.1125983730416429
0.07163948672450796 -0.1499278267042324 0.11309878797414015
0.07018424008288048 -0.1487585603549775 0.11222018067585042
0.0705836353863767 -0.14904822820320351 0.11245375554020623
0.0711091425985348 -0.14936305019469392 0.11285787587993625
0.07041030416954508 -0.14836553628669172 0.11264130675961666
0.0699975307994315 -0.14812377100938712 0.11241110541517498
0.0694177711803274 -0.14694573128949792 0.11231466906213351
0.06987194409417477 -0.14712445469934787 0.11279706307189115
0.06828760206803614 -0.1454335755602956 0.11232161966128165
0.06879639510866717 -0.14582878417940265 0.11248880869198921
0.0693870517047927 -0.14634118331776938 0.11268077330161441
0.06830134105779928 -0.1449076810157904 0.112660724374346
0.0687445206942838 -0.14487752284642078 0.11310956728938706
0.06721031609683405 -0.14349293117333425 0.112414719390855
0.06782548804663943 -0.1436944110196892 0.11290655003162425
0.06832200237559256 -0.14433082008963566 0.11301561347169004
0.06738562698407163 -0.14307577220076342 0.11295694637309127
0.0669217569954285 -0.14295803336366203 0.11258310276581905
0.06636970158009342 -0.14195505799017263 0.11248025570862452
0.06673776203892094 -0.14208751460864502 0.11298061837684402
0.06551933051069235 -0.14046266335135238 0.11216624686862156
0.0659051528988123 -0.1409215880764487 0.11250114723660513
0.06631139735275733 -0.14140414223478778 0.11282848585366863
0.0654060331261085 -0.13959864574675493 0.11252782804392089
0.065845227957127 -0.1399989024762644 0.11301541758374717
0.06530475700145039 -0.13897904301294078 0.11275907636954377
0.06558834835625978 -0.139086985476846 0.11314388931731204
0.06432942671146327 -0.13729975430827343 0.11234524868579673
0.06483787038103069 -0.1378279760575153 0.11276358398086132
0.06524541988624592 -0.13840702777160524 0.11304164976867338
0.06413205975539382 -0.13651337163478708 0.11253407228679309
0.06466045354076551 -0.13684704299023157 0.11308642855166781
0.06404314249769387 -0.13589038827792205 0.11273421005106449
0.06440373956959472 -0.1360649479205766 0.11313159705554156
0.0641856157349784 -0.13547098736142535 0.11310158235208957
0.06383607552967083 -0.13530049272200229 0.11269103424802202
0.06324046631438067 -0.1336615320355525 0.11220967360428587
0.06365193038698523 -0.13438058332611894 0.11265896586545565
0.06324474626676672 -0.13273047774511 0.11239917174047824
0.0636814761141656 -0.13312482790277663 0.11295383211085157
0.06324985117902424 -0.13199327941291836 0.11248883431254186
0.06356573088514934 -0.13219164060523989 0.11289053552043435
0.0634121217000095 -0.13155380610651188 0.1127545192127827
0.06305943575502361 -0.13125519723344467 0.11236396521966038
0.06313104796475341 -0.13064146630827408 0.11255068825569194
0.06319795375326848 -0.12989717849671642 0.11258280780154568
0.06351470943980464 -0.130469416030389 0.11299013238721953
0.06323072684206939 -0.1287634297462717 0.11269169435109551
0.063599559795251 -0.12945995141429306 0.11319758116332128
0.06321157799742544 -0.12788436295905029 0.11281794067298863
0.0635628168462108 -0.1282481683903913 0.11339328378826438
0.06338363660028426 -0.1274114212231654 0.1131945874118025
0.06305396691919869 -0.12695590599300902 0.1124882232346515
0.0630116222767668 -0.12583045959744701 0.11249968489785143
0.06299721314568406 -0.12481854337914493 0.11256470713125254
0.06299028671143833 -0.12386424868940259 0.11260045977091561
0.06305578881137508 -0.12297358265986197 0.11255434775952217
0.06312067789323594 -0.12203808165826087 0.11253153031436973
0.06309518165914753 -0.1211444440469827 0.11252146200047364
0.06314310839873834 -0.12047611511794513 0.1126262655758252
0.0631024149726772 -0.11973188508223913 0.1125758925484626
0.06348332401385504 -0.12031173975612716 0.11313012218565457
0.06310241944798202 -0.11871734206294347 0.11261975842319587
0.06351591016060512 -0.11934799929503755 0.1131866337448454
0.06309834637214536 -0.11792827092257405 0.1127056997141083
0.06348862710721946 -0.11825462534419552 0.11325174934848102
0.06331314332267766 -0.11751385140248488 0.11300842651369764
0.06291296444071566 -0.1171467030589055 0.11248528089045391
0.063049736856765 -0.11639387136179632 0.11272169264891056
0.0630189999180459 -0.11579110370724023 0.11274768392663878
0.06343596881288634 -0.11614496703303208 0.1132103890866112
0.06325575479204423 -0.1153876661178039 0.11304028296440181
0.06280059877801179 -0.11503429997712365 0.11258602778927501
0.06285036597626772 -0.11417081635845332 0.11277373772590926
0.0627827269413407 -0.11368373423313206 0.1127663577472484
0.08504095750820412 -0.17762935239103483 0.11364322693035742
0.08502031428537163 -0.17746637698143283 0.1137427890813528
0.08543619986940029 -0.17738190627590192 0.11422656988749108
0.08517308513026185 -0.17713238565666892 0.1140899723888608
0.0848376797199087 -0.17701352387060348 0.11369301426571297
0.0841387531619305 -0.17554829811679482 0.11336277630249593
0.08460494935277728 -0.1761095713982762 0.11376908806895814
0.08409517942093421 -0.17472022688197805 0.11364284825237066
0.0845842209292705 -0.1749413614224059 0.11422262948976847
0.08425068930430404 -0.17418700703860215 0.11411361555457314
0.08382521917237648 -0.1739641872376721 0.11364090573965073
0.0838009747420281 -0.17293300208867218 0.11415463002904655
0.08288360289767786 -0.17221837980702637 0.11350319500691697
0.08331937678310071 -0.17230961862636046 0.11393716837100278
0.08206363547327528 -0.17104134056212225 0.11345807272447184
0.0825436256291424 -0.17110062723992994 0.11389302148933597
0.08296195783481886 -0.17171681409364356 0.11390670559306965
0.08098147712427564 -0.16969129730000573 0.11325245883405294
0.08161242791960231 -0.16992488217788843 0.11372385845743492
0.08209639262378388 -0.1705518607594029 0.11382099137089857
0.08122003149875714 -0.16921214439507867 0.11377291462344098
0.08075860741416517 -0.1690274866288344 0.1134205041720497
0.08024871655784377 -0.16787555355926012 0.11355475759669036
0.08061279105046051 -0.1680474013915536 0.1138494898695985
0.07926010331762046 -0.1665532723771476 0.11328290985266878
0.07976082092091584 -0.16689253465905185 0.11357738686241857
0.08022351231934342 -0.1673632981663478 0.11380708665011653
0.07914899387322737 -0.16596143286625217 0.11352993880645693
0.0796556775429609 -0.16592127917864682 0.11407735470088776
0.078303902453541 -0.16452880954132015 0.11321081073688971
0.07871120234209941 -0.1649931150153178 0.11353139986877933
0.07912552947138625 -0.16541699862846804 0.11381427534871376
0.07828483924947069 -0.16380989263027523 0.11355392267300721
0.07870951746837973 -0.16394962476597413 0.11408472782543565
0.07845926687923963 -0.16336959423787567 0.11403069426292273
0.07811817277632771 -0.16322390521498195 0.11358975665196443
0.07752898002485134 -0.16190676385938046 0.1133759857152021
0.07797554792636895 -0.16217686602672407 0.11388693734725777
0.07767970219921044 -0.16142225471240734 0.1138150757769076
0.0772229803927768 -0.1612479837742998 0.11337586836729241
0.07634729571427952 -0.1595320245359782 0.11312422194179994
0.07690281867483525 -0.16012939252067815 0.11359502565279678
0.07625549262862372 -0.1587731048634963 0.11336799858138599
0.07667809756884028 -0.15906121908046897 0.11383440729853997
0.07645190121495452 -0.15834784890262482 0.1138342631404204
0.07595428262377917 -0.15805785087385582 0.11340035633923538
0.07508314480976597 -0.15664253998695127 0.11330963403633397
0.07564709818221195 -0.15705467789947072 0.11369068891296788
0.07505996992532821 -0.15616219108561782 0.11354186806380674
0.07541785784917408 -0.15619799087170294 0.11390721991401118
0.07405653719042726 -0.15463884906699724 0.11324130889318623
0.07454917325111855 -0.15499560505484627 0.11364121227733404
0.07504373965131969 -0.15561232230942587 0.11382963885469484
0.07404001652225511 -0.15415745528700944 0.11350487931740104
0.0743715949109134 -0.1542055789710977 0.11387884790781704
0.0731392838203565 -0.15262998181972398 0.11327214575492003
0.07358524073784106 -0.153071373158133 0.11353295628472668
0.07406574695334872 -0.15360795795832372 0.1137983108278973
0.07316859890259617 -0.15208150206838383 0.11357841525493566
0.07362273932744613 -0.15204768498960067 0.11407392115434145
0.0721996454816625 -0.1505037563253712 0.11324327338150979
0.07276822265341733 -0.15095731880094512 0.11354060728775767
0.07322412801294151 -0.15144770772285898 0.1138634116384198
0.07221606710768791 -0.1498988883768347 0.11357339408485216
0.07280484274962029 -0.14989816724272675 0.11412085368557716
0.07092548006514421 -0.14832904365516125 0.11317931355314388
0.07161429755058576 -0.14871693990659052 0.11374611299925243
0.07219980745020745 -0.14926193129070217 0.11395194422864093
0.07041144341655703 -0.14771625712129663 0.11301064513297973
0.0708529810292251 -0.14742634001419228 0.1136753569843192
0.07138183437264856 -0.14775442757877622 0.11404701648611563
0.07042069336230035 -0.14705770418812103 0.11349112995395064
0.07082493070776368 -0.14669040996780183 0.11414458975864746
0.07120913493769895 -0.14709499555626385 0.11423536998836126
0.0692905556356922 -0.1454596258512193 0.11319422136086899
0.06983403662085179 -0.14598152165154385 0.1134276717335734
0.07030593656402186 -0.1464133273035616 0.11377807945714992
0.06921729991554443 -0.1448891745185146 0.11353896099099157
0.0697442822093866 -0.14492552252372848 0.11401323853225442
0.06828899408385053 -0.14377840030288086 0.11336441129412263
0.06870987253970993 -0.1438696944455115 0.11376504079140522
0.06917340315968508 -0.14440048548626802 0.11386002929924134
0.06723304172887752 -0.1424603079339011 0.11330936394055904
0.06775504524163528 -0.14279757375367286 0.11357055764822256
0.06822000098462808 -0.143221356768623 0.1137257571262897
0.06712657918116532 -0.14199051101637097 0.11357548123007621
0.0676299278331293 -0.1419475610275257 0.11412400045076211
0.06620956940818785 -0.14056685808030442 0.11327786660873185
0.06665059099202157 -0.14107567820056735 0.11359044478224661
0.06709281136946342 -0.1414774132579133 0.11388883556448282
0.06616594309021763 -0.13984841890965635 0.11365467448161846
0.06658519568619099 -0.1400424391427148 0.11412500996151885
0.06627753276289894 -0.13939439183964872 0.11405992023535748
0.0659686693206752 -0.13923698399584614 0.11367474073021955
0.06516674546319118 -0.13752842423177844 0.11342319459482818
0.06565408127964883 -0.13823435099342463 0.11372269821057918
0.06505718964331113 -0.13674179651382828 0.113663370078244
0.0655759621635667 -0.13698333829476037 0.11415202746073515
0.06522855449388416 -0.13628675566461154 0.1140579968574122
0.06482627348792243 -0.1361611681882375 0.11361989281473366
0.06416018276038461 -0.1348066547115459 0.11325265401048752
0.06463010586087316 -0.13532229800483703 0.11366666404919515
0.06416771553170963 -0.13379365575525154 0.11343504636994406
0.06464558868255584 -0.13433000309067727 0.11392154061453937
0.0641725313810744 -0.1329204498562416 0.11362478260499874
0.06469559874345875 -0.13318179601960203 0.11414084259466914
0.064371188708006 -0.1324531018979847 0.11394439678626875
0.06399688248868328 -0.13229236112391532 0.1134756229331929
0.06335809292601305 -0.1310504381692422 0.11276929902906359
0.06382673468080861 -0.1312860338069227 0.1132992754114328
0.06398964031634757 -0.13015218418505714 0.11362631890951576
0.06403606634815101 -0.1290580265131925 0.11381416278712655
0.06404973420795004 -0.12812353101971832 0.11400162273244932
0.06338565456587969 -0.1265093945672492 0.11318656606727052
0.06384856047750868 -0.12711174364982677 0.11390927519833094
0.06335436676165973 -0.12547361465259813 0.11322608448405863
0.06366563025940566 -0.12604031087343484 0.11377998929930612
0.0633308219004133 -0.12451148805995894 0.11324501226644841
0.06367542619601223 -0.12522388245340935 0.11391738293897859
0.0633659587116784 -0.12361339718165218 0.11320992179515649
0.06372988450303367 -0.1242913874297071 0.1139109993330986
0.0634570605001219 -0.12265993599891796 0.11318240361844395
0.06382883251340854 -0.12329307815691272 0.1138597850890842
0.06347007160246458 -0.12170842075531733 0.11315087341245862
0.06384306017016453 -0.12225793223392994 0.11379313826408347
0.0633961393365616 -0.1209800731278566 0.11302201262821181
0.06377386973041572 -0.12121270063295062 0.11368697781744032
0.06392746884804143 -0.12013330391087178 0.11386200309813917
0.06390621514372809 -0.1190570719472139 0.11382752575302237
0.06392318696627457 -0.11822623668572912 0.1138133623396273
0.06331427490842793 -0.11689886073537169 0.11298852351875471
0.06373603786749496 -0.11721826270008297 0.11352450326566911
0.06385375096097436 -0.11619070568282573 0.11371159786133134
0.0632503267690776 -0.1146035618374573 0.1131145902517804
0.06370225655992114 -0.11531625147733553 0.1135701566024954
0.06323336376541241 -0.11377172790882349 0.1132125668059695
0.06371891697737223 -0.11421452073161195 0.113680554437511
0.06328693182623828 -0.11324410199231322 0.11336387543771093
0.06369661643401081 -0.1134093267577694 0.11374906961365046
0.06368211826387794 -0.11303832518487977 0.11376988977442025
0.08590450311965854 -0.17739050048516256 0.11469669572684559
0.08615130585321622 -0.17725602225669254 0.11502292824594255
0.0851189962331168 -0.17644584133662805 0.11431135142058114
0.08554662152383974 -0.17678667818522908 0.11462924651286224
0.08596893206964379 -0.17711864497961474 0.11490239887606189
0.0850299991873872 -0.17562076367001228 0.11455326827019331
0.08553213995157385 -0.17589521785228845 0.11502112198140853
0.08500129775292058 -0.17503177804720282 0.11473920436580147
0.0853139981188439 -0.17502931357921817 0.11514536740200391
0.08422079061063954 -0.173420329207008 0.11443493057662454
0.08463381651685349 -0.17390521956491176 0.11473779503986709
0.08502517374304767 -0.17442189771544617 0.1150354520537962
