# .PCD v.7 - Point Cloud Data file format
VERSION .7
FIELDS x y z
SIZE 4 4 4
TYPE f f f
COUNT 1 1 1
WIDTH 792
HEIGHT 1
VIEWPOINT 0 0 0 1 0 0 0
POINTS 792
DATA ascii
0.0864822642541578 -0.1723671617906655 0.10224820496838352
0.08605475540592424 -0.17113593989778406 0.10193481386099826
0.08653027482633308 -0.17141094821607938 0.10233464303774528
0.08638986343202298 -0.17066288334272917 0.10226331249507309
0.08599062464161313 -0.17047713457178482 0.10195856305790854
0.08543896061628475 -0.16910594972510123 0.10171869039886268
0.08596178491515628 -0.1694967279882494 0.1020628356495451
0.08548322786272775 -0.16858717477746485 0.10179192659024812
0.08587535832501092 -0.16859426069971803 0.10208381158351064
0.08481422101656377 -0.16722433730322483 0.10149696619176288
0.08524197798157594 -0.16760066202782695 0.10173229622167757
0.08562433499096771 -0.16805349518240517 0.10194528992745805
0.08487921515449788 -0.16670733290221706 0.10157570072113295
0.08543207329280408 -0.16666475737927158 0.10194928403565788
0.08396396056021113 -0.16554132037541722 0.10122462597230517
0.08444779054133353 -0.1658348486463906 0.1014368011260609
0.08495193331078044 -0.1661559444709121 0.10169095618385461
0.08398159726441146 -0.16507613517073227 0.10133552935702217
0.08441040891010226 -0.16510371237204988 0.1015790478312422
0.08289529082899619 -0.1636459105206903 0.1011718197695505
0.08352603726635834 -0.16411344574307177 0.10134375608532604
0.08408087796469543 -0.1645718478428561 0.10152208974243321
0.08277900103788255 -0.1626873257494086 0.1013921135039583
0.08359729376533127 -0.16316700629588096 0.1016356079930036
0.08214129523570025 -0.16199911497218727 0.10132179790490851
0.08288417975602712 -0.16177352729991132 0.10166797100797341
0.0836605773233049 -0.1621092134731892 0.10194347003893427
0.0823527147149481 -0.16132593220728372 0.1015863111778922
0.08294046231638423 -0.16105530840528842 0.10190449200715843
0.08332546206578192 -0.16147241840222848 0.10194554531145425
0.08089702580874401 -0.15967232351787902 0.10145647404133605
0.08160370000249434 -0.1601470360858645 0.10165384260260654
0.08226558433072377 -0.16063631580659432 0.10176932352391553
0.08025653920540149 -0.1591440494436053 0.10126521839649058
0.08086106674547067 -0.15880159575462677 0.10166998330488188
0.08165795923769209 -0.1591549203848067 0.10196677800576678
0.08025843664838725 -0.1581839715782605 0.10151393525282677
0.08087152477972054 -0.15815867544183243 0.10186084287763607
0.08128155548394807 -0.1584613300810499 0.10199364012768432
0.08013890839860977 -0.1575188761634581 0.10164412622572883
0.08070767924941777 -0.15744551469505488 0.10200789647775846
0.07898690555150747 -0.1560213428408659 0.10139201406900851
0.07954221905986743 -0.15646416336825664 0.10160731098198059
0.0800999400822627 -0.15692423763248353 0.10182002914796963
0.07894559792191458 -0.15533564753888565 0.10160767759789054
0.07955027626096099 -0.15548845652064125 0.10195545718987205
0.07913459078976649 -0.15487492333395037 0.101902275885309
0.07863931883533062 -0.15475748085500302 0.10161023439094896
0.07772566250711056 -0.15348403967049476 0.10147659721622065
0.07836064000871164 -0.15377106689210743 0.1018009988235809
0.07792099139225983 -0.15304482262098412 0.10183865595866884
0.0774236594643746 -0.15288187639908518 0.10155570409501143
0.07653359900229904 -0.1515965133712274 0.10152739671247947
0.07714720102689822 -0.15186612416801173 0.10187574119066588
0.07669288550623111 -0.15113796068241672 0.10192892361714047
0.07620956721246455 -0.1510037185258973 0.10160327787652415
0.0753287620318317 -0.14969615857950436 0.10163987517251294
0.07592203114952639 -0.14999848767905175 0.10196387929663733
0.07553672824476948 -0.1492563379509335 0.1020993350027459
0.07501200271742521 -0.1489974647546256 0.10180880496659411
0.07402289813225531 -0.1477828126965088 0.1017824025746026
0.07451222804124513 -0.14812893803299004 0.10196842602516147
0.07427569084817102 -0.14739399892209123 0.10227388136691644
0.07376148898496475 -0.14706700196312156 0.10202656307579741
0.07275660436436202 -0.14592229723694042 0.10188173887508452
0.07322642385466623 -0.14622266295421435 0.10212113169420073
0.0729529906801309 -0.14553547403438338 0.10232535202828406
0.07249844976588507 -0.14522676793893896 0.10204679741925746
0.07153642724131981 -0.1438407657080958 0.10191814809186807
0.07201434426032863 -0.144431159752459 0.10204093799044449
0.0714967649799479 -0.14309270536991645 0.10226400611091041
0.07201035424649566 -0.14342189157200386 0.10260831558211277
0.07170474323749006 -0.14261282538674697 0.10270618936251
0.0711435426151749 -0.14231448535921684 0.10230017121621121
0.07106429806483404 -0.14127631612786096 0.10273034362880962
0.06996913902540813 -0.1398761516212016 0.10220288747282302
0.07055371516734431 -0.14053838625767545 0.10251425981203977
0.06987215103145131 -0.13907655545360487 0.10243655167485599
0.07048566875696993 -0.13947853486105583 0.10286282979949403
0.07010023127642465 -0.13864749422671266 0.10279935758083646
0.06951790750308962 -0.13821872543401267 0.10237360070986963
0.06943226148915517 -0.13719957044092723 0.10258460291245648
0.06935376004688919 -0.13631131188466603 0.10276194410704997
0.06942050297356273 -0.1356786656568135 0.10293964239081124
0.06931375491784847 -0.13491434186083026 0.10293612869995261
0.06987484972016114 -0.13555581132918942 0.1033261209007059
0.06927267497612126 -0.1341368527993105 0.1029666662598582
0.06985113750381472 -0.13457463394238006 0.10342111234337761
0.06952279330470915 -0.1337443290457898 0.10321795654930818
0.06901274510825077 -0.13330872823134599 0.10275786622426201
0.0691341357486656 -0.13260271769940785 0.10284727184837494
0.06902413773218258 -0.1318160229119705 0.10271608559895436
0.06953260674798536 -0.1324632242269119 0.1032374561216464
0.06891716875086992 -0.13104669034181493 0.1026058742198869
0.06945866745534456 -0.13135862488712155 0.10315637613756116
0.06952564636313967 -0.1302988809202436 0.10326213785732927
0.06948449270924376 -0.12931853593807935 0.10338814313476274
0.0694052086486711 -0.12838204869903028 0.10354388003507213
0.06934375569929262 -0.12756077706262245 0.10377656423243828
0.06833260572942937 -0.12590923956872824 0.10348365668435014
0.06897402926448942 -0.12647950161668722 0.10387989690946113
0.06852089608586161 -0.12552522376003997 0.10395613956730869
0.06787225098719099 -0.12508966504473254 0.1036825704225083
0.06659436880796883 -0.12363051641961037 0.10375078301002906
0.06720274703951476 -0.12423724586476759 0.103769418985267
0.0664184494988359 -0.12298028094620796 0.10422221614372468
0.06704900114283353 -0.12332763983263934 0.10445195825871623
0.06658526102833077 -0.12258528515854099 0.10468626476648975
0.06606972920366157 -0.12234407257648092 0.10437824214565458
0.06603873865575123 -0.1217575177424075 0.10481105146219294
0.08816387588150236 -0.18085170641994924 0.1051206805261413
0.08851067160063988 -0.18092130872594311 0.10564990072237536
0.0883348373244509 -0.18015858726772363 0.10512327549708668
0.08860596610438147 -0.18027728611713878 0.10558126647488121
0.08873835279453145 -0.17962275618491683 0.1053481902671351
0.08852124562778761 -0.17946020624714928 0.1048403422651096
0.08865339865545939 -0.17775258459269197 0.10406539079271462
0.08881150718282674 -0.17839757545983073 0.10455883796822789
0.08900984552590416 -0.17709239555752213 0.10406149019857165
0.0894517797704148 -0.1771292220446374 0.10448740983098798
0.08861617946514465 -0.1756115468941345 0.10349639719222677
0.08896395903174567 -0.17603465193970685 0.10378907134984312
0.08929376162862586 -0.17647479851859135 0.1041101240142382
0.08888944660329928 -0.17502004456502876 0.10361839467150126
0.08942231858143088 -0.17503217710196042 0.10396748141907161
0.08841442340777358 -0.17397546194723873 0.10333823055520479
0.08881855632010255 -0.17398761156064285 0.10362613373032083
0.08911637590228735 -0.17449248083906727 0.1037683705750509
0.08769327398837892 -0.17317586393331447 0.10296810498259266
0.08820122784905295 -0.17314441399987412 0.10329940596920052
0.08855046212055692 -0.17356118716465177 0.10345393126791601
0.08698084459873054 -0.17184368203465847 0.10266482151325661
0.08745061929608614 -0.1721243341621389 0.10299556722875605
0.08783205467934113 -0.17263398205289848 0.10316296851999221
0.08702316266358746 -0.17134729481381397 0.10276658600203269
0.08738721985268355 -0.1713463586994958 0.1030637410634589
0.08648274373338634 -0.16992730438760414 0.10241625732616967
0.08684408642350414 -0.1703604502946876 0.1026914205119283
0.08716247168023974 -0.17082814897362994 0.10294126404426605
0.08656083951726982 -0.1692203937860946 0.10255854849595342
0.08708611227961105 -0.16935136485020405 0.10295682900220444
0.08684459530349152 -0.16871975933263936 0.10281518475717881
0.08640239843915223 -0.16862776392278872 0.10248952739694894
0.0858402914645848 -0.16722390592377923 0.10218859720800476
0.08627995292712055 -0.1677585940295003 0.10247454351316224
0.0859602307122611 -0.16666148508715606 0.10231297683894493
0.0864422111601078 -0.16666830265849444 0.1027112173952806
0.08499354101481131 -0.16528962641272169 0.10189345450965061
0.0855500451881154 -0.16567309695506732 0.10220037190936421
0.08604091149393235 -0.1660925181992439 0.10246953531576457
0.08483333742046818 -0.1643437301084987 0.10201769324091908
0.08561860731175466 -0.16465651665872957 0.1024635873581158
0.08423322315619414 -0.16371927135125033 0.10182807171679752
0.08489542517660127 -0.16337436476136588 0.10227792067755583
0.08546292979171334 -0.1637080405406998 0.10256799303341653
0.08435105235936252 -0.16275003727705978 0.10213032135725623
0.08501022121680342 -0.16265390855399614 0.1025361714071181
0.0853644899872354 -0.16305264311737808 0.10265533450627004
0.08424810622433493 -0.16213350273014887 0.10223876610960358
0.08467879524119512 -0.1620639673644374 0.10251670953990581
0.08335744048528358 -0.16114184193847172 0.10206415651238489
0.08369330405823672 -0.16129121098708712 0.10220290150813813
0.08422745174076941 -0.1615789902373025 0.10241490679065932
0.08228188920117205 -0.1598109558715122 0.10203635711827408
0.08289971651097884 -0.16028355010046286 0.10216264565443704
0.08342271511838396 -0.16075621323444197 0.10224529861834492
0.08229839418835617 -0.1592663707324316 0.1022227416688802
0.08292587789021968 -0.15934289009446048 0.10252712875829505
0.08126818297020555 -0.15787035896283286 0.10218512454334569
0.08176503876800098 -0.15827558751562748 0.10232576905177727
0.08231315084576829 -0.15873559259249376 0.10243274618528692
0.08123473182407472 -0.15742073481708038 0.10231814918422795
0.08177753270863877 -0.15742096544099962 0.10262436809639623
0.08008297044839185 -0.1560874808818826 0.10210078282556877
0.08064974836483031 -0.15651448267959203 0.10229868258906588
0.08122080133972201 -0.15691486813551067 0.10248375919449314
0.080079499771823 -0.15553990559208766 0.10230129428546388
0.08063451155655632 -0.15556839306400516 0.10263353180503484
0.07901769268737949 -0.15422971919836345 0.10207227451463197
0.07955889737194713 -0.15458075262611104 0.10230649939679694
0.08008298019237925 -0.15500332947477588 0.10249771427375558
0.07895445784403843 -0.15371445771934167 0.1022262632498376
0.07950807628162358 -0.1536890656580032 0.10264394322346246
0.07779869470818254 -0.15235756702535921 0.10210220207680168
0.07836522288687804 -0.15274321893750448 0.10229082837836147
0.07893080383800476 -0.1531668115671968 0.10246375271790184
0.07773222862550387 -0.15182247629986284 0.10232496954450593
0.07831016687668785 -0.1518013102197503 0.10275740102025434
0.07651996291501129 -0.15046728299755438 0.10217683597668803
0.07714440678023957 -0.1507539505015228 0.10248639000451328
0.07772392477893754 -0.15126626199429974 0.10262772199146392
0.07641487200266851 -0.14997073685641188 0.1023932995515215
0.07682590340103596 -0.14995652122353853 0.1027306175949579
0.07546724138638103 -0.1487124284691537 0.10237868395688914
0.07600007703778747 -0.14889241121309793 0.10273611089926275
0.07644952580690571 -0.1494785553669128 0.10273181036050733
0.07562268738944952 -0.14827528394060102 0.10281200666903918
0.07515543801501212 -0.14814628850533726 0.10249971972645881
0.07425454160646194 -0.14683348805964158 0.10261714360280325
0.07486032706752031 -0.14714671831684142 0.1029428232164332
0.07445973228628107 -0.146407687823157 0.10307985503678248
0.07392335297142343 -0.1461440179173621 0.10277353681340629
0.0729073205454826 -0.14497199184260529 0.10261896473897034
0.07338546294621938 -0.14530297407544746 0.10285362904938386
0.07310730425185245 -0.14453345235783513 0.10304316889307154
0.07258908842124076 -0.1442402465664607 0.1027119621672781
0.07253327106124799 -0.143337085392093 0.10316500937031332
0.07159386372249775 -0.14183736554619603 0.10298558958279519
0.07222256257600297 -0.14238713457599206 0.10333923418788042
0.07147804934135976 -0.1410853226930109 0.1032271874033764
0.07193447009492698 -0.14133427890543301 0.10354386664304245
0.07168052633099871 -0.14063788593389553 0.10359945822893661
0.07114910009708793 -0.140321261604032 0.10320842061512311
0.07111113410748625 -0.13928094410190842 0.10354571307948898
0.070016948654722 -0.137865562644143 0.10297141333120967
0.07057015324521704 -0.13853404825196042 0.103283074234996
0.06992118608524443 -0.13694261949326342 0.10311963790504765
0.07051164369369568 -0.13755956368398195 0.10351800480626026
0.06979303327994942 -0.1361975281006412 0.10316382819319084
0.07035209869800518 -0.1364487078114142 0.10362675062306725
0.07038661693386793 -0.13544545141415854 0.1038461701898477
0.07038838673810245 -0.13461223153620488 0.10395295109652442
0.06944949793076874 -0.13313863208072485 0.10317473065436006
0.07003194277188353 -0.13353370283551505 0.1036962702399474
0.07006092772488058 -0.1322942470073511 0.10377877944039039
0.07002656262481877 -0.1311900667684419 0.10383284907275753
0.069977113269413 -0.13015490947086086 0.10391831043274828
0.06989711884668022 -0.1291742353541592 0.10402812086178644
0.06981175801053577 -0.12823666564300745 0.10417805450193746
0.06967129859467192 -0.12728624314945403 0.10438329300292762
0.06962345118234148 -0.12632238880430086 0.10478587474890196
0.06837530174760136 -0.12490184298833941 0.10425353219426735
0.06898769358482987 -0.12535176582556146 0.10457395687941888
0.06857561290797065 -0.12450337629586446 0.10471567808640025
0.06786758272813966 -0.12414401802244819 0.10442514149655423
0.06766696338786707 -0.12329827456909372 0.10496122245165371
0.06644670445377718 -0.12192294843777285 0.10504809500510319
0.06715548349457277 -0.12246661867141358 0.1051947642463932
0.06641096767865938 -0.12134920192260878 0.10540234954757209
0.06688655266376027 -0.12149074177454137 0.10564612664806196
0.06682955689949814 -0.12086839548154031 0.10597898942394626
0.08896129039797242 -0.18082481600546338 0.1062687102239144
0.08926409784952473 -0.18071982340521323 0.10665374958970697
0.08926968838747658 -0.18050207758871611 0.10652682293966043
0.08899205759513236 -0.18037225910121932 0.10608582959818061
0.08914789496018352 -0.1787764188612564 0.10519015998671985
0.08923972868322741 -0.17938947492157625 0.10581791385457899
0.0895922757737693 -0.17775123996967418 0.10496569350620909
0.0898802454097523 -0.17811205736664348 0.10559453669150005
0.08986936093982648 -0.17711132077888586 0.10487692511325568
0.09016036484891854 -0.1771420395082105 0.10524125479056852
0.0896756487396384 -0.17560366538660008 0.10422572000450975
0.08995086450117114 -0.1760682238701686 0.10455508625588111
0.09014779257957649 -0.1765535220221245 0.10492194952122433
0.08991557540138764 -0.17504366948311834 0.10432785472745547
0.09035301544415758 -0.1750575097844025 0.10474614349018634
0.08930232360407528 -0.17399023511403122 0.10395222819999995
0.08977714233785196 -0.17399883594656196 0.10432421253499961
0.0900942481375033 -0.17451642968102649 0.10450162510121223
0.08866384308647923 -0.17312639193073337 0.1035870148383594
0.08909226131468272 -0.17309259375282826 0.10393503237078966
0.08944850119724247 -0.17351337004927048 0.10414122409649611
0.08798608634583685 -0.17198354131574903 0.10338649479120085
0.08845705234300567 -0.17216835273670447 0.10368295163333681
0.08874400297361837 -0.17268587868455065 0.10376276697105874
0.0882761819954075 -0.1715474450570868 0.10367189212609056
0.08787555179889882 -0.17140713110261385 0.10341159514053791
0.08741467353222321 -0.1699879851541438 0.10318683688970155
0.08779707876331501 -0.1705557575898511 0.10346472793593625
0.08754510610172452 -0.1693919938105965 0.10333922894887371
0.08800437100251096 -0.16943040089187633 0.10375215281697296
0.08684841257796648 -0.16801608544114377 0.10288354276930865
0.087272079498519 -0.16838222207307052 0.10318978182124719
0.08765044610890586 -0.16880557089710724 0.10349040632216375
0.08684974712028276 -0.16718924667756238 0.10298302593643603
0.08735622052079685 -0.16744315829076017 0.10338661935269901
0.08688368823361495 -0.16664932561326665 0.10307954024079953
0.08722219783782845 -0.1666342726216976 0.10339380958070518
0.0861324788934156 -0.16520910826862767 0.10272514411628647
0.08657655414496566 -0.1656757897739264 0.10299868262844258
0.08696746432216555 -0.16611008205772385 0.1032630365536358
0.08619909928259689 -0.16449468592702926 0.10293560000191719
0.08669544157377376 -0.1646809501149466 0.10332859450762565
0.08644282135553276 -0.16404193648157048 0.10325080101658557
0.0860229174551374 -0.16387775249116637 0.1029491128461227
0.08544458457088144 -0.1625870281833826 0.10285776972682732
0.08591136010000984 -0.16291461525010406 0.10314010066528703
0.08563875904654994 -0.1622264963845441 0.10314338990981235
0.0852215850531487 -0.1620538657632408 0.10288629278751663
0.08408357995887618 -0.16068930592666206 0.10264316435410141
0.08490389557725095 -0.161161796817831 0.10300853791246779
0.08351902422959397 -0.160058788419647 0.10255798915169584
0.08409589620180209 -0.15982270707818907 0.10298642023442833
0.08464481812113898 -0.16013422517683068 0.10323107389289836
0.08364590896703106 -0.1594184786035256 0.10287585669635003
0.08412899049660251 -0.15909399920038403 0.10333189749368077
0.08449214353278951 -0.15950762726770498 0.1033981091336835
0.08233133983417593 -0.15795357457240455 0.1027311718896081
0.08290792376496464 -0.15837183842605593 0.10289716700032173
0.08351790138452453 -0.15875292992148224 0.1030967816642474
0.08233423372523745 -0.15743644293920478 0.10292383422963869
0.08289103998961021 -0.15743855141562563 0.10326614915857528
0.08120926719892074 -0.15611772510790514 0.10276918924916152
0.08177129407827877 -0.1565200950135009 0.10296146617306311
0.08233053794141054 -0.15691340618937297 0.10313467061959414
0.0812009919823222 -0.15558104754941807 0.10296791782363576
0.0817601433233161 -0.15558587430760484 0.10331981926271372
0.08007367472514129 -0.15421541874888373 0.10280070758292882
0.08062890093163111 -0.15463264093404772 0.10299724114322865
0.08118810538593722 -0.15505092284071634 0.10318575101416193
0.08005454065692083 -0.1536880385375211 0.10302059026946868
0.08060952656123262 -0.153700012097831 0.10339956287833871
0.07889378404187226 -0.15234823124117738 0.10285823446231325
0.07945797196421028 -0.15275609045453353 0.1030566454407488
0.08002760828546908 -0.1531519317447145 0.10326531924535684
0.07886888560375477 -0.15182175297832262 0.10312846108064717
0.07942091274092568 -0.15184186198616095 0.10350555295480637
0.07769933137822875 -0.1505807863198801 0.10300788889319482
0.07831716840187494 -0.1507528397877619 0.10336802168826356
0.07886278557651273 -0.15130839697604068 0.10342140896442142
0.07790481981195496 -0.15013748597536306 0.10342926856528062
0.07740137585092183 -0.15000091386814815 0.10314141051714633
0.07650391189162156 -0.14897368864420568 0.1031168754427081
0.07709172476756261 -0.1490866287544541 0.10349727887467822
0.07548550373602482 -0.14763287940264216 0.10313884341807271
0.07599579554691664 -0.14799676240648307 0.1033224283418801
0.07651312258112383 -0.14842817508210146 0.1034731896654712
0.07540326951735589 -0.1471273780048482 0.10342138638353704
0.0759351522147392 -0.14712178649487445 0.10383304916662363
0.0743577344554821 -0.1458604331931122 0.10333955524366754
0.07489522910920941 -0.14602181075090978 0.1037021015015657
0.0753912007530112 -0.14660773060038357 0.1037489643968288
0.07448580512331683 -0.145400210916465 0.10372377349705311
0.07401352285941354 -0.14530176052915975 0.10337947106378365
0.07304460942046749 -0.14376585951770757 0.10338365929108768
0.07364809040044679 -0.14438340158661495 0.10358188872737965
0.07286888255526747 -0.14286624791860045 0.10369250599837716
0.0735549162710704 -0.14323574890399934 0.10405601553832275
0.0727311934361104 -0.14215594964554232 0.10390251870855029
0.07322232003366647 -0.14231626030070738 0.10420977259423349
0.07294950030321239 -0.14169480183096503 0.10425987783425544
0.07247603047737534 -0.1415117961498877 0.1039452484387732
0.0716544381283785 -0.13988366560690343 0.10385927322584643
0.0722168082155628 -0.14053753069611088 0.1041006138613252
0.07157927826669437 -0.1390928259164345 0.10405464345322432
0.0721863087551635 -0.13936053898850112 0.10450776905998738
0.07174691661423166 -0.13858298920981038 0.10437674428460038
0.0711739878554203 -0.13830027946844156 0.10391772476743544
0.07102986760132399 -0.13718814748692654 0.10409064168678311
0.07092561405666309 -0.1361645408722143 0.10424856126588404
0.07085661756953864 -0.1352069339288472 0.10436843762867408
0.07073996546992568 -0.13422029203842717 0.10437840811627017
0.0706324033391068 -0.13313520094146686 0.10437366129934397
0.07055963141472804 -0.13202506588863772 0.10441340481314007
0.0704560381486312 -0.13096694553760432 0.10447614499893386
0.07036436404327547 -0.12996395673594405 0.1045538459918446
0.07026468155682411 -0.12899394112209725 0.10467404960469351
0.07015453775187899 -0.1280420552609421 0.10481493975001953
0.07005635332819378 -0.1271746524367978 0.10500527892142021
0.07006735045489428 -0.12660469967599494 0.10525975263818904
0.06995045821970843 -0.12608146807156903 0.10532437850020374
0.0703441145786266 -0.12643052385325765 0.10575519862981277
0.07005772354688777 -0.12568759018539183 0.10566724238409811
0.0696054930963927 -0.1254445931910537 0.10524394638263546
0.06835198309135083 -0.12374579846946318 0.10511138863133523
0.06913954267902245 -0.12444495694076517 0.10532526343129824
0.06797313082924009 -0.12283095590075854 0.10553001714466716
0.06877799045580169 -0.12332080384610354 0.10576396672690234
0.06760021018451909 -0.12187338243205893 0.10588126676228897
0.06838135214226763 -0.12230946864248744 0.10613845372365645
0.06730417689881746 -0.12097031314387513 0.1062407303313452
0.06801166170154531 -0.12132726819438369 0.10647539298079593
0.0672547350998455 -0.12035513849595696 0.10652769997534567
0.0677192415419398 -0.12043690188739274 0.10679239197648646
0.06764850904676516 -0.11978098361925577 0.10706237719774801
0.08954803271386816 -0.1797449214457302 0.1064554727139704
0.0897402589926693 -0.18011994924940403 0.10700593243700687
0.08993193150457818 -0.1787100854206753 0.106261856483434
0.09020811381844321 -0.17908610210084142 0.10692673114176889
0.09035370725655152 -0.1778975697854369 0.10605607179915276
0.09054779258532727 -0.1780649956774591 0.10654674551994571
0.09076378607204127 -0.17738538614976557 0.1062005807410233
0.09053434658675427 -0.17723203147678285 0.10573785919928495
0.09055961522148871 -0.17568908053399554 0.10503507458023482
0.09073126726574568 -0.1762993067425228 0.10547221755439774
0.09077098088716512 -0.1751006893339858 0.10515347301944163
0.09110800379672084 -0.17517114807625142 0.10561229746381712
0.09025901785232116 -0.17400269471301463 0.10468640570249514
0.09067808338467566 -0.17402556375524114 0.10510599139744606
0.09092264168985871 -0.17457217891352841 0.10532290436893735
0.08957042099886263 -0.17302849821514427 0.10433608103463976
0.09002109353043103 -0.172996876572286 0.10476187271786337
0.09037768899903756 -0.1735024797779234 0.10492572237807885
0.08884512587821757 -0.1722425757402565 0.10396518931004266
0.0891572791492235 -0.17232477802365262 0.10420271937765978
0.08962091183560787 -0.17250904544595097 0.10454256285833073
0.08832315573019385 -0.17086417639141435 0.10383696405445343
0.08870656464778078 -0.17128661931992442 0.10405815066105657
0.08901655727840327 -0.1717805906396645 0.1042088056075367
0.0883826286748109 -0.17002438982553722 0.10400649149546691
0.08888374914777841 -0.17034581424154455 0.10440201348062753
0.0884411068980225 -0.16946129135112847 0.10413897973787192
0.08879025925180142 -0.1694740494183093 0.104456826628152
0.08775067138793459 -0.16794608479194298 0.10366730624320145
0.08820719522794779 -0.16833614677250985 0.10406570467613514
0.08855981414661335 -0.16891560072657902 0.1043284531278792
0.08779998587865648 -0.16726737866569077 0.10381375552160456
0.08814455250716983 -0.16742713211441004 0.1041558105562109
0.0880321471549575 -0.1668318086857147 0.10414094418981099
0.08767350512877731 -0.1666817895177101 0.10380112874653698
0.08705509586009079 -0.16529430778571944 0.1035211794438411
0.0875331902383995 -0.16574056362454626 0.10390176350033298
0.08708237624550758 -0.1647601673139219 0.10367388663994413
0.08738573213947376 -0.16480242303192674 0.10399533003341341
0.0863877593395244 -0.16341035075649452 0.1033858785294422
0.08681646283125946 -0.16371662470096052 0.10371332072987127
0.08713579619658376 -0.16426034711162318 0.10388734581890678
0.08635565442121924 -0.16292877761435565 0.10350993793304622
0.0866673908363284 -0.16294146460813763 0.1038279509343939
0.08555131195015414 -0.1615655635413993 0.10334011185496217
0.0859930878847321 -0.16197227419597474 0.1035530024483282
0.08638521899408146 -0.16242188410970204 0.10374963098201381
0.08547700788129715 -0.16089926518285114 0.10354716992285615
0.08599063878176182 -0.1610423624703006 0.10395236977729135
0.08565913698098514 -0.1604362901245103 0.10390448582513209
0.08522051023038855 -0.1602905815729406 0.10359214851274152
0.08454544893869093 -0.1591528479025227 0.10359950573700769
0.08500322180913385 -0.15932194545537995 0.10386846459825418
0.08345868212373683 -0.15795810109874045 0.10340807594000828
0.08402048895182966 -0.15830980655783564 0.10361731340530551
0.08453376772237997 -0.1586916673718964 0.10380239022910549
0.08343904373069128 -0.15743121693274426 0.10361405616239953
0.08396796597772212 -0.15741744303970437 0.10398676507977159
0.08232537094557997 -0.15611738001257638 0.1034539083324349
0.08287868940596255 -0.1565129555162542 0.10364478220986054
0.08342512187205975 -0.15690236533365073 0.10384215146452626
0.08231942050937979 -0.155580479527376 0.10366934538114236
0.08285873653980552 -0.15557212631990067 0.10406101546308925
0.08117042079288958 -0.15425282681994112 0.10353805723373924
0.08172617351966321 -0.15465543921401978 0.10373042169540968
0.08229658027380275 -0.1550449141926352 0.10391216350669417
0.08115281957021447 -0.1537250473489964 0.10377480688343631
0.08167268230829781 -0.15372538601397043 0.10415135766780216
0.07995930718381067 -0.15237755553254304 0.10360119534112158
0.08058298998668446 -0.1527248955115333 0.10387486209783398
0.08111994755861136 -0.1532286464385855 0.10399917992200619
0.07992336468342558 -0.1518877630124569 0.10383386462812436
0.08033278261222074 -0.15192533052092808 0.1041256610651214
0.07886639936440577 -0.15079595587456443 0.10372482829864921
0.07942647399400882 -0.15085586791164854 0.10409024457310563
0.07996247186694344 -0.15141556086571628 0.10413777562719845
0.07778653494505218 -0.14950868352597144 0.10373485049700086
0.07833973421141385 -0.14986102051944214 0.10392744947030534
0.07887205379155592 -0.15028530308286628 0.10405034183222431
0.07771000787376169 -0.1490044222552882 0.10400361679205823
0.07829540283576995 -0.14896836052806017 0.10446905445071272
0.07645550068383315 -0.1476425269079961 0.10391771097617436
0.07707622282003293 -0.14797724058712372 0.10421073799764576
0.07767626699866569 -0.1484630978338799 0.10434821615986324
0.07641334057448679 -0.14715579768592021 0.10418849451668005
0.07681046114188252 -0.1471707141082746 0.10451080965748878
0.0753904524166087 -0.1460755604540134 0.10408032183336563
0.07592437696830914 -0.14612761742415217 0.10445081193189404
0.0764441312124179 -0.14668112721719714 0.10451681924167283
0.07431805464521467 -0.14470789291089442 0.10396659906234547
0.07486722383450845 -0.1450966178450411 0.10418604705254896
0.07538672649750024 -0.1455285430861196 0.10436977295424678
0.074181338039953 -0.14381737619887616 0.10430818443265369
0.07477553777281584 -0.14423326997678024 0.104563818693167
0.07410766780373476 -0.14306258928691643 0.10458629350734977
0.07471144065952477 -0.14323938559569233 0.10498537557980012
0.07429418987629656 -0.14257217119305704 0.1049388310270821
0.07379618434606544 -0.14242778085292623 0.10461345941368584
0.07287501654120514 -0.14095514900248582 0.1044774344373812
0.0734784253490353 -0.14151751861994422 0.10474439807882756
0.07273311859521653 -0.14004447895464814 0.10472914767743534
0.07338102800651382 -0.14040375296753962 0.10511190733522689
0.07266738940062176 -0.13945788390273228 0.10491083262444008
0.07306431363043754 -0.1395120001136379 0.10521979815785024
0.071622101702275 -0.13777620132438034 0.10451906302577355
0.07216297855633215 -0.1383291357927422 0.10485432511453027
0.07267520586069304 -0.13888114297421944 0.10512301371719254
0.07151812458510629 -0.1367899454105692 0.10469065644405172
0.07208937209904558 -0.13736887343399326 0.10509770050226755
0.07139686981280043 -0.13582053353770654 0.10480583414864134
0.07200939195320771 -0.136323581540792 0.10531026236803495
0.07130198074281018 -0.13488195657134938 0.10488416261185231
0.07175573294643274 -0.13545597237605375 0.10526471852654228
0.07121188969247332 -0.13386486086418933 0.10495483721186583
0.07181944840747077 -0.13461578344288316 0.10550218902241473
0.07109829271289447 -0.13276737729172142 0.10501309131176302
0.07166776768380592 -0.13347007671317904 0.10555678476097557
0.07096011133474923 -0.13169898536218932 0.10503329457572894
0.07154707168154915 -0.13229416066305202 0.10567365903098161
0.07083040643411455 -0.13071606516197246 0.10507676096492675
0.07124308729188411 -0.13132698669356702 0.10552845922719363
0.07073521752972647 -0.1297547485947086 0.10517907149876025
0.07119621776276426 -0.1305022555704087 0.10568133436208764
0.0706100452677383 -0.1287701927247234 0.10529836397705421
0.07109065490071712 -0.12951651373038012 0.10580556589266775
0.07047398050552259 -0.12781602013990426 0.10541385853445133
0.07095325361611232 -0.12849871543472693 0.10591442943266553
0.07033286083596585 -0.12707237423448295 0.10548748601308253
0.07076542728135458 -0.12739925172992642 0.10601024820210678
0.07075903476745583 -0.12658163881474763 0.10629158159610781
0.06987119797667622 -0.12492107947951094 0.105849915319843
0.07048039259707463 -0.12566592924328168 0.1062456466194984
0.06955796062302691 -0.12387998891328489 0.10611236351407452
0.07034640819090278 -0.12453541771505953 0.1065843070513895
0.06916503434561275 -0.12280230457579625 0.10645208864894264
0.06995235568171304 -0.12336260033739978 0.1068031318385082
0.0687702209613945 -0.12177642135441162 0.106752453371418
0.06957920380526006 -0.12220634334595604 0.1071554220932044
0.06840244416067963 -0.1207950114185577 0.10707064263234367
0.06905131893720082 -0.12125246600666707 0.10729222541284265
0.06810712325553596 -0.11986757995023473 0.10735655001053526
0.06890582914064099 -0.12026425943142256 0.1077699047343552
0.06796414305395015 -0.11899736604253523 0.10766395407150126
0.06839035429535871 -0.11929533585653106 0.10785879889566778
0.06799799678283583 -0.11825252650876307 0.10801324044623077
0.06833786848667722 -0.11842560658316018 0.10821651278692904
0.06819672235734042 -0.11794685413685611 0.1083065470757742
0.09014460645468703 -0.18008497885825434 0.10765935918842681
0.0903292709308973 -0.17963905573506983 0.10755212722453683
0.09066751976459297 -0.17982306291350966 0.10822708122853196
0.09065371792991749 -0.1789231846201987 0.10740474917335263
0.09083095526894412 -0.17911563072597286 0.10791311369923921
0.09101512917604966 -0.17843862803403465 0.10759448870088965
0.09083459896241727 -0.17820700228776837 0.1071010945672849
0.09102974315090769 -0.1766447496614011 0.10605424673901805
0.0911612560338251 -0.1771053563532533 0.1067716059796286
0.0912576705790402 -0.17578259662192752 0.10599030694715524
0.09140160580795971 -0.17615286227050167 0.10644349902894033
0.0914338581464889 -0.17523067052059133 0.10603386145873313
0.0916473808473679 -0.1753076318611267 0.10650383584305756
0.0910634893962666 -0.17405631873572197 0.10551655741493486
0.09139346191891884 -0.17412987175425096 0.10595984123273713
0.0915739643932197 -0.17471778073393587 0.10617767931616007
0.0904865182934263 -0.17299566419995765 0.10518983051128854
0.09090498588059416 -0.1730256045691286 0.1056176976817069
0.09117720217847405 -0.17356533038661515 0.1057658822324286
0.08961263579562091 -0.17163711571373438 0.10476721321421184
0.09020301855427043 -0.17197053732682238 0.10522573218897054
0.0905950825428144 -0.1724733893676736 0.10546055034590382
0.08924929593686788 -0.17100453677877184 0.10460015456371775
0.08977845654288516 -0.17075570092921108 0.1051397866616821
0.09016361492772848 -0.1710837536580991 0.10543966786452189
0.08948007109060915 -0.1702249846917535 0.1049679148643719
0.08995504864996426 -0.170046470219726 0.10548441082825827
0.09014596242510463 -0.17048880583942572 0.1055757896285197
0.08968188751963842 -0.16962540204652976 0.10529643309603123
0.08927668368453821 -0.16953572349507717 0.10491619331058934
0.08870388651875376 -0.16823625553673885 0.10458095354525085
0.08917992776432292 -0.1685440695749938 0.10500853246037829
0.08894624713638334 -0.16778541100275793 0.10493607639251877
0.08857570292150689 -0.1675767475362126 0.10459312877933928
0.08802135242630149 -0.16616147010752655 0.10430822632406007
0.08848678097618175 -0.16661032257643388 0.10471431865514744
0.08800438269848862 -0.16547060896601784 0.10449951290768067
0.08836692296021693 -0.16564327421793731 0.10486814114900317
0.08823050520755796 -0.16505047487492627 0.1048912309712352
0.08786269212957791 -0.16479261855298266 0.10455665241563213
0.08720623543024894 -0.16363840386787146 0.1041850025827432
0.08756179463358102 -0.16396677722678524 0.10449921027796547
0.08741887326591562 -0.1632461684520244 0.10458954323948129
0.0870732757004606 -0.1630329763010415 0.10425333695570395
0.08639826979880555 -0.1616339612758573 0.10410591794188556
0.08689439635332075 -0.16211754131258646 0.10443825156149902
0.08637712496640725 -0.16110166944964663 0.10431308209195224
0.08669545320256354 -0.16117050426941404 0.10462957150162987
0.08556243650656468 -0.15979159464426612 0.1041272934288684
0.08599515887728917 -0.1601597024352582 0.1043672535043352
0.08639722827510343 -0.1605974015274172 0.10456650757753655
0.08550100817916648 -0.15927462125004285 0.10432318756492885
0.08594169932021214 -0.15928033027988497 0.10474660575231069
0.08449126849194653 -0.15793546117170293 0.10413479445042298
0.0849799004652669 -0.15834176508637376 0.1043236001965205
0.08546619332362755 -0.1587408390645888 0.1045532634655815
0.08446908394668302 -0.15741527727304228 0.10437210807645894
0.08493943920563289 -0.15742952485148937 0.10475117483764985
0.08340546675166731 -0.1561024613764652 0.10421063772620107
0.08393589584681747 -0.1564925176894583 0.10440887406083879
0.08444991416928901 -0.15689010376813284 0.10461674985676599
0.08339043649724623 -0.1555608819602428 0.1044577321677955
0.08390430725347348 -0.15555439006770094 0.10485198522071623
0.08225306994867819 -0.1542384068049366 0.10429776558824017
0.08281426320028779 -0.15462696887611907 0.10450873759777865
0.0833645923994757 -0.15502025159841212 0.1047139120681385
0.0822147961493607 -0.15368939247600216 0.10455788497731013
0.08275328751174017 -0.15365508475018794 0.10500647524543896
0.0811069485640369 -0.15263866895227735 0.10431036045350647
0.0815524359934128 -0.15287509100084884 0.10451750676820554
0.08213256333895566 -0.15312675913930052 0.10481955654598128
0.08135781684369951 -0.15229896535819026 0.10470156082768606
0.08089429922907306 -0.15206173381237123 0.10448690356924253
0.08000666456463162 -0.1509283169535496 0.1044641793568326
0.08062614821431294 -0.15108743776233835 0.104856110723125
0.07886329149973027 -0.14950920111223984 0.10455520346408165
0.07941579144280833 -0.14993213857501986 0.10468880350415383
0.07999837371796312 -0.1503865466872979 0.10480974961401188
0.0788473268451159 -0.14898865323310875 0.10487752449059143
0.07938599942610794 -0.14900329919631805 0.10528138664051022
0.07764670203300901 -0.14779696471962223 0.10478425409901715
0.07827366941893721 -0.14794496972383858 0.10515034532688837
0.07883026528847496 -0.1484794755296158 0.10520189722074118
0.07785997453354364 -0.14735370611244628 0.1052454658785102
0.07736763235575772 -0.147228442552145 0.10494509746534637
0.07648545075595596 -0.14619271427390373 0.10485709996807434
0.07707312201580907 -0.14631076025694847 0.10527903217561661
0.07534774350312341 -0.14467739350263112 0.10478451140763727
0.07591518003133663 -0.14515777056088128 0.10499634768292201
0.07648422572042547 -0.14563683740104547 0.10519614336129612
0.07524970944414582 -0.14383544664521447 0.10512993615309651
0.07587833494635034 -0.1441834715507983 0.10547913258023292
0.07518632639662536 -0.1433052022436102 0.10534035153522663
0.07558071937126135 -0.14334799320923522 0.10564529263114504
0.07414334660462929 -0.14184198114554722 0.10514558255197352
0.07470412366652301 -0.14227308202006075 0.10540398027703979
0.07520398560036196 -0.14277163254344516 0.10560412619024502
0.0739815395462084 -0.14094711755178016 0.1053812154098807
0.07463739956680597 -0.14128755172703208 0.10578598368020802
0.07389213947338719 -0.1402263813612631 0.10559265068943569
0.07435115360773593 -0.14038947049911527 0.10590986174727726
0.07409327825651038 -0.13977490203480702 0.10594717031717185
0.07362895708429376 -0.13960515983155533 0.10562723387185795
0.07266997846292196 -0.1379439114903068 0.10543983904566419
0.07330786360320747 -0.13864397074339355 0.10573195247891913
0.07257268670650109 -0.13696376786471418 0.10566291711502951
0.07322892281163848 -0.13741762519317613 0.1061059072704033
0.07248224521050946 -0.1362221784695449 0.10580704768567088
0.07292706233665161 -0.1364218697012419 0.10615070173815622
0.0726663196105343 -0.13580444863187377 0.10610617858725331
0.07222837740215135 -0.13552943405126916 0.10575890296460443
0.07230144364953617 -0.13485417988515805 0.10598946443711046
0.072205575004892 -0.13408237626427086 0.10602407168313872
0.07266985942011443 -0.1346460341599758 0.10636828354073692
0.07210905965515776 -0.13308811544443125 0.1061480585054457
0.07263495169823438 -0.13370764229063928 0.10654597579047231
0.07203994349657887 -0.1322431071966942 0.10627953399387606
0.0725570531575293 -0.13261961947775644 0.10677360344594539
0.07223532123554104 -0.13175044751554893 0.10664866054924388
0.07170698573874153 -0.13134340218262142 0.10612697436588013
0.07157341580547706 -0.13025549784064516 0.10629403937751347
0.07144547400324501 -0.1292442358827789 0.10642662980078575
0.07131814320785303 -0.12822429702203003 0.10654692328068309
0.07119575378421854 -0.12722148485165352 0.10667222738955535
0.071051580933184 -0.12627049192390516 0.10676920286148528
0.07090579222905412 -0.12537008115718565 0.1068859277909257
0.07087629516965331 -0.12469446489292123 0.10711033676769022
0.0706439319359547 -0.12392447334203127 0.10720107240389204
0.07121214593193209 -0.12452280273850655 0.10757991524709051
0.07035219128924539 -0.12293370164108024 0.10744014941287461
0.07102917391589858 -0.12357973573306892 0.10780411810781705
0.0701441443371093 -0.12211303626284842 0.10766978628461744
0.07077348794107635 -0.12249088697574112 0.10806771231057585
0.07030817400710736 -0.12166057058118736 0.1080175912806615
0.06966144359298533 -0.12128453468949969 0.10772990030314593
0.06961020307005715 -0.12055779728213306 0.10808918266305502
0.06941477648577728 -0.11995534389969353 0.108262155950531
0.07006047873794903 -0.12031626106681949 0.10851901336360233
0.06962645750051338 -0.11951611219540631 0.10859236277947115
0.06896643295053756 -0.11918703967589518 0.10832123445123776
0.06887983513291189 -0.11834410194503903 0.1086736237843466
0.06868240154327437 -0.11782006561539929 0.108747671473405
0.09096972747116666 -0.18005234893787156 0.10878575115967327
0.09101463087176685 -0.1798040852814445 0.10880534004374338
0.09137693474063406 -0.1798412900668419 0.10933360412242439
0.09126408291117423 -0.17941472961591837 0.10905608118091929
0.09104521320095617 -0.17924957854668844 0.10854587343725516
0.09129367354845347 -0.17764061380068996 0.10752143273590146
0.09129832537035361 -0.1782873689009803 0.10820478109424551
0.09158622279460311 -0.17680246072635714 0.1074088410856076
0.0917507432855984 -0.177053320646539 0.10817216920829562
0.09188372961326755 -0.17625578845212628 0.10769946320211118
0.09169910288581926 -0.17600342260819138 0.1070823602839936
0.09201818788285081 -0.1749989285845833 0.10722679407447845
0.09170393274216031 -0.17421679483610328 0.10636638010249067
0.09190643525113028 -0.17434403707664994 0.1068092934503356
0.09129315911459225 -0.1730760352243143 0.1060220512569954
0.09162034121045369 -0.17315072502259293 0.10646454593310498
0.09180213562282799 -0.17373710664090716 0.10661878087954971
0.09070795738744783 -0.1718270420838509 0.10579970893312077
0.09110605410125232 -0.17202179371783838 0.10621281978065841
0.09137145902414186 -0.17258546021042545 0.10632968121525609
0.09093814800482697 -0.1714105151484716 0.10620603423690665
0.09060194026914796 -0.17124901515563026 0.10586053492578823
0.09024015621406796 -0.1701559823325368 0.10577301572822197
0.09056447452163656 -0.17035211395578984 0.10608440610813763
0.08964623576480832 -0.16899511988675803 0.10539090158642972
0.09001232270162106 -0.1693070975832531 0.1057060212102004
0.09030783927195957 -0.1697124916437274 0.10595225583035676
0.08964211892551907 -0.16848496027965323 0.10549398290866532
0.09004312287590865 -0.1684535950025345 0.1059392063514381
0.08894631502879727 -0.1670653545941929 0.10511046605006134
0.08930789019497845 -0.16749282134319665 0.10540672461858434
0.08966962942651485 -0.16793227117043114 0.10567506632846142
0.08894906449353072 -0.16638339166766425 0.10530352188747873
0.08938641414739643 -0.16653397799697814 0.10575764892899565
0.08912738221313322 -0.16592729326436642 0.10566279486835693
0.08878057306444134 -0.16577674664670816 0.10530987742205096
0.08823676129037347 -0.16455389101120205 0.10507892975130693
0.08865547461613417 -0.1648212703757595 0.10548204289499022
0.0883811317378335 -0.1641446656620901 0.10540505451005533
0.08803493090299236 -0.16399756053743852 0.1050514522147555
0.08738140305714068 -0.162571459646609 0.10480409849364995
0.08784860840042666 -0.16306932353874917 0.10518196673341085
0.0873316288840444 -0.1619039638842943 0.10501914747715997
0.08769127194851835 -0.16211289601495968 0.10536755554210413
0.0875250969164169 -0.16149180265151097 0.10541924291933202
0.0871481227841408 -0.16129498338350035 0.10507215760394151
0.08637469756794902 -0.15983867624547946 0.10490091967719214
0.08691515808936907 -0.1603322981281382 0.10524768229930315
0.08632986458914373 -0.159331541921203 0.1050954505468892
0.08665180741646814 -0.15940787985403146 0.10538840307138786
0.08540285490569464 -0.15796003390367166 0.10488078502302835
0.08592592919346256 -0.15832456678979814 0.10520093135244886
0.08634284840152626 -0.15887175093156977 0.10533657277374836
0.08536621235690926 -0.15745647469823013 0.10509758695605582
0.08571518179938628 -0.15751521998580392 0.10539570543190029
0.08442786593356122 -0.15609633049794178 0.10499371094251084
0.08492750974550138 -0.15651706680761954 0.1052045055223777
0.0853943225197875 -0.15696801111252964 0.10537854675585974
0.08441393486419595 -0.15555657427390304 0.1052558723391902
0.0849066353584262 -0.15557462678715686 0.10567876809240931
0.08332391799828245 -0.15420323532947164 0.1051343150966077
0.08386242132410414 -0.1546063662887598 0.10532382565314474
0.08438715543492038 -0.1550164443987348 0.1055262885383731
0.08329568269430355 -0.1536503734566598 0.10542683742018921
0.08381694683988533 -0.1536512469294918 0.10584791931667781
0.08188933868973883 -0.1522325101975504 0.1051622850403927
0.0826529311448308 -0.15257987677649482 0.1055745600912784
0.08325837491717265 -0.15309816429343542 0.10574341898932417
0.08132543302976855 -0.15168686144367416 0.10504547771275832
0.0818125058724923 -0.15140159710698484 0.1056225697662473
0.0823549680203527 -0.15166990037315112 0.10590135595334235
0.08134603317952135 -0.15105063117923592 0.10546415324304817
0.08177517365891479 -0.1506911907765614 0.1060508504213306
0.08215856798194204 -0.15107857935206997 0.1061185603564263
0.07995423445931749 -0.14955921426423083 0.1053284493874632
0.08054336247212925 -0.14999524113478843 0.10548559221108164
0.08116280108442449 -0.15038015494435336 0.10573819533625647
0.07992257164614099 -0.1490312146299765 0.10566495181056947
0.0804499563354345 -0.14904592268654993 0.10605075859959996
0.07881425112640887 -0.14797371130397055 0.1055417222278752
0.07934803320738273 -0.14801103207250815 0.10593660168431715
0.07989674621589943 -0.1485327751447702 0.10599261994626251
0.07773796329027217 -0.14672806295784657 0.10557570769449183
0.07827286702805758 -0.147060003834232 0.10577023795296542
0.0787959476882313 -0.14746511415663616 0.10590014528834144
0.07765294064519611 -0.14621959918279903 0.10584816665797174
0.07819537183349111 -0.1461601068270958 0.10634123409716774
0.07645440033050509 -0.14475282107668694 0.1056883273677337
0.07702279136103761 -0.14523577483538963 0.10590176807388951
0.07759638335023646 -0.14564851394400555 0.10616254450446642
0.07641544900988774 -0.14403929147682717 0.10603492144211832
0.0769818932149348 -0.1442157273310609 0.10646385722265139
0.07659571111791016 -0.1435681144398748 0.10644525648134166
0.07613158981543151 -0.14342694521216487 0.10608365696105858
0.07521737344184261 -0.14189464362620463 0.10601373359885888
0.07580484039176835 -0.14252241511491082 0.10624784632728122
0.07516735520234939 -0.14113691246112126 0.10631610087654653
0.07574056012659326 -0.14134055444355909 0.10674507618099144
0.07534557498496454 -0.14064225135023387 0.1066831897825662
0.07488446039143079 -0.1404937544300383 0.10633400245421391
0.07399869804506964 -0.13904280545087283 0.10615231715431622
0.0745800671749636 -0.13959446711969706 0.10642839384997743
0.07386592115925418 -0.13806654454620335 0.10641063655582446
0.07446800705981317 -0.13855214200230104 0.10673261639556754
0.07378938611079489 -0.13725737472012842 0.10663621250669836
0.07438330978483708 -0.13746924722898288 0.10707110540993901
0.07397543575920673 -0.13674459792221524 0.10695667029168479
0.0734848380577622 -0.1365581778682719 0.10658573899507354
0.07259231189057143 -0.13528316673029026 0.10617713333005518
0.07312680903748989 -0.13550654861978578 0.10657174119763449
0.07315207301854094 -0.13436285289702785 0.10686462037199862
0.07309641446102609 -0.13335924656919748 0.10708943802021809
0.07305233882836432 -0.1325110419218634 0.10731222024304488
0.07209747200136923 -0.1309061160675022 0.1067525025948541
0.0727230963475889 -0.1315245246732717 0.10727653569291141
0.07194495742931596 -0.12994124015215602 0.10687625393397353
0.07239664508157541 -0.13052014781946644 0.10724184894102923
0.07182466341864968 -0.1289600344649598 0.10703001221480041
0.07234713011112699 -0.12967313882835085 0.10744434986486645
0.07170338667701234 -0.12794321218299082 0.10715470950796813
0.07223230757268582 -0.12865929893905997 0.10760753920632116
0.07156647936402485 -0.12692837196770665 0.10724531551420152
0.07209149973842266 -0.12761742211213406 0.10772427166811196
0.07141339611365635 -0.1259580611536633 0.1073153950694177
0.07193180411977942 -0.12657530223721447 0.10781522809266333
0.07124003518951721 -0.12518926740559227 0.10734166058076113
0.07173387853290814 -0.12545406416438942 0.10787790961769024
0.07171226794589028 -0.12438930998300485 0.10822686033714041
