# .PCD v.7 - Point Cloud Data file format
VERSION .7
FIELDS x y z
SIZE 4 4 4
TYPE f f f
COUNT 1 1 1
WIDTH 788
HEIGHT 1
VIEWPOINT 0 0 0 1 0 0 0
POINTS 788
DATA ascii
0.06402088897003247 -0.07292060685991611 0.08114909425271644
0.06413630310516945 -0.07249006351915656 0.08133105924168409
0.05738238256011144 -0.08979211297505066 0.08291763044666325
0.057644982182329906 -0.08905282659290484 0.08234921681581463
0.05788260597798796 -0.08844718857981917 0.08196275491124173
0.05803708670191053 -0.08790444558633517 0.08154278082809191
0.05859586992624458 -0.0874250305627859 0.08188704129697164
0.05909411133983025 -0.0864392239454177 0.08191067683511813
0.05942917239655005 -0.08547180147339548 0.08192051109470005
0.05972382413824576 -0.08449381128718111 0.08196493756854226
0.0600875704638331 -0.0835548741317763 0.08202774909388451
0.060477531801795804 -0.08266407890953012 0.08214051670348509
0.06094101878867786 -0.08180315204299445 0.08224913314452656
0.061100719637920686 -0.08106389644358823 0.08194491905489473
0.06099426654255365 -0.08071053641052513 0.08153240199722514
0.06140239772948011 -0.08053375780575876 0.08192765591365572
0.06148242829252578 -0.07978549726876354 0.08137587627674074
0.061526387918917194 -0.07919558436512145 0.08092312734574489
0.06203284845225491 -0.07927273856934283 0.08158019056040708
0.06253733475296172 -0.0786511919064038 0.08173972535150484
0.06301132429530479 -0.07798511292685126 0.08194458951789085
0.06341439993672572 -0.0772976938046075 0.08215790818336068
0.0633558768343263 -0.0764881146112328 0.08145477526861772
0.06371212766151066 -0.07580439151295565 0.08172020355816569
0.06362691196358256 -0.07498202599567083 0.08107089682455748
0.06392316778258533 -0.07427591799060108 0.0813691218264396
0.06414859108343339 -0.07355396594032466 0.08165294261234676
0.0643191501484663 -0.07283873982952455 0.08189828431199221
0.06447138922498563 -0.0722052198611399 0.08235615438324873
0.056982157516795695 -0.09142061807505238 0.08395401288119807
0.057278544614429584 -0.09060575486561051 0.08361946782638112
0.057629976248287286 -0.08992511360428723 0.08334289051156887
0.05753121888003295 -0.08953766027724813 0.08280715241515701
0.057864377231173214 -0.08932555905335936 0.08292372707427631
0.05806951159297242 -0.0887410352643407 0.08253798432461666
0.05822686922298264 -0.08817457395409044 0.08213418466235882
0.05872135454731291 -0.0883487369484616 0.08287027068693145
0.0593172368873124 -0.08748202467159884 0.08286261007652099
0.059757286253519164 -0.08656645333566958 0.08288437876947471
0.06007622224578489 -0.08560449392943577 0.08291541915828275
0.06040016104571401 -0.08463993485281586 0.08295102800757587
0.06071558282228987 -0.08369996571919637 0.08302852868905405
0.06109013302865627 -0.08283785190622632 0.08314387255627428
0.061500433222319816 -0.08209977302313211 0.08334141163163745
0.06147100569052119 -0.08127232068631393 0.08264457107407103
0.061976233655582386 -0.08071771273154951 0.08289912959028654
0.06201832790510232 -0.07998552051436515 0.08224930997095138
0.06254864322563032 -0.07940896765777933 0.08248013629777638
0.06302067826363815 -0.07877519458094048 0.08268933731511263
0.06345471825917294 -0.07810170530445912 0.08289439542310231
0.06382811870614814 -0.07739983607162723 0.08310599666466832
0.06378097118337536 -0.07660899524135018 0.08238755885603033
0.06410253501563826 -0.07593467678744856 0.08266559588510748
0.06402991259357428 -0.07511596477040186 0.0820162979824397
0.06429689387650314 -0.07439983067028008 0.08232218161782884
0.06447266573980079 -0.07361786722415847 0.08256637644280165
0.06459848857976494 -0.07284687100933135 0.08280377711908712
0.06469831574115271 -0.07222665389523497 0.08311907687121967
0.06476017071158313 -0.07155785437958842 0.08330904721837697
0.05692729074857656 -0.09220021924337558 0.0845366189680774
0.05728590183338003 -0.09145178828316655 0.08440833302430469
0.05758917535536798 -0.09072856196377499 0.08408629183399424
0.057577456913431364 -0.09037318534453986 0.08374523994771592
0.058087695582141496 -0.0902634514186438 0.08414261110662995
0.058281922852836184 -0.08957956266521513 0.08361140955583399
0.05837108349408475 -0.08903010161277719 0.08313760098482262
0.058920568558723005 -0.08907437355908608 0.08375874101566132
0.05950003374749608 -0.08840157278955295 0.08378328490795392
0.060024969355977655 -0.08760070588703851 0.08381541129568323
0.06043062405332994 -0.0867039415656759 0.0838546685357345
0.06073642716528147 -0.08574778645154528 0.08389245436862351
0.06100408081107954 -0.08478319931251652 0.08394047926338066
0.061287260689468076 -0.08386134309613054 0.08402482579324083
0.061595823603288746 -0.08301961230996201 0.08416690742885516
0.0619798202704397 -0.0822883700901198 0.08435945605046609
0.06197739368479377 -0.08147739991925919 0.08360326517482643
0.062467596516247774 -0.0808839231651354 0.08387117047941783
0.06251326724174264 -0.08014712363547856 0.08317453037863468
0.06301263266683858 -0.07954480059116253 0.08342039418758398
0.06345418797565869 -0.07889078667780752 0.08365543661524263
0.06384084907497699 -0.07818800935653109 0.08386762230794102
0.06418697436593128 -0.07744836309554158 0.08405377238140296
0.06414011397461984 -0.07670082083667054 0.0833192109136765
0.06441381931154055 -0.0760688487995094 0.08358498546243602
0.06439239231523457 -0.07527395900610126 0.08301446536837223
0.06463633281930983 -0.07452194588273904 0.08332834823165933
0.06479301087785419 -0.07368607976825026 0.08349903020449005
0.06489740795951453 -0.07291354968125878 0.0836714066170749
0.06495354097290675 -0.07213222400998275 0.08385965584601444
0.06499438649587416 -0.07133458382579767 0.08403787122097814
0.06490873789379219 -0.07070893209470765 0.08387720210417603
0.056600948724832505 -0.09430470320832582 0.08566162647586578
0.056833072869938446 -0.09336826553684231 0.08533356939672834
0.05722630289803324 -0.09248520464960164 0.08522553060003293
0.057833697707538954 -0.09178015248610855 0.08541609349097094
0.057997579762174345 -0.09097480918367797 0.08479390995210742
0.05873624263142598 -0.09046895663760922 0.08508735642647491
0.05887146432664006 -0.089775731338678 0.08442785041539899
0.059589312362741224 -0.08921479361541503 0.08459502460653102
0.06021530151997704 -0.08854306123728155 0.08468234037527675
0.06070413026093177 -0.08774334404542736 0.08475097495432275
0.06104381281864292 -0.08683629728114053 0.08481093741037361
0.061323397518923524 -0.08588237906399905 0.08485779717061022
0.061543981109389856 -0.08492254776572448 0.08491535060156385
0.06175718109824762 -0.08400354013850954 0.0850134177135391
0.06204064892293967 -0.08317076047694175 0.08516341953559085
0.062396688825539524 -0.08243109121834322 0.0853553392011282
0.06241719237591815 -0.08163338731264229 0.08460190262205429
0.06288142775162454 -0.08101721720232402 0.08486164141454913
0.06296336626369986 -0.08028694401337842 0.08414515923395798
0.06341091967541444 -0.0796569722951477 0.08440008431141911
0.06382380758953855 -0.07897858961490614 0.08463930497785553
0.06421487387710019 -0.07824673200726465 0.08484997609899071
0.064591614096038 -0.07740911392579235 0.08503715550787627
0.06445618189965416 -0.07672215732100174 0.08415035697766303
0.0646031377856912 -0.0762114443301261 0.08416771672047138
0.06477115311845764 -0.07557412233593984 0.08418886328567095
0.06502818538964551 -0.07457664969972032 0.0843807559081919
0.06507291176661043 -0.07368859864405859 0.08428935797336175
0.06522620628913603 -0.07303056566144266 0.08458243606519984
0.06530328878711424 -0.07210567709323125 0.08475696537058582
0.065275605663431 -0.07123605156996388 0.08469830435690645
0.06501703468362162 -0.07084111558329141 0.08417327051700353
0.06510267784608023 -0.07054331847194636 0.08437632900072321
0.06502791286273886 -0.07028428682220335 0.08419896953802837
0.05660810137862114 -0.0951427840607828 0.08627830489202622
0.05679114847996389 -0.09435358498041348 0.08608026358860402
0.057201464178118736 -0.09346360291389916 0.08606120282470157
0.05776299463901305 -0.0926474387662868 0.08619336601041724
0.05846650230931912 -0.09196672515395722 0.08640876349457742
0.058600166967949806 -0.09120350507768521 0.0857185264380137
0.059427304482530925 -0.0906690381131011 0.08599749331908069
0.059559754631110046 -0.08996315559310836 0.08531734921381048
0.06027838235860278 -0.08937571984782805 0.08549079160356726
0.06084924423150895 -0.08867944567154716 0.0856047796795474
0.061269392137934114 -0.0878604693387867 0.08569309307156969
0.06159496024936006 -0.08695455089702347 0.08575510772817167
0.061813633679328815 -0.08599572222569654 0.08581097827876069
0.0619837437679439 -0.08503780389239254 0.08587496432474387
0.06218038288289629 -0.08412760355635773 0.0859790506908922
0.06245216784641054 -0.08330075033471658 0.08612500149966626
0.06277810404757005 -0.08255123622713569 0.08632149050007464
0.0628086535886513 -0.08176098648100164 0.0855907608655916
0.0632593099635897 -0.08113089873540741 0.08584758956837384
0.06333976879525517 -0.08039783478186788 0.08513049138352449
0.06378053184869485 -0.07975485306701503 0.08538931814303777
0.06419014806986278 -0.07906618966711035 0.08562983817872888
0.06457763116840771 -0.07833347092228624 0.0858442837096474
0.06492364632232617 -0.07766467446422343 0.08603642807394853
0.06476779422061968 -0.07649629199276861 0.0847571692776406
0.06497878811768083 -0.07693124228755001 0.0855668305442726
0.06515182213949679 -0.07611993968507892 0.08540401877199515
0.06510849284510603 -0.07533552904337114 0.08490296169906361
0.0653151538760936 -0.07547468334877253 0.0854208876435656
0.065279311882713 -0.07495842218344603 0.08513435490037335
0.06544861157741053 -0.07426422313920686 0.085316711233815
0.06570201574073002 -0.07312907938892307 0.08563165466236711
0.06562309879113509 -0.07221330958266384 0.08543284494220521
0.06545942778981033 -0.07177961334269006 0.08510960054249828
0.0656875582556497 -0.07158867710783147 0.08553501072500226
0.06547132612606589 -0.0707669487695286 0.08506352687009806
0.06527836778983152 -0.07032938128269946 0.08468763847421251
0.06568575134492416 -0.0704779294550593 0.08541259504661569
0.05653984502296565 -0.09681303458600583 0.08731698139499088
0.05664274259079128 -0.09624573814694158 0.08713138633821314
0.056884277594932926 -0.09536186215099307 0.0869627861951345
0.05724837727899004 -0.09443134233363112 0.08695024327488178
0.05774537758081391 -0.09356036337524927 0.08701384855452514
0.05837263321877098 -0.09277913430263343 0.08716493624325365
0.05913468683319781 -0.09209436788583213 0.08738814315436415
0.059301836785593205 -0.0913686567969483 0.08668210305188094
0.06004772853670569 -0.09079310003844457 0.086955137331491
0.06019737963471112 -0.09011518773369961 0.08623938262423385
0.060834372054355663 -0.08949228542685703 0.08642072815859185
0.06138051249985847 -0.08878105571401237 0.0865393281743504
0.06176074757617125 -0.08795340125664015 0.08662990213137221
0.062029074279920285 -0.08703954646871727 0.08670069695736317
0.06222413919616207 -0.08608944042794583 0.08674944784755032
0.06237385481046593 -0.08513617697496022 0.08682056301173968
0.06256607788688556 -0.08423546352415734 0.08692174973311906
0.06279879054681635 -0.0834031808257212 0.08706885775875566
0.06310316464516871 -0.08265068147180618 0.08726617482681576
0.06317246253198687 -0.08187289258256655 0.08655448094201096
0.06359214285163108 -0.08123000829594484 0.08681551828843241
0.0636981900643413 -0.08049952277010262 0.08611507097336446
0.06413036929832244 -0.07985325340140646 0.08636637742906568
0.06455740424784928 -0.07916891720931087 0.0866070868465145
0.06499240258751357 -0.07841110834968375 0.08685469204177101
0.0651822718413016 -0.07770682739433758 0.08665937042831817
0.06519945139675619 -0.07717141025135468 0.08625211574568409
0.06539515707961192 -0.07734133895213909 0.08683371703145501
0.06521508359707763 -0.07671836445475419 0.08592472090770828
0.06547976678093945 -0.0766296486887082 0.08646536325055822
0.06549711097486201 -0.07578891885288948 0.08600298807273979
0.06548215761911584 -0.07515851207952307 0.08565760783666392
0.0657877643762861 -0.07526990166991558 0.08638368120142734
0.06600037027328783 -0.07431488946243932 0.08647193798561692
0.06622019144400962 -0.07347719045140993 0.08675215615313768
0.06598400854926667 -0.07248977996443713 0.0861367245259947
0.06615746989545358 -0.07181560817371489 0.08645810047183425
0.065896712367232 -0.07097261570380456 0.08589472841782467
0.06613577430492083 -0.07048193278301727 0.08630675578906338
0.06636406002731317 -0.07010293388615152 0.0868143025677707
0.05670997893464351 -0.09685293517344974 0.08776835705795367
0.05696044810964937 -0.09631990907909914 0.08790012198491436
0.05733375428903133 -0.09540850934366706 0.08790087994882566
0.05776137909776061 -0.09448367956468907 0.08792107359288313
0.05834556145119182 -0.09363859685157908 0.08798985124091421
0.058977919418708044 -0.09286253051574721 0.08814471019363257
0.05965388682458379 -0.09216433641637783 0.08836563106286759
0.059867520042911175 -0.09145853929976631 0.0876686146260414
0.060559928045965015 -0.09087060412670968 0.08791573128932942
0.06072580165820061 -0.09021226997500402 0.08717927997066988
0.0613352407880931 -0.08957399273686376 0.08735706012016389
0.06182798614248451 -0.08884783906199309 0.08748368329712643
0.062170317465500474 -0.08801984453522023 0.08757118021789083
0.0624230352552928 -0.08711496986078324 0.08763599325066337
0.06257838990698174 -0.0861701933191594 0.08767461948182494
0.06272593340276732 -0.0852258756490782 0.08774717413869766
0.06287988619694887 -0.08432049227247751 0.08785751545727635
0.06310852658716411 -0.0834924627003243 0.08800874877552964
0.0634126623854278 -0.0827422197888021 0.08820970264728197
0.06347209622959091 -0.08196436377106188 0.08750720462279026
0.06390868756340565 -0.08133275711491168 0.08776227629892416
0.06403331305285874 -0.0806043329765069 0.08707193276600164
0.06447662563200308 -0.07997151763580032 0.08732801946851157
0.06492002228251892 -0.0793210615834344 0.08758496385741989
0.06535065307554253 -0.07870429802522835 0.08787973266931551
0.0654011407936421 -0.0779264816008725 0.0873119675172182
0.06573705820287916 -0.07725999090572028 0.0874582405559112
0.0658290858138008 -0.07654054605187696 0.08713285346194119
0.06573725027600155 -0.07605242474399426 0.08664753111055962
0.06602857041500662 -0.07600098288699261 0.0872322936246581
0.06623519486066215 -0.07526419465547775 0.08730868805508767
0.06644937811258234 -0.07446877491828868 0.08748770628547477
0.06661815943912403 -0.07368653341055557 0.08774701515608456
0.06641011103508795 -0.07274480475846967 0.08708325339257424
0.06653281793027113 -0.07200082940600386 0.08738276520558501
0.06633397060003138 -0.07113760771997114 0.08677560529727395
0.06647119478685296 -0.07048454814641307 0.0870985017856063
0.06660052760888732 -0.07011316841152623 0.08747500706721505
0.057033745093725226 -0.0971583873590129 0.08890043936685357
0.05738897585655251 -0.0963892953644368 0.08888009574965842
0.05781361209489039 -0.09543911568077802 0.08887243853800529
0.058292399003902984 -0.09452895008220662 0.08888925684064387
0.05887764146888591 -0.09367595328029436 0.08897961132433052
0.059466378665380557 -0.09289980327024586 0.08913270469069313
0.060128400808471004 -0.09220043254147751 0.08935036930645543
0.060334886802026776 -0.09152380411745975 0.0886256416612721
0.06102717585323605 -0.09092395181360237 0.08888061065800869
0.06122475972154183 -0.09027264895254149 0.08813790427648907
0.061780481538088725 -0.08962823942642813 0.08830681368314576
0.062242156610419035 -0.08890956958423316 0.08841861143421446
0.06257392279353816 -0.08808602872343227 0.08850714706673407
0.06277866957417262 -0.08718735839517075 0.08855652909729982
0.06293177350398621 -0.08625246501044898 0.08859206384659242
0.06304901485987358 -0.08530864229965236 0.0886688030991793
0.06320779122676465 -0.08441034150168031 0.08878777291257287
0.06344675071592953 -0.08358766602183203 0.08894781707164262
0.0637816353595603 -0.08285275733971922 0.08914829872639206
0.06380820434602037 -0.08207174901026042 0.08843888446241396
0.06424780150259893 -0.08145203618143138 0.08869033197718977
0.06436031828245259 -0.0807213144993807 0.08801625592225557
0.0648332299981141 -0.08012000623374464 0.08827175906819237
0.06529547929017009 -0.07951807366483868 0.08854924911446982
0.06573119454883308 -0.07891519845657427 0.08883270227760283
0.06574799507109835 -0.07810725825345442 0.08816757749720894
0.06611056558659505 -0.07750137639507167 0.08843758133406476
0.0660925208920114 -0.07671971204389104 0.08783950740253474
0.06635958598748581 -0.07608836883772889 0.08804518523752303
0.06659121414959884 -0.0753759542470202 0.08823104892812782
0.06678867553999922 -0.07462031398876635 0.08845220641591171
0.06693904478093318 -0.07384188879355075 0.08869069927070722
0.06675141926162245 -0.0729194798237945 0.08802418595412576
0.06684281373290425 -0.0721528763673734 0.08830420287467607
0.06663933627302335 -0.07125799380929704 0.0876737449977526
0.06673848655876641 -0.07059232664016632 0.08799204024262212
0.06687489161267099 -0.07020350474632081 0.08839077253056779
0.056996488190729666 -0.09819179630207489 0.09018085456564856
0.057312058967158824 -0.09739369058073188 0.08991773905580673
0.05778506466573283 -0.09642738612085236 0.08986262767247669
0.05825057781454569 -0.09545373291155436 0.08984931350033182
0.058784148639721985 -0.09454669923919698 0.08986483040768128
0.05935237256926519 -0.09369804141737664 0.08995041722644857
0.05995508644598954 -0.09293253680744466 0.09010241129433672
0.06058478818876919 -0.09223412803153773 0.09033259525056984
0.0607872934706669 -0.09156004479167923 0.08960970713601422
0.06145183956972161 -0.09097228667970407 0.08985279913990175
0.06164888525728722 -0.09031803833348527 0.08910606331941721
0.062212072645615166 -0.08968650442782647 0.08926267135174319
0.06267251058923486 -0.08897268304644475 0.08938254370299938
0.062963552203246 -0.08815864670658685 0.08945449662165311
0.06317414780509603 -0.08727293731283028 0.08948732831775885
0.06329752228891856 -0.08633684923799743 0.08952282868759269
0.06341042454343652 -0.08540122688378908 0.0895981473750575
0.06359146584287739 -0.08451036393646601 0.08973466692629878
0.06384214299198962 -0.08369496672726845 0.08989048504845958
0.06418074419772751 -0.0829703279548312 0.09008826954245217
0.06418877343231487 -0.08219526872303055 0.08938320401280454
0.06463177981991243 -0.08159976679157892 0.08961531855096826
0.06472585454189375 -0.08087050643525144 0.0889455823707606
0.065205792767387 -0.08029810540636759 0.08923097793964471
0.06567157417232267 -0.07971401533315207 0.08951684415176629
0.06611771640838975 -0.079110800747414 0.0897805054315975
0.06613204107381199 -0.07831038064352162 0.08909700372925221
0.06648479910308194 -0.07770054824338021 0.08934488672995106
0.06643053916729735 -0.07689449206874806 0.08870029037536423
0.06669497608285205 -0.07624235306367953 0.08893261933030693
0.06690916974848493 -0.07553689306423987 0.08916363825477178
0.06707033683969105 -0.07476728801599386 0.08939464353578912
0.06717425030373476 -0.0739800641449973 0.08963993418252163
0.06703324899642726 -0.07306954742089107 0.08895826369958437
0.06710146607765251 -0.07229983404662337 0.08924656649113669
0.06691596900615039 -0.07140351145488197 0.08860389708573556
0.06701520579748149 -0.07071656269577388 0.08894637509270693
0.06714934323643396 -0.0701432416529698 0.08943103472593736
0.06725022205772956 -0.06967148690949407 0.09004744241642726
0.05685582965427518 -0.0992853630500521 0.09126216814570198
0.05715003978137691 -0.09845190572751344 0.09097569822110019
0.05768156360528354 -0.09745780524867191 0.09087579789886517
0.058204359357905716 -0.09643805854720429 0.09083616884626065
0.05874599830335172 -0.09547419733912732 0.0908064246171024
0.05931754017488734 -0.09455699189240714 0.09082590340754132
0.05986037866592461 -0.09371215426636767 0.09090367011258936
0.06045629164475063 -0.09296012654222716 0.0910556743843537
0.06106369163244088 -0.0922902483636202 0.09128006845394643
0.06123062190849273 -0.09161590694856224 0.0905802956151708
0.06190657840936358 -0.0910431716979572 0.09081676484257997
0.0620870726618687 -0.0903836016106266 0.09006749982535722
0.06263009836023394 -0.08976099905727956 0.09024150173468713
0.06303728692638588 -0.08905883489396642 0.09036272886266605
0.0633373996207001 -0.08824904656708228 0.09042220690884516
0.06352806573083306 -0.08734950081324636 0.09045961399081119
0.06365079890547617 -0.08641661067606773 0.09048457629144402
0.06378619409727815 -0.08549273782348674 0.09055837426907196
0.06398464275959269 -0.08460890329152343 0.09068390583636798
0.06426548331966277 -0.08379217201988308 0.09083445261399134
0.06459451977839065 -0.08308581338810701 0.09098294521983201
0.06459695658360728 -0.08234222930560847 0.09031780480027245
0.06504388611033798 -0.08177363378557752 0.09051200673989916
0.06510432712754072 -0.08105007791525749 0.08987604025500964
0.06560233220654507 -0.08052323045959113 0.09020086282672207
0.06610559028723949 -0.07993053347326849 0.0905008565620747
0.0665362576627589 -0.0792922870211156 0.09069265304980785
0.06652106101297173 -0.07851036666429534 0.09003763786658106
0.06684496696952319 -0.0778956820016376 0.09021707952485594
0.06677352648494803 -0.07708435821818102 0.08957809493557459
0.06701570415146775 -0.07645649825142674 0.08985182756682077
0.06719302525660026 -0.07572847180018728 0.09012260203949521
0.06729395405594543 -0.07490896053514559 0.09035061799224497
0.06735985267407835 -0.07410084930791737 0.0906008068733597
0.06722983237387208 -0.07319185613667988 0.08991237357177378
0.06728772365666837 -0.07242294493014512 0.09021568439143803
0.06714853849328564 -0.0715340779157075 0.08956331739650956
0.06724706089864248 -0.07080133675649206 0.08991537023968849
0.06733942956627534 -0.07007940918272441 0.09031523113028399
0.06743247136309556 -0.06949158470892824 0.0908138595266151
0.056393397167538974 -0.10158819951132378 0.09274437699550234
0.05666968068660999 -0.10056698163564604 0.09230786492765924
0.05703898665139809 -0.09952957017211693 0.09200824157047449
0.05755476513430609 -0.09850233370158756 0.09190238635357864
0.05814332596742217 -0.09747006289453235 0.09183936300243685
0.058708730416801476 -0.09645733802777452 0.09179087387423801
0.05932391991546765 -0.09548168533052336 0.09175497956620736
0.05987687915601698 -0.09455197507306527 0.09175532130439634
0.06042325723516629 -0.09371091017663905 0.09181864861516545
0.060961912053960184 -0.09297594656733087 0.0919731307893521
0.06153440606206102 -0.09236331014018133 0.09219659501478869
0.06171467100636227 -0.09170446179850887 0.09153327359405851
0.062324972994065427 -0.09113908434531358 0.0917343720471283
0.06250335385568645 -0.09047083117060073 0.09103767991806344
0.06299837249123882 -0.08989893432590085 0.09123181775167662
0.06341765036686627 -0.08920645068550771 0.09135420846315068
0.06371306968280643 -0.08834645181842751 0.09140567376630769
0.0638907757231134 -0.08743368406059766 0.09142382906610269
0.06402769102548142 -0.08650422685525899 0.09145904510774272
0.0641821688569232 -0.08558355378607234 0.09153558013779928
0.06442384017091674 -0.08469279489009565 0.09166266181351283
0.06470094231307139 -0.08381635041334344 0.09176980041502432
0.06487247990299616 -0.08315767419172333 0.09160376725197207
0.06506157749550243 -0.08254536569153514 0.09133305869884543
0.06537694742517464 -0.0818741926461775 0.09120605654231627
0.06548584043821949 -0.08127994761022962 0.09076504241793121
0.0660616431784432 -0.0808897945233308 0.09132055768107343
0.06662282558678091 -0.08006198245952632 0.09148544323015964
0.06685642076055182 -0.07940971102516658 0.09132136421973915
0.06696905465934393 -0.07874692778425113 0.09102842477763046
0.06712759713906756 -0.07800446780299525 0.09085992877597465
0.06709512979264405 -0.07733007553069089 0.09042206003559125
0.06736416288379514 -0.07684583140264409 0.09091445880435851
0.06748042005280984 -0.07591301196708845 0.09110494201793451
0.06752147404106137 -0.07505021946020414 0.09131426695554369
0.06757159074509123 -0.07424024870419837 0.09156107199115117
0.06741766161431341 -0.073318088344882 0.09087880485646202
0.06750612102376699 -0.07256453548980839 0.09118550051567138
0.06734868073467984 -0.07166304118680619 0.0905424151563355
0.06746021563613135 -0.07091059728061226 0.09088484564473208
0.06758365213785802 -0.07015427299339434 0.0912415429590027
0.06771840448043306 -0.06946431561692179 0.09161859269377567
0.06761166482385009 -0.06906205016106136 0.09136540691977256
0.05631174544946537 -0.1023440362180058 0.0933956330219167
0.05654352423676703 -0.10158044972658922 0.09313515011633294
0.05696711320163488 -0.1005631959205286 0.09299007219719602
0.057487802829175455 -0.09951921284634666 0.0928997524115167
0.05807959769372764 -0.09848821549631255 0.09283798269215632
0.058749806846589724 -0.09749122519440917 0.09276630516224588
0.059396976093323325 -0.09647917814957205 0.09273069834628253
0.0599923282395188 -0.09544248216807931 0.09268440182510239
0.06049942424266439 -0.09448161655151133 0.0926349162916998
0.06097313093659741 -0.09366297702762923 0.09265302700806495
0.06143361640271911 -0.09301023928637005 0.0927714140660945
0.06194329996142151 -0.09250618524536083 0.0929611608974246
0.06223153643596241 -0.09182096797895432 0.0925567197118185
0.06264582666619153 -0.0911966597133049 0.09240020867922828
0.06283251143980502 -0.0906433774063984 0.09192167969909203
0.06338061156190998 -0.09022776262413472 0.09233037527437041
0.0638437516222037 -0.08933493869408526 0.09237436889100345
0.06409763475180823 -0.08843096609270723 0.09237970350514985
0.06426589414456861 -0.08751729459234105 0.092382130917758
0.06441135720283003 -0.08659003698020101 0.0924334084197686
0.06462894683121924 -0.08568437904790467 0.09251852797528821
0.06491658499957219 -0.08475997389414598 0.09266357524751165
0.06502126868746246 -0.08397178184288388 0.09246565240424572
0.06503845496568812 -0.08341898715601924 0.09211212230086853
0.06527262525612085 -0.08365786665064884 0.09266186569661072
0.0650798446416257 -0.08301460248229188 0.09184232004604281
0.06541125039501135 -0.08299632355548517 0.09234032264379839
0.06557259347617897 -0.08221697599607221 0.09189023833629786
0.06572331450958668 -0.0816100682411885 0.09150757439369453
0.06613491839638248 -0.08184434227615013 0.09232604748676838
0.06675599081730998 -0.08101519107107685 0.09245227207144613
0.06701463251824454 -0.08025241977923933 0.09221337199447234
0.06703522530137075 -0.07968977886439209 0.09183609747115261
0.06728289894492591 -0.079933824088853 0.09238815130891405
0.06706432653923514 -0.07927064204890956 0.09155620904862286
0.0673411299698435 -0.07923138642166117 0.09202104108725037
0.06734430905230888 -0.07836974558498247 0.09151316903282553
0.06732001083496365 -0.07768510797349848 0.09111863168288403
0.06761147293621787 -0.07788962010228508 0.0918764145001725
0.06770140847464569 -0.07694869677271449 0.09193255044473309
0.06774125904116135 -0.07604363262717195 0.09207367328746044
0.06774805233110495 -0.07518157890122745 0.0922673903560754
0.06779907731575506 -0.07437523206700326 0.09250415338372134
0.0676447429795051 -0.07346128481816122 0.09183569280152641
0.06775881120575292 -0.07271818354593204 0.09213169239719524
0.06760553412086209 -0.07181913675119826 0.09151055871170764
0.0677664070651142 -0.07107746396134589 0.09184687300846885
0.06794434610029676 -0.07031483313902283 0.09217409081322812
0.06811967455633774 -0.06958006926924719 0.09244264628305265
0.06794045788858004 -0.06894931356531162 0.09203673624929869
0.06827584670307264 -0.0685523833919882 0.09260639682531327
0.05632954710321012 -0.10321590323967875 0.09421735294621233
0.05649919464073771 -0.10248142727153746 0.09400832083054213
0.056938877613072196 -0.10152124504453836 0.09390010656882648
0.05749075831873172 -0.10047270799682106 0.09384043175922763
0.0580837466642856 -0.09947485021372769 0.0937556983075432
0.058772775677176835 -0.09850040701868437 0.09368425579773862
0.059480241392712775 -0.09754326075964107 0.09366070807170551
0.06022694760530746 -0.09648148322082502 0.09372440151532994
0.06069974171498412 -0.0952825200801924 0.09348098896829077
0.06120042487370987 -0.09430628757437033 0.09346517609108616
0.06144944920473054 -0.09355077589552545 0.09327798495991531
0.061912554584581204 -0.09309393536341731 0.09351655274297427
0.06235769511234915 -0.09256705694292842 0.09355824285906525
0.06227641581779992 -0.09222566735935323 0.09311376017804945
0.06259655338263476 -0.09203354099033836 0.09331483143420626
0.06280923656662209 -0.09148799480910913 0.09300741861454401
0.06301654886818743 -0.09094609745992854 0.09262718933169849
0.06338963462602994 -0.09116238122629956 0.09336952224771275
0.06393520669681188 -0.09030507700807398 0.09334284744302863
0.064280114435598 -0.0894143178439326 0.0933341353377239
0.06450771532657493 -0.08850908224831147 0.0933170994506623
0.0646739480339578 -0.08759802995838221 0.09331990601914693
0.06486031348390922 -0.08669601040272591 0.09337669894522554
0.06509468366714317 -0.08583021951035523 0.09348428223831437
0.06538817701224167 -0.08512249069638188 0.09365105988261752
0.06532976007283953 -0.08429214840515595 0.09311812380664677
0.0656924864232579 -0.08368910523698367 0.09325698000936294
0.06585991731193495 -0.08302865017250272 0.09300652964791782
0.06583432750466238 -0.08253205883362132 0.09255644486371883
0.06626614135911758 -0.08264846217034107 0.09317139512914813
0.06677551036228747 -0.08206752413940674 0.0933247421746151
0.06732060119605483 -0.08145530597672591 0.09352774830591207
0.06732795716171049 -0.08058173417561222 0.09289941097073967
0.06765822127389354 -0.07993814813055015 0.09294653270265406
0.06770346206635701 -0.07922228086828566 0.09262222176488812
0.06759319267994299 -0.07868722458224936 0.09216040394301238
0.06787044766538862 -0.07873985106155691 0.0927252546431933
0.06797867064558662 -0.07799218232329516 0.09279687156256844
0.06801824430932091 -0.07708551043818239 0.09288119869327019
0.06801851104257489 -0.07618483918234387 0.09301505823767107
0.06801120673058768 -0.07531565215704998 0.0931911028755124
0.06805819983431872 -0.07450993598523659 0.0934239536477171
0.0678890405794862 -0.07360161191798396 0.09278708456196778
0.0680310349921907 -0.07285733700628862 0.09302981517438368
0.06790647762821972 -0.07198856152289314 0.09244385444363785
0.06815037691695579 -0.07128290406951113 0.09280647167739815
0.06839042394201912 -0.07046835537625884 0.09313768864973644
0.0685172458895744 -0.0695875365628484 0.09322665193721387
0.06825116244843939 -0.06898426665586238 0.09262482680358716
0.0685103045868419 -0.06875061696809998 0.09310332554386194
0.06856610195994375 -0.06830779322180142 0.09311143913617433
0.05642274375805053 -0.10406923278652258 0.09497559394962989
0.05656779696994493 -0.10336353355875118 0.09480995948451541
0.05696187594602392 -0.10241625662352581 0.09474033135960815
0.05750394693008503 -0.10139609069773514 0.09467602602009809
0.058091275770743314 -0.10039025540520867 0.09459911348301332
0.05877809829038377 -0.09943698373434573 0.09450543630604477
0.059460856322744934 -0.09853424690427146 0.09446911536909822
0.06022114057081145 -0.09770268548010354 0.09456838503534976
0.06085425183391357 -0.09692492628282143 0.09470064938099562
0.061018948817202275 -0.0959613418714382 0.09426363726998603
0.06134114710233224 -0.09635747323867391 0.09482083436106657
0.06136155966448683 -0.09505847667560102 0.09413337567302021
0.06163254038156727 -0.09567621933895068 0.09471930257333758
0.061665905636057866 -0.09440513929873792 0.09412734014091785
0.06206007780411535 -0.09480979911414907 0.09469658418815342
0.06199097175401944 -0.0941433655431512 0.09435377783924663
0.06178067952394519 -0.0937823812116322 0.0939195637657478
0.06225776636544166 -0.09338689681214794 0.09416155816688106
0.06227492108648903 -0.09296826396707639 0.09385702736938695
0.06262109446955533 -0.09287342209983686 0.09411467575692596
0.06286637713820098 -0.09233379740360727 0.09391321606406361
0.06302611864412289 -0.09181405383845842 0.09359887292333367
0.06343522598158204 -0.09206904519398935 0.09428746232501846
0.06401564218908609 -0.09123677612279997 0.09427534298038455
0.06443080763599829 -0.09036774476018483 0.09426463434773527
0.06472440290122335 -0.08947292363880607 0.09424475656922457
0.0649293168285619 -0.08857007883010412 0.09422207973358727
0.06513835532563633 -0.08767944772503614 0.09423041482852124
0.06534185285129322 -0.08680324690649709 0.0942677500185965
0.06561516330679336 -0.0859861020784853 0.09435573670797355
0.06571642827340776 -0.08529991740037245 0.09423517794355078
0.06583242407406895 -0.08463209142999774 0.09401113117259643
0.06612466764418039 -0.08397556981586744 0.0939473727503821
0.06620368715194966 -0.0833658176158056 0.09363181094422574
0.0668159446568601 -0.08310992535446603 0.09410554694666881
0.06737154350052686 -0.08239423164448495 0.09425307371360353
0.0677913054187606 -0.0817861921980713 0.09435555866947318
0.0678414214012605 -0.08090603653050517 0.09382623098275165
0.06801098494349309 -0.08018138793011204 0.09361756751781786
0.06797730229578942 -0.0795274495400621 0.0932352759508333
0.0682463109903907 -0.07912966178254699 0.09364970988845797
0.06832580634702014 -0.07817496002770939 0.0937260996255513
0.06833615483125437 -0.07723711185078877 0.09380891367697192
0.06832247075127236 -0.07632194283623467 0.09392420191524925
0.06831700465614535 -0.07543646722499044 0.09406296216041911
0.0683287498563956 -0.07467129720287792 0.09420217181040123
0.06821924345577202 -0.0737556782354328 0.09381395537957356
0.06828175914846973 -0.07290981332081421 0.09369112335117515
0.06823059390226338 -0.07219319223870645 0.09331301176657412
0.0686063335010409 -0.07160809025491824 0.0939206245603037
0.0687227273469676 -0.07069672439460853 0.09384308389002814
0.06865347734027856 -0.07022704091501861 0.09356138803936404
0.06888843935469317 -0.07007781867396179 0.09405244262641929
0.06879155275871271 -0.06913676366584437 0.09375489613049605
0.06878491252598701 -0.06845656343744554 0.09358425856633217
0.06902737471939124 -0.0687396595134422 0.09413419362145273
0.06879506195088027 -0.06814963172066736 0.09352427883654355
0.0691083801611068 -0.06828521739595417 0.09416917418665974
0.05671662415865046 -0.10525736674599562 0.0961249003292449
0.05654879848184541 -0.1048139863056712 0.09563341355169609
0.05668010038242557 -0.10416618286861162 0.09553352682861103
0.05703429928896435 -0.10324329619100747 0.0955038332959624
0.05757068446271006 -0.10222563716335598 0.09545428694398958
0.05813190904929506 -0.10122507579010703 0.0953678397755613
0.05880523359834188 -0.1002823379015231 0.09523658664790728
0.05948514596381186 -0.09938851005891362 0.09513027684283856
0.06004769594649037 -0.09864037134362398 0.09510849652908797
0.06063341863807549 -0.09817853752352534 0.09529994191772072
0.06070615846411738 -0.09758448439041124 0.09496652911817847
0.061061143271564935 -0.09753022913433235 0.09526994116777304
0.061408107818575225 -0.09691808039496361 0.0952312417932142
0.06182305030758058 -0.09629355296446578 0.0952271715626945
0.06189569213303811 -0.0969516417406631 0.0957478848033138
0.062230057382705976 -0.09557794220164177 0.09520180877778672
0.062392233565673895 -0.09622503268304004 0.09575938933613865
0.06249706058744818 -0.09507421271998275 0.09519976119590054
0.06287770682037487 -0.09533430037398948 0.0957225559947772
0.06209529937589324 -0.09380570828447134 0.09429440534766728
0.06243843510930076 -0.09398445244060788 0.09463983384810133
0.06277786342139675 -0.09457338474015008 0.09521277399059692
0.06283730565349778 -0.09331908540434494 0.09460940293753256
0.06306743719970871 -0.09272274211971951 0.09444036775543589
0.06350133979387144 -0.09309503268242109 0.09508672552918582
0.0641196510185742 -0.0921827126777807 0.09512727072576752
0.06458867391180967 -0.09129596959120105 0.09512587186918728
0.06495861968156907 -0.09042458795871595 0.09511817900264115
0.06520631074829263 -0.08951180880001282 0.0950917497528806
0.06541458793514335 -0.08862804200993167 0.09504515062680999
0.0656870036730914 -0.08776618960910257 0.09514040230735389
0.06582316774352708 -0.08688014285997364 0.09498419321105865
0.06613149752300415 -0.08636911677781263 0.09515452561748558
0.06597840949601992 -0.08563025755835224 0.09469368911261739
0.06634513560087256 -0.08582184646586252 0.09516228219203757
0.06592020863497985 -0.085173892590096 0.09444077753945994
0.06627957978941536 -0.08517625032837806 0.09478539930981122
0.06642106048674432 -0.08444307080306691 0.09453424525100995
0.06652278834178944 -0.08380737271806879 0.09425211323352357
0.06703966356761136 -0.084180158712215 0.0949857924188579
0.06755563166028995 -0.08337089484710679 0.09502202374088073
0.06799579876561442 -0.08261651250416938 0.09507466715672681
0.06820421299216932 -0.08192047178910315 0.09491458761163231
0.06802313139577633 -0.08146615352447621 0.09442668928265902
0.06823583430434702 -0.08126010805480549 0.09457052926492902
0.06824881684237416 -0.08059283759314288 0.09421688580579532
0.06822420792441368 -0.0799373736690827 0.09386255747825976
0.06853615042232539 -0.08024179121741284 0.09459635383167458
0.06863069617047621 -0.07928448854987087 0.09460880891318371
0.0686548722622759 -0.07833059792968385 0.094661131815011
0.06865562211936163 -0.07738811673609802 0.09473245822494375
0.06865512379320823 -0.0764438100211291 0.09482340935100635
0.06865764827054331 -0.07548959192026898 0.09490980336248425
0.06854915576473439 -0.07468728826228582 0.09469966068329566
0.06837957080364493 -0.07427812163765281 0.09435194808835602
0.0685898538040251 -0.07409222288947072 0.09471178820750235
0.06850304872382024 -0.07323746094421152 0.09432773217091142
0.06847058017586 -0.0725168125119707 0.09398323870197682
0.06877085903018205 -0.07267642869228526 0.09467792144565994
0.06907203325175625 -0.072015962192058 0.09506715475383656
0.0689861931761201 -0.0710106192605606 0.09455440701257904
0.06923420813437596 -0.0703298346540086 0.09496231236173065
0.06913591687684859 -0.06942086915850657 0.09449518412963587
0.06935796196529448 -0.06875558667566742 0.09480436792980146
0.06959199223468748 -0.06817087552707755 0.09515089584849709
0.05685218609781433 -0.10486208184714689 0.09614944719486596
0.05706976522745521 -0.10532286479715051 0.0966885590321271
0.057229141664354846 -0.10553672036514604 0.09703290486679302
0.05716821041223333 -0.10400453524714028 0.09618418363076515
0.05734764394032129 -0.10467770526378961 0.09679047884075688
0.05765027504022241 -0.10300676115944862 0.09616667209934533
0.057810220903725555 -0.10371810727103585 0.09682945781313114
0.05821034214198997 -0.1019908627180885 0.09609239680522169
0.05833204585504331 -0.10270649756153286 0.09677709070103331
0.058835596010692146 -0.10103031855767972 0.09594773697527136
0.05894808974874036 -0.1017329750455674 0.09663270874900765
0.05955044245269837 -0.10010719587214008 0.09577317070150289
0.059626842335057696 -0.1007755727045385 0.09643446930932165
0.06010741458545097 -0.09926483437940739 0.09561785812340028
0.060276285141566716 -0.09983130493700114 0.09621481117708902
0.06037297862048791 -0.09874300337686578 0.09549596671152276
0.060708930223981585 -0.0988923106865814 0.09592001552630906
0.06120028719421955 -0.098096126462358 0.0957905927182355
0.061498822815446774 -0.09746262135407299 0.09565638739951017
0.06181358097102035 -0.09784569298499896 0.09629351084923433
0.06242865708205556 -0.09699621137066008 0.09637817350270372
0.06297261393957199 -0.09616990432808127 0.09638127876758638
0.06343367277356642 -0.09542758314268693 0.09640468704494969
0.0630635324160006 -0.09386666140448036 0.09510253207328401
0.06360861147222893 -0.09435978414324106 0.0959258561800263
0.06430498860464769 -0.09317920528032858 0.09595596332455718
0.06478503303216507 -0.09220084125955166 0.09590474231226742
0.0651850202923756 -0.09135129076727412 0.09588421201602638
0.06557728310816142 -0.09048426704671306 0.09597591256496012
0.06571336848559045 -0.08947674207542836 0.09577704310817527
0.06589334518269174 -0.0887218729892888 0.09574441853880788
0.06622479770534462 -0.08824350852252781 0.0959818385505185
0.06611829606916454 -0.08742698133979472 0.09556574780037526
0.0664846592112064 -0.0877072289124837 0.0960503889268324
0.06612563807805232 -0.08692878150713867 0.09538025783379014
0.06646238731656573 -0.08702789716567887 0.0957790384918348
0.06662232327333979 -0.08632780198901592 0.09565955663759174
0.06676947605625388 -0.08563648773820919 0.09547065330894713
0.0671784362755654 -0.0862775283485059 0.09612239413158752
0.06678155688413531 -0.08494012241191044 0.09514145880024148
0.06740081013317208 -0.08529291832792235 0.09587648959630589
0.06783611635825763 -0.0843698714232072 0.09581187818031268
0.0682382694429886 -0.0835774692131773 0.0958147301095668
0.06847219966830108 -0.0829008246964764 0.09573148862892836
0.06830544207254254 -0.08242214334293606 0.0953090788070113
0.06852185576661592 -0.08227229207003448 0.09547449501153558
0.06851160350080931 -0.0816418094850703 0.09517567027442599
0.06848956065706747 -0.08101433075427363 0.09482696806886591
0.06882177123152516 -0.08132376378984897 0.09551024446640434
0.06893900227098199 -0.080390026284758 0.09550332069982093
0.06899298911162019 -0.07944430945075497 0.09552933343812553
0.069011107186114 -0.0785071940109855 0.09557569240348973
0.06903500462204588 -0.0775584128890817 0.09564659514248987
0.06904722307353722 -0.07655888821905615 0.09572404470609183
0.06894549725180409 -0.07572165773234243 0.09556056485540032
0.06889957075440269 -0.0749998647766817 0.09537825518191435
0.06894649977698951 -0.0742666453468168 0.09534926393618569
0.0688459517830959 -0.07355701659883053 0.09507320809014753
0.0692416925596282 -0.07318244121251871 0.09568047444883128
0.06948722077854444 -0.07232180157421339 0.09606148823509432
0.06935120967268125 -0.07130514460573631 0.09548712046540582
0.0695914355327855 -0.07058198631779773 0.09586551522086473
0.06949729113867459 -0.06961353377289849 0.0953430215244042
0.06978615934514051 -0.06880057631190291 0.0957461696678377
0.06987136752162276 -0.06805342799636278 0.09575774886837714
0.0698437690162588 -0.06782517295138296 0.09561257988524353
0.07005046131855044 -0.06785258870076613 0.09613510156483034
0.057501541848137536 -0.10514785190645148 0.09727930926102413
0.05796323609311656 -0.10438728088793243 0.09746401162888557
0.058204142496868644 -0.10490444663991448 0.09814792869584239
0.058488807079748927 -0.103380669922316 0.09745211803657783
0.058610646230539326 -0.10408893180164637 0.09811966998985748
0.05908351243292744 -0.1024020372792009 0.09731943558355052
0.05920494911678056 -0.10308202238762285 0.0980088309127156
0.05976607941724217 -0.10142801455330562 0.0971197108691191
0.05986517470747316 -0.10209405984073615 0.09782358205298719
0.06042257307695636 -0.10044468238247256 0.09689493561514266
0.06052569004837957 -0.1011040837659035 0.09761319969320281
0.060972731723970566 -0.09948822125571422 0.09662821812963499
0.0611453236872537 -0.10010287449367693 0.09738342507986965
0.061314664866048633 -0.09865912346899731 0.09633803194295715
0.061760404944247956 -0.09894504121794077 0.09707193980099592
0.06245743212873324 -0.09786797672643936 0.09707128864859585
0.06302722468003107 -0.09695465260886495 0.09704971642138631
0.0635620995695732 -0.09609827429068993 0.09702873917114126
0.06403440112802435 -0.09521915526053439 0.09695476180587055
0.0646717405784984 -0.09418287196578304 0.0969263541252377
0.06505791648238025 -0.0930344704081366 0.09666020832956568
0.0654011325050182 -0.09216136463906173 0.09654806476539975
0.06572859297451415 -0.09145094575792756 0.09655079242511957
0.06614674326489818 -0.090989240772457 0.09682206434146336
0.06609451238675877 -0.09011076497887947 0.09645073374080713
0.06648844065041423 -0.09047974610325739 0.09696261818534092
0.06615651080844534 -0.08933539516361337 0.0962733843534571
0.06655508832198083 -0.08981639552839622 0.09681333026490493
0.06619418146774701 -0.0888266278395038 0.09616949402433832
0.0665523645483295 -0.0889826344065759 0.09658170412002176
0.06674642946514887 -0.08825679166255646 0.0965002511601319
0.0669064469414719 -0.08755385475162121 0.0963804893018731
0.06732633100019106 -0.08820014340852246 0.09693686087291427
0.06692174138810522 -0.086878817095285 0.0961579428331954
0.06750312829457661 -0.08723700338081201 0.09674804719675693
0.06790078578233882 -0.08632846077614861 0.09671883725947825
0.06830443435854411 -0.08538122928211382 0.09669007094238552
0.06846965568303914 -0.08445526465758771 0.09642178188216531
0.06874892120725494 -0.08394532185881347 0.09645928508306334
0.06857283046769837 -0.08343136639509616 0.09607837769752833
0.06882685222075147 -0.08332735791460032 0.09625365910611815
0.06882707917876082 -0.08269468655733486 0.09599762656806402
0.06877453526158978 -0.0820695595826401 0.09570416763350974
0.0691586475853916 -0.08241290185007191 0.09634092173591312
0.06927200712300202 -0.08148472732027018 0.09636365191949087
0.06934265676303535 -0.0805453491416753 0.09638087959763932
0.06936934663039261 -0.07961672120910196 0.09641029080410132
0.06940328289764636 -0.07869704385002377 0.09647887052580287
0.06945959251596476 -0.07776696433018308 0.09658452162945687
0.0694881325482097 -0.07692274090176117 0.0965726763518616
0.06919753587620252 -0.07607660541722241 0.0960434596340017
0.06948750774771138 -0.07626236915087657 0.09651946944206177
0.06905502796722068 -0.07556392107340353 0.09577714743488445
0.06928462718985384 -0.07553648469566633 0.09614284127002734
0.06923070428184559 -0.07472557831013935 0.0959285604172304
0.06917071536030385 -0.07401252590737835 0.09569824242565159
0.069580740862213 -0.07436898241180197 0.09648440298480884
0.06975509972471412 -0.07338620116423485 0.09671413709552301
0.06988062493202511 -0.07252688938272775 0.09697294308723682
0.06971613657187697 -0.07157317005952822 0.09642556334637288
0.06993772199210059 -0.070858124304292 0.09673689512812711
0.06986727638459728 -0.06987496030482239 0.09624115623274881
0.07015780571717094 -0.06926736669164277 0.0967390475827762
0.07009033442940198 -0.0683171933661723 0.09641276047402536
0.07046689111244334 -0.0678454643896439 0.09698427209207792
0.0706471130898298 -0.06744306938993568 0.09713300625375372
0.058582615432961366 -0.10541385344760146 0.09897208858369426
0.05876378009371858 -0.10475143191230886 0.09882199448588713
0.059280286529080045 -0.10378017517000086 0.0987089425906406
0.05994616614237205 -0.10274338570092449 0.0985505595039694
0.060564388752898 -0.10176856266960056 0.09833644157216918
0.06119781850047509 -0.10083508420674721 0.09813041257315569
0.06189108914155305 -0.09984581515801429 0.09797921320889591
0.06254341863326246 -0.09877047471707151 0.09785994436735251
0.06309415004711619 -0.0977502539951577 0.09776761548988958
0.06360862242019986 -0.09685455861287659 0.0976984548275326
0.06412641337549635 -0.09603186862052328 0.09766813944024964
0.06473975920611932 -0.09526605004073409 0.09772599293646345
0.06538562892996996 -0.09455761938255965 0.09779055120983231
0.06545705520971075 -0.09365561017506077 0.09737579600590787
0.06585961464431467 -0.09399445958390704 0.09787288771069058
0.06569527762755041 -0.0928112124949215 0.09716501490849641
0.06605701383466088 -0.09334744798513725 0.09772319204081246
0.06594241629872581 -0.09206197928520551 0.09704382942637133
0.06628399126391149 -0.0925728875558149 0.09756406893598536
0.06606583171453959 -0.09156595299649736 0.09696742790306317
0.06642683512565199 -0.0917362914691177 0.09737181730201479
0.06671680045371114 -0.09103848625524277 0.0973469593231337
0.06696363602700814 -0.09036070314525882 0.09732014192831741
0.06734130869924013 -0.09101326938391097 0.0977793806065551
0.0670741074786252 -0.08955418019320631 0.09718303168790646
0.06760514899368769 -0.09018538836751244 0.09772930855235744
0.06706877942027777 -0.08882867031187623 0.0969638102485679
0.06773255512847474 -0.08913801701547293 0.0975194337584557
0.06802539210245825 -0.08815289714040016 0.09743450435177683
0.06829588487654141 -0.08728365985263725 0.09736565712399743
