# .PCD v.7 - Point Cloud Data file format
VERSION .7
FIELDS x y z
SIZE 4 4 4
TYPE f f f
COUNT 1 1 1
WIDTH 788
HEIGHT 1
VIEWPOINT 0 0 0 1 0 0 0
POINTS 788
DATA ascii
0.06699042127539298 -0.0772405470529008 0.08972523183984212
0.06722893232944782 -0.076620508903603 0.08999752269376353
0.06740079808714143 -0.07589965333462058 0.09026724100421547
0.0674939218229217 -0.07508663646573378 0.09049484846788948
0.06755147482529605 -0.07428350581732193 0.09074516322885931
0.06740792963511504 -0.07337153139638228 0.0900596473526139
0.06745723444747054 -0.07260563008435933 0.09036266807017362
0.06730418642260722 -0.07171229602459431 0.08971249839352118
0.06739524478315306 -0.07098128373388794 0.09006372863275365
0.06747968662247883 -0.07026052506405192 0.09046263666098163
0.06756513573599304 -0.06967462551987803 0.0909606259854701
0.056514411206088994 -0.10153527445115723 0.09285116634213227
0.056797490684302634 -0.10051829281818643 0.09241777455135558
0.0571755522955132 -0.09948572395045763 0.09212114376507907
0.05770289969185908 -0.09846344224477505 0.09201833938693933
0.05830431387582769 -0.09743681694244974 0.09195799433680897
0.058881942075774706 -0.09643013178399788 0.09191163942998912
0.059510455054049116 -0.09546218368189766 0.0918779896335088
0.06007522631379724 -0.09454056124283591 0.09188049226781393
0.06063269647256916 -0.09370756430329137 0.09194572067710777
0.061180823234458524 -0.09297955757779608 0.09210151826084087
0.06176247857614939 -0.09237427722291375 0.09232468767703385
0.06194172311454319 -0.09172145272578423 0.09166273169164632
0.06256027167562574 -0.09116393931566587 0.09186355322878365
0.06273639852972647 -0.0905016058439257 0.09116868967435648
0.0632388453426988 -0.08993950062995168 0.09136204024375835
0.06366471971253254 -0.08925904888458427 0.09148465271144132
0.06396380719364193 -0.08841050267418651 0.09153857321362159
0.06414334820575025 -0.08750810281840676 0.09155951155858101
0.0642811474847701 -0.08658799017862875 0.091597762229049
0.06443621657809424 -0.08567543423237411 0.09167711481093092
0.06467900291969629 -0.08479266697762687 0.0918069484512645
0.06495664858861691 -0.08392321865530217 0.09191596497119976
0.06512704022289034 -0.08326946955855723 0.09175065221555348
0.06531366970025586 -0.0826610667366798 0.09148038725617715
0.06562790399304029 -0.08199534566118036 0.09135306271116153
0.06573198524975428 -0.0814046646849604 0.09091211825336987
0.06631269614397607 -0.08102352597286551 0.09146449544866833
0.0668735111562402 -0.08020634770202252 0.09162663241624584
0.06710360734041285 -0.07956011239820109 0.09146171448761281
0.06720992758936467 -0.0789015287126794 0.09116920332681314
0.06736174944323521 -0.07816530646193894 0.0910007101283911
0.06732050691438793 -0.07749283147504067 0.09056481769643594
0.06758821212939106 -0.07701689932485593 0.09105475127652947
0.06769551510704758 -0.07609233852358882 0.09124484375277207
0.06772707711376175 -0.07523566675548694 0.09145462256278512
0.06776844746638415 -0.07443058345755878 0.09170186151895734
0.06760072608159882 -0.07350487222161108 0.09102304711520258
0.06768121417889297 -0.07275420863337148 0.09132941412095899
0.06750935789842315 -0.07184790235693968 0.09068889534799814
0.06761282928170864 -0.07109689600996456 0.0910305879510831
0.06772775092025238 -0.07034154226766344 0.09138638426415682
0.06785407813755631 -0.06965272371572684 0.09176277658290301
0.06774022461623834 -0.06924775143859492 0.09151104829731072
0.05643011368141217 -0.10228746691224484 0.0935005454111949
0.0566677389389183 -0.10152695077271269 0.09324201037369349
0.05710127610703354 -0.10051357812785207 0.09309984074032646
0.0576337290252769 -0.09947425484686935 0.09301240380434461
0.0582383795883466 -0.09844877613670322 0.0929533291815423
0.058922872400401415 -0.09745860137185568 0.09288350479781117
0.05958359108300276 -0.09645378802232794 0.09284985848703352
0.060191726994543476 -0.09542523749576717 0.0928062235877716
0.06071014049245141 -0.09447281222221027 0.0927587894965822
0.06119370105242473 -0.09366197642685346 0.09277870740176611
0.061662442612918665 -0.09301585942639244 0.09289763259869033
0.06218071526992311 -0.09251905929071522 0.09308659653320064
0.06247048019727777 -0.09184071655465686 0.09268363914573621
0.06288844809377166 -0.091223535647445 0.09252747882131367
0.06307477025734176 -0.09067619282560582 0.09205017893352721
0.06363252667980174 -0.09027086665690154 0.09245751236405729
0.06410185284968375 -0.0893915357716434 0.09250337665238798
0.06435882947672801 -0.08849831263771768 0.09251086330952871
0.0645288208202585 -0.08759537388649787 0.09251584844923194
0.06467480974530203 -0.08667726487911778 0.09257027039851566
0.06489398275838908 -0.08578057417923064 0.0926578152562718
0.0651829067679196 -0.08486488863010243 0.09280479979363417
0.06528477549440782 -0.08408207114733118 0.09260924695013194
0.06529830377412599 -0.08353182655974314 0.09225742474842367
0.06553823904763822 -0.08377222800669493 0.09280498603990579
0.06533719402150515 -0.08312943558175248 0.09198842125542223
0.06567350132501171 -0.08311434197801056 0.0924846738667693
0.06582993627605523 -0.08233942354870365 0.09203553444587116
0.0659771101022222 -0.08173641954013396 0.09165282882642137
0.06639701001428783 -0.08197544936719862 0.09246786538193195
0.06701873431764031 -0.0811579277818219 0.09259026542975043
0.06727344008361327 -0.08040236288314045 0.09235029946473299
0.06728797702110595 -0.07984246095098528 0.09197422839355991
0.06754182309504587 -0.0800895627868435 0.0925230891617881
0.06731276061835093 -0.07942538772958303 0.09169505864818328
0.06759265888157012 -0.07939104857760723 0.09215726874439241
0.06758627947527591 -0.07853304607381395 0.09165080579180261
0.06755316596121202 -0.07785152325496081 0.09125792208451076
0.06785154837283972 -0.07806155620879507 0.09201149225297502
0.06793190245332816 -0.07712880327487891 0.0920677011357254
0.06796215053223947 -0.07623059206602807 0.09220932476921849
0.06795883010815539 -0.07537428105441289 0.09240387619805218
0.06800106208813053 -0.07457267061836136 0.09264088514853003
0.06783333057293031 -0.07365532985927026 0.09197626815591427
0.0679394589440025 -0.07291509618894339 0.09227167636909653
0.06777204475943131 -0.07201110441907253 0.09165377011565039
0.06792518311240346 -0.07127093999157609 0.0919890741826951
0.06809475355352487 -0.07050929760089081 0.09231518596287028
0.06826178883684837 -0.06977484724525948 0.09258303829694255
0.0680715544233358 -0.06913948188030324 0.09217939342970542
0.06840506680488992 -0.06874552277491437 0.09274651199934879
0.05644665764705945 -0.10315552673703297 0.09431983375339446
0.05662101972662274 -0.10242336475403335 0.09411278877104098
0.05707108318551466 -0.10146685884788265 0.09400673359811978
0.05763533176045408 -0.10042220139566932 0.09395003149712419
0.05824122534412153 -0.0994298156971718 0.09386723021019222
0.05894468995308412 -0.09846187011300975 0.09379766240208268
0.05966653903845969 -0.09751221168451436 0.09377562538096927
0.06042804094533163 -0.0964587086139847 0.09384106846249951
0.060912065604132044 -0.0952688553226361 0.09360115224854305
0.06142404577975688 -0.09430112680609214 0.09358805502890137
0.061678906742657025 -0.09355182487037121 0.09340283045891216
0.062150369083325226 -0.09310108397118867 0.09364063311980343
0.06260302821113442 -0.092581781391626 0.09368176391975472
0.06251918616102124 -0.09224307428762302 0.09323864879592932
0.06284395181747184 -0.09205432302517569 0.09343904204635557
0.06305717054886183 -0.09151461387435302 0.09313257933236381
0.06326504557449716 -0.09097894089188607 0.0927532361649239
0.06364688602379702 -0.09119745729815679 0.09349306746848436
0.06419966867606673 -0.09035397028800891 0.09346792727182046
0.06454891312128891 -0.08947491699783004 0.09346116211614444
0.06477940186553491 -0.0885804719541563 0.09344620953735816
0.06494725374431266 -0.08767954274519067 0.09345125063376704
0.06513475315784081 -0.08678716174858021 0.09351087552089712
0.0653702738684673 -0.08593000662025227 0.0936205854311699
0.06566575746715436 -0.08523032592573186 0.09378780920343201
0.06560097449701155 -0.08440402045548479 0.09325837551806375
0.06596485743702911 -0.08380724744028756 0.09339707059305678
0.06612916716310793 -0.08315146845848734 0.09314779773639574
0.0660987302226338 -0.0826566988606755 0.09269919916281219
0.0665378377020371 -0.08277795422047503 0.09331040775969313
0.06704863685022383 -0.08220585177210002 0.09346045640551727
0.06759524579313857 -0.08160488268615863 0.09365882884640013
0.06759430407039808 -0.08073542155471021 0.09303239233152867
0.06792212239197833 -0.08010068435828092 0.09307683107074576
0.06795997960276348 -0.07938905992171726 0.09275377047301142
0.06784227477568969 -0.07885390831975639 0.09229469952638657
0.06812371505712184 -0.07891305570509106 0.09285547063611603
0.06822492091548855 -0.0781730643542071 0.09292673367323719
0.06825515684819829 -0.07727379250820217 0.09301136167246568
0.068245313493402 -0.07637938438376092 0.0931461744111899
0.0682277675371702 -0.07551533627014162 0.09332297479499232
0.068265671251182 -0.07471369598026056 0.09355604487804099
0.06808263447483694 -0.07380250308767228 0.09292342360387167
0.06821698027904444 -0.0730604191435352 0.09316549385318303
0.06807925330683343 -0.07218730263949816 0.09258290391083368
0.06831659315197809 -0.07148347708581211 0.09294386996280113
0.0685478470701985 -0.07066971193593066 0.09327398185686082
0.06866340493198611 -0.06978750360324154 0.09336321350754728
0.06838620681982582 -0.06917886330181301 0.0927646071094854
0.06864433690298172 -0.0689474386139329 0.0932412181877712
0.06869465731875363 -0.06850317789893967 0.09324941897164904
0.05653899397984377 -0.10400557074851406 0.09507489239533096
0.0566887990099192 -0.1033020231773215 0.09491118193311367
0.05709245934246509 -0.10235781869311941 0.09484354161283615
0.057646890898353564 -0.10134153675656268 0.09478144998141803
0.05824696087604785 -0.10034050895420069 0.09470669271405446
0.058948190920179486 -0.09939330792128981 0.09461476005758795
0.059644507438750015 -0.09849668983210548 0.09458003369336788
0.06041931656529354 -0.09767218287793739 0.09467991558525762
0.06106389052230706 -0.09690060804086821 0.09481290474956149
0.06123425594775192 -0.09594452029699174 0.0943796233243861
0.06156024032526135 -0.09633929695963091 0.09493272670938545
0.06158527519376197 -0.09504864290598992 0.094252026691204
0.06185874669523506 -0.09566428602709945 0.09483296343715272
0.06189676995599763 -0.09440103190326857 0.09424804390972451
0.062296385037487106 -0.09480607730579285 0.09481218296020923
0.06222790941289935 -0.09414297887103865 0.0944740588150056
0.06201492373318499 -0.09378270442903855 0.09404286670524496
0.06250084669754591 -0.09339380175616949 0.0942833597345798
0.06251918868554537 -0.09297879269791345 0.09397984586069835
0.06287085534503159 -0.09288726279951778 0.09423651939918831
0.0631193337176846 -0.0923534580806998 0.09403548606564258
0.06327988937466042 -0.09183970518216156 0.0937216495470758
0.06369635145273046 -0.09209557144502639 0.09440771668129486
0.06428510247083108 -0.09127711616778357 0.09439626469677666
0.06470574396942806 -0.0904208580330157 0.09438742642307672
0.06500326247491602 -0.08953743507832468 0.09436962630337895
0.06521062169358152 -0.08864522866168677 0.09434898682198804
0.06542217217403391 -0.08776481985794006 0.09435908731354778
0.06562680378893246 -0.08689827399770815 0.09439845227545991
0.06590196989071749 -0.08609039961701542 0.09448718174172208
0.0660012683437546 -0.08541014502441299 0.0943684099730895
0.0661142822836769 -0.0847470109493524 0.09414648540766091
0.06640624381769601 -0.08409697728057784 0.09408298351519184
0.06648111660036946 -0.08349137816745116 0.0937689303572676
0.06709940064474165 -0.08324384856297781 0.0942375573388712
0.06765553921167661 -0.08253965137886615 0.09438113746910184
0.06807499377722089 -0.08194159122643692 0.09448000978625867
0.06811743150022542 -0.08106740666682237 0.0939519385113898
0.06828189890441669 -0.08035008587880053 0.09374246367140979
0.06824081032591792 -0.07969899083161565 0.09336215175845293
0.06850886601209277 -0.079309669372649 0.09377355058289827
0.06857897816524179 -0.07836395544643228 0.09385012543069525
0.06857960849920694 -0.07743295886321336 0.09393367782593183
0.06855551624345754 -0.0765237826975214 0.0940498838643028
0.0685399671842227 -0.0756426522485696 0.09418929096725791
0.06854243600084456 -0.07488049842344165 0.09432922052184804
0.06841915027778195 -0.07396344624335137 0.09394474013299324
0.06847155141156958 -0.0731172623335924 0.09382320345594092
0.06840996824607701 -0.07239802705596346 0.09344743819381941
0.0687815721877328 -0.07181607498412608 0.09405184414676154
0.06888631655320057 -0.07090334904756743 0.09397542747629001
0.06881009403141976 -0.07043105111277566 0.09369562658320531
0.06904483312054209 -0.07028399259350455 0.09418413671255726
0.06893343189605373 -0.06933797008665495 0.09388929497712405
0.06891728386987325 -0.06865478465196859 0.09371992519520266
0.06916594472449836 -0.06894130839780262 0.09426630650743299
0.06892332653390709 -0.06834656995905178 0.09366007444793537
0.06924127538178979 -0.06848561103028337 0.09430076793695498
0.056830718597821406 -0.1051887511811589 0.09621826209138283
0.05666336704198339 -0.1047473949720334 0.09572942327763806
0.05679977201230807 -0.1041012459494251 0.09563154160252758
0.05716315418445109 -0.10318109863398943 0.09560351450005512
0.057712081979193176 -0.10216699453446629 0.09555586740822751
0.05828579034428027 -0.10117091897954372 0.09547099981978689
0.05897364450932405 -0.10023450232267304 0.09534112004186547
0.0596675319804361 -0.09934656755402513 0.09523652236068228
0.0602408986029919 -0.09860341944955704 0.09521578654293061
0.06083713260542561 -0.09814605609674083 0.09540634548669367
0.0609121229269775 -0.09755577677215263 0.09507639864163556
0.061272834964042185 -0.09750285137277968 0.095377486976682
0.061626596836624366 -0.09689586189532957 0.09533958988168018
0.06205064347141712 -0.09627839179091505 0.09533578961557838
0.062122332523425194 -0.0969310404685608 0.09585220482288351
0.062467174834222865 -0.09557034970361558 0.09531177248814263
0.06263008533130517 -0.09621292441231219 0.09586423958719477
0.06274028977821049 -0.09507156505917173 0.09531100977147515
0.06312682612417383 -0.09533132464915048 0.09582964074989213
0.062334773408707855 -0.09380811443231006 0.09441579220864495
0.06268353164400234 -0.09398901951942652 0.0947576674125046
0.06302739657055167 -0.09457631422736862 0.09532507885732261
0.06309007173907934 -0.09333151241305261 0.09472825520274195
0.06332372180910986 -0.09274073885747582 0.0945607651789449
0.06376455693251223 -0.09311393592922247 0.09520207976353896
0.06439296119558634 -0.09221479186414969 0.09524297764647777
0.06486911050543036 -0.0913408563133669 0.09524338138139371
0.06524472980634245 -0.09048223657657138 0.09523740785645897
0.06549540082831257 -0.08958072182186172 0.09521358176613437
0.06570643314746615 -0.08870781770783383 0.09516871325743206
0.06598170021377378 -0.08785624565286257 0.0952655963567586
0.06611789991831732 -0.08697947040405665 0.09511099197696797
0.0664292795007482 -0.08647533049808473 0.09528044560646846
0.06626981134474774 -0.08574063113813032 0.09482328938086453
0.06664329485454613 -0.08593405564786448 0.09528812208637492
0.0662076378623424 -0.08528692265295222 0.09457285372387815
0.06657256250607749 -0.08529259481912431 0.09491430852770569
0.0667105311494274 -0.08456518490004666 0.09466532518758132
0.06680870470991507 -0.08393412240522576 0.09438482853901589
0.06733518850122773 -0.0843103364332063 0.0951114878030212
0.06785136374685001 -0.08351294129869116 0.09514409370511417
0.06829060146805038 -0.08276958527593764 0.09519330940054353
0.0684949490696942 -0.08208290456761815 0.09503187863011003
0.06830666828977597 -0.0816280766432748 0.09454861353569628
0.06852013825235766 -0.08142754874269761 0.09468974265644836
0.06852693263672706 -0.08076416860539078 0.09433746299422544
0.06849505133191493 -0.08011230672952423 0.09398492661171906
0.0688139678758807 -0.08042171834786101 0.09471307984436497
0.06889957250001981 -0.07947323150888794 0.09472604189824653
0.06891382040877085 -0.07852703767525906 0.09477950112118878
0.06890457054568212 -0.07759131231877256 0.09485166549737464
0.06889383475979002 -0.07665244896903319 0.09494333882473514
0.06888540188477417 -0.0757025624800779 0.0950306081614951
0.06876614822875973 -0.0749002886474687 0.0948232347917512
0.06858886461010792 -0.07448904765249509 0.09447878510143701
0.0687990511186813 -0.07430579731818777 0.09483634419298603
0.0686994306385725 -0.07344867819640163 0.09445594543157065
0.06865708219817306 -0.07272589850129607 0.09411373206937362
0.0689618738905902 -0.07289011924003068 0.09480408319256917
0.0692563620189242 -0.07223176369640122 0.09519134005520728
0.06915617077193471 -0.07122169372728139 0.09468248276130653
0.0693964541090063 -0.07054156355082102 0.09508820170825527
0.06928509920388173 -0.06962685649841083 0.09462450083615376
0.06949956699095228 -0.06896075696718149 0.09493160510412187
0.06972663420599265 -0.06837562477491416 0.09527563921523885
0.05697050690446092 -0.10479452573689539 0.09624384179441024
0.0571877107787994 -0.10525280773636139 0.09677999643883295
0.05734721748691843 -0.10546524098481969 0.09712284846709007
0.057295274550721455 -0.10393919366842769 0.09628030033812339
0.05747296682263225 -0.10460934305703251 0.09688294723443416
0.05778921933273961 -0.102944670602592 0.09626426737105657
0.05794734529970252 -0.10365264446134412 0.09692351020765998
0.05836207326535257 -0.10193288029204298 0.09619150347723458
0.0584817406737079 -0.10264489585608612 0.09687221173259507
0.05900122511611515 -0.10097801396352181 0.09604766931924155
0.05911187803549657 -0.10167690916062387 0.09672820657759418
0.05973146363557789 -0.1000615756982905 0.09587469987380218
0.0598057310692556 -0.10072575935554152 0.09653071417417868
0.060299896341300584 -0.09922433859537151 0.09572134330983657
0.060469349756153305 -0.09978824150213865 0.09631329178716738
0.06057094325821013 -0.09870580267504095 0.09560065528222665
0.06091157908144025 -0.09885542734869297 0.0960215184076228
0.06141304652705213 -0.0980656796181283 0.09589367407488628
0.06171769284082563 -0.09743676400819666 0.09576105864661422
0.062036651035825785 -0.09781840420052337 0.09639312807925957
0.06266469024383148 -0.09697725090931578 0.0964775486148459
0.06322114995965131 -0.09616018690690598 0.0964815557795665
0.06369252493363273 -0.09542624961773846 0.09650624349165535
0.06331944632871518 -0.09387677756301524 0.09521698808408136
0.06387280871028349 -0.09436927544132323 0.0960327749253212
0.06458230500930008 -0.09320382308374713 0.09606446151316053
0.06507078175552694 -0.09223820719569793 0.09601543488800081
0.06547763978168888 -0.09140179618994526 0.09599665368414469
0.06587590816178993 -0.09054740253737771 0.09609000789592718
0.06601289374483688 -0.08955180141191037 0.0958948363925894
0.0661947468006761 -0.08880594396666369 0.09586431081582523
0.06653040723201961 -0.08833489683857329 0.09610055423364833
0.0664199378716563 -0.08752473268421662 0.09568824378244475
0.06679303826727676 -0.08780627629716112 0.09616816540597899
0.06642594556685945 -0.08703097765047393 0.0955044330810726
0.06676786822018066 -0.08713222687597338 0.09589966732787526
0.06692680743991336 -0.08643853004144177 0.09578105790369337
0.06707225648987541 -0.08575422487434063 0.09559324780907712
0.06748991439928516 -0.08639447985049968 0.09623758347344255
0.06707983932718614 -0.08506279050400053 0.09526676306782245
0.06770923133383151 -0.08541964790374151 0.09599331925958408
0.06814401573718118 -0.08450894014360559 0.0959257498436384
0.06854525554630429 -0.08372795359135823 0.09592568901400399
0.0687761651256565 -0.08306065718685608 0.09584096954499591
0.06860268875698326 -0.08258225889317815 0.09542321654282007
0.06882040653050056 -0.08243846385663703 0.09558487313803112
0.06880313715210915 -0.0818124618924907 0.09528890704560088
0.06877453885468464 -0.08118804500245047 0.09494306931712079
0.06911391829745551 -0.08150289811128406 0.09561890067425831
0.06922271058572131 -0.08057870314222582 0.09561267772285577
0.06926752418844095 -0.07964094969937123 0.09564007285244482
0.06927572889223424 -0.07871173858971653 0.09568748820877443
0.06929007405695785 -0.07776909199785492 0.09575907908514779
0.06929129126522056 -0.07677488994335521 0.09583731535722707
0.06917898929462912 -0.07593894906336597 0.09567664496334578
0.06912404132947161 -0.0752174560019088 0.09549651867469305
0.06916199295847197 -0.07448520499961302 0.09546845037710061
0.06905019441690492 -0.07377351861936629 0.09519568378758732
0.06944370150583229 -0.0734035175348555 0.09579876482502103
0.0696782262361063 -0.07254508804497262 0.09617841096377494
0.06952775076106796 -0.07152273341931217 0.09560900372003596
0.06975976486387914 -0.07079987256193443 0.0959853166463649
0.06965188315750657 -0.06982494663120277 0.09546658684457766
0.06993134958531434 -0.06901117453336719 0.09586658437923466
0.07000558635264394 -0.06826098402477233 0.09587824195784932
0.06997430848708655 -0.06803104776263504 0.09573435979665745
0.07018162544912705 -0.06806150651046536 0.09625364444433102
0.05762504380773741 -0.10507703635212243 0.09736932411257139
0.05809746293417982 -0.10431874802516651 0.09755453155452853
0.05833686249289087 -0.10483340494752179 0.0982347499457872
0.058636197913277316 -0.10331549037463938 0.09754406355485537
0.05875424377384671 -0.10402083720903077 0.09820755114191816
0.059245286274741384 -0.10234223776233844 0.097411176738857
0.059363654604253475 -0.10301872232622722 0.09809706569530495
0.05994343207117755 -0.10137430048481126 0.09721148462879091
0.060039834301482825 -0.10203671685804093 0.09791132695022689
0.0606146682570949 -0.10039726256605366 0.09698777836466392
0.06071544181224745 -0.10105269020034871 0.09770126439402617
0.06117761349012839 -0.09944859310099707 0.09672315457887713
0.061349548106308896 -0.10005864838818464 0.09747235004596103
0.061527605686853955 -0.09862566772284694 0.09643627597793068
0.06197960693342104 -0.0989104016357129 0.0971636416013956
0.06269172133765648 -0.09784203795366835 0.09716420762119465
0.0632745672495378 -0.0969380000699015 0.0971433415108568
0.06382188123724909 -0.09609112392649566 0.09712382588241136
0.0643048973410502 -0.09522257834832576 0.09705121679906595
0.06495558410585883 -0.0942007164708459 0.09702394821545679
0.06534923164542367 -0.09306592777081085 0.09676263486400706
0.06569866704099209 -0.09220493397799807 0.09665345511970913
0.06603179234034226 -0.09150535999797507 0.0966580076659587
0.06645637320985191 -0.09105209830659385 0.09692789128631227
0.06640208126432302 -0.09018335452422652 0.09656196748999793
0.06680323386082136 -0.09055228666256485 0.09706767025027684
0.06646367122279427 -0.08941666138674012 0.09638838751645284
0.0668697231695494 -0.0898965151127919 0.09692180606645152
0.06650081449551326 -0.0889127045548981 0.09628681921195643
0.06686466401279487 -0.08907038343071189 0.09669429139746363
0.0670599223706893 -0.08835341364393955 0.09661311681221851
0.06722014876191623 -0.08765823803616161 0.09649429789146081
0.06764804903370666 -0.08830347211453381 0.09704207162119763
0.0672327798466489 -0.08698828570494221 0.0962740484532789
0.0678235485192958 -0.0873503987810584 0.09685486680927739
0.06822211566634982 -0.0864543383719718 0.09682385282618418
0.06862548874394034 -0.08551953383241213 0.09679313543776648
0.06878700374924826 -0.08460343495311295 0.09652552161118907
0.06906628310404436 -0.084102296556491 0.09655978829787237
0.06888326531203491 -0.0835888625911305 0.09618400026113579
0.06914008579754782 -0.0834916036160954 0.09635399184496715
0.06913408859327208 -0.0828640991170009 0.09610031427573267
0.06907404413520857 -0.08224268338225318 0.09581060777440972
0.06946670996431545 -0.08259111630260847 0.09643841101417748
0.06957087639292026 -0.08167276112303883 0.09646322734192521
0.069632714264751 -0.08074178730705076 0.09648235734900942
0.06964959621240162 -0.07982153243322296 0.09651326112230442
0.06967391173243619 -0.07890890575420341 0.09658309547355198
0.06972044895058505 -0.07798516007045911 0.09668951821327479
0.06974013217344321 -0.07714472509205898 0.09667891390447847
0.06943755521427818 -0.0762966239630189 0.09615516816749825
0.06973186739857881 -0.07648637866808883 0.09662674107788284
0.0692876638817003 -0.0757831802140544 0.09589185928094383
0.069518478061696 -0.0757589766276436 0.09625434959026476
0.06945387123084995 -0.07494813915061166 0.09604282269232621
0.06938410653992477 -0.07423400998573346 0.09581518911943519
0.06980073072286651 -0.07459601428631213 0.09659486064727296
0.06996268966553047 -0.07361541861576822 0.09682390420194557
0.07007642389422843 -0.07275733081443145 0.09708254906376378
0.06989825614629476 -0.0717978145058314 0.09654080848013366
0.0701118416399521 -0.07108308256599012 0.09685003116202828
0.07002834462691163 -0.07009283526136395 0.09635791625547412
0.07031121166937865 -0.06948597033797944 0.09685237065432525
0.07022839866160163 -0.06852944522006238 0.09652928957640011
0.07059913267989995 -0.06805967485802378 0.09709717383058183
0.07077401516619379 -0.06765691828464139 0.09724498139132562
0.05871538072747601 -0.10534013541946118 0.0990548064378176
0.05890356669609629 -0.10467982551328237 0.0989062873310566
0.05943413178357009 -0.10371296106434302 0.09879362804228402
0.06011697287953623 -0.10268169204482826 0.09863492684180201
0.06075045966427631 -0.10171315372616653 0.09842019671061662
0.06139899243673678 -0.10078631559975622 0.09821383754589139
0.062108603908212635 -0.0998049376493453 0.09806272201923295
0.06277629835133387 -0.09873834465019247 0.09794499363892922
0.06334007923061588 -0.09772667758510335 0.09785425729165428
0.06386690862661275 -0.09684028626177592 0.09778615513613367
0.06439672850553309 -0.09602748283267026 0.09775676662278886
0.0650235947757986 -0.09527326159215972 0.09781275357345649
0.06568298612264989 -0.09457711963585187 0.09787584353184096
0.06575559494082668 -0.09368402960695126 0.09746914285447525
0.06616552960147748 -0.09402260210169947 0.09795763588219533
0.0659981648008607 -0.09285006359538103 0.09726243319362647
0.06636607369399578 -0.09338362406296154 0.09781163151510708
0.06624964181410971 -0.09211138066327346 0.09714502091719467
0.06659681675389609 -0.09261906733898959 0.09765648403235005
0.06637494520245638 -0.09162149519544181 0.09707113481640023
0.06674147796019565 -0.09179280383804367 0.09746970240335248
0.06703581413812142 -0.0911059580512465 0.09744539360753557
0.06728557869125468 -0.0904387765406681 0.09742017685932537
0.06767026269446984 -0.09108697900156502 0.09786899442400555
0.06739577654558204 -0.08964126627196635 0.09728642443904591
0.06793647171308494 -0.09027126475173729 0.09782044734792765
0.06738844702170813 -0.08892297088276083 0.09707015935675975
0.06806305575033933 -0.08923675865873433 0.09761436939402279
0.06835690997441152 -0.08826499917502915 0.09752954098453238
0.06862749671511713 -0.08740753403421299 0.09746019008635068
0.06900843541147536 -0.08662890983862911 0.0975355571564999
0.0693190392419949 -0.08592770428279588 0.09755727773082878
0.06915346034161791 -0.08513228292537703 0.09707948409986822
0.06950918619546352 -0.0853653179593622 0.09753709416422564
0.069131071949849 -0.08463874287663112 0.09683830996229098
0.06943699076680483 -0.08470082280281058 0.09718113514527404
0.06946862940315063 -0.08397434879128514 0.09689013004934836
0.06943279580401064 -0.08333428489985645 0.09659031225453366
0.06982768216411321 -0.08370016834902573 0.09726055795266014
0.06995293342468593 -0.08275950598410958 0.09728952016010589
0.07001064474817259 -0.08181409578578185 0.09729937772363584
0.07001489185246508 -0.08088639204612327 0.09731716934568703
0.07002473532719766 -0.07999683521310846 0.0973755995578146
0.07008777883195652 -0.07913526910040494 0.09748781850525126
0.07011999675370853 -0.07836228649208461 0.09746828306712867
0.06990971067044457 -0.07779244862767809 0.09703493414589055
0.07007124385942859 -0.07766870177137004 0.09730112258651338
0.07001311916371107 -0.07700205940067555 0.09713381961497561
0.06993808116602387 -0.07624295196465027 0.0969478367543562
0.07031339469509354 -0.07690450116257765 0.09762668261758568
0.06978275415686838 -0.0754611455056312 0.09665216955472004
0.07025243654465407 -0.07582127221966684 0.09743513542542014
0.07034045669572507 -0.07473549946857586 0.0975774237624757
0.07040208315542992 -0.07369786245756564 0.09774702712126934
0.07032916541990883 -0.0728756394533321 0.09767508149098582
0.07028800941552639 -0.07209600740488355 0.09750912609961554
0.07038763193899793 -0.07126693656376891 0.0975039159691339
0.07036170860269166 -0.07048836658088518 0.09720487992606462
0.07073648294993366 -0.07011795962766773 0.09784366128205235
0.07062815266776852 -0.06892457999752674 0.09740303605062241
0.07103588311709912 -0.06840051590421145 0.09793679130791072
0.07102092000374154 -0.06770046067156167 0.09770095023022497
0.07138965412273442 -0.06744246947560023 0.09828940692338312
0.05895220090272012 -0.10569966758027882 0.09955676915634377
0.059120623387105185 -0.10527171215167005 0.09954383323733458
0.059540569381629875 -0.10439758915155398 0.0994692560864477
0.06017835458683384 -0.10337521363773672 0.09933368100508852
0.060891976690751665 -0.10228664023019177 0.09921266915955626
0.06136865169563398 -0.10139973796944218 0.09883261080229291
0.06207720354811817 -0.10064773496871636 0.09880823910859972
0.0629083427953038 -0.09962943127918097 0.09884680705521476
0.06350193710656282 -0.09848511845765932 0.09858380266934347
0.06397883202049284 -0.09755029809098398 0.09843826629974385
0.06445178905400639 -0.096734227369049 0.0983380832043639
0.06490577083448834 -0.09606307395337203 0.09830934000038165
0.06546882274914428 -0.09564562676248364 0.09845783008521335
0.06554045505851529 -0.09516423877711958 0.09813647998628726
0.06594260508674922 -0.09508506369230929 0.09839983613763312
0.06631619720846357 -0.09451209435124887 0.09833760559809564
0.06668558919486663 -0.09389490297650187 0.0982930252808443
0.06687722072276549 -0.0944713414244198 0.09875800065664367
0.06700469620812834 -0.0931648164706686 0.09818214720059115
0.0673557347955895 -0.09375958476929672 0.0987035009262318
0.06722105322957567 -0.09235268413990973 0.09801556350894527
0.06771881813728267 -0.0929148380537288 0.098567752563721
0.06732705116750425 -0.09166550914710002 0.09783534029095127
0.06795368411808299 -0.09192788555913524 0.0983398314708095
0.06837030927666679 -0.09103667853929849 0.0983411028830098
0.06877117244182529 -0.09013133662751181 0.09833875881940889
0.06887237066761709 -0.08906027403727038 0.09813579589689597
0.06903652737333349 -0.08819778778407297 0.09801023446286895
0.06924689315628522 -0.08750968398842751 0.09797250161673225
0.06956678480357423 -0.08707437945660017 0.09813534189982695
0.0694040687065608 -0.08652226156678398 0.09783841887355574
0.06969303672873488 -0.08646563696746595 0.09807074756297907
0.06976765285645373 -0.08586166753854703 0.09795789086724226
0.06981728809312306 -0.08518052127425679 0.09779803067175954
0.07016577727212019 -0.08582602458201848 0.09836466952404305
0.06976945392135141 -0.08448142647355861 0.09746450717648542
0.07019791884896084 -0.08483643787522334 0.0981289653768473
0.07034019604617285 -0.08384943498012407 0.09810393972691424
0.07041194776123355 -0.08288172680790272 0.09812726509622492
0.07040337479783688 -0.08190228828948401 0.09811860110626001
0.07036160045082888 -0.08099574554215357 0.09810871565443442
0.07041484034725777 -0.08020555410254854 0.09821266270067534
0.07047579335537918 -0.07950115731612044 0.09822860963289035
0.07027611459624003 -0.07896020535965405 0.09781725046036809
0.07043985926833239 -0.0788231952126191 0.09806333455605264
0.07036384968705643 -0.07815507031736525 0.09785447278262502
0.07028343310617148 -0.07752971134919728 0.09763697980643045
0.07064840015824957 -0.07787490566102492 0.09828273068957075
0.07073690957567627 -0.07690648873751174 0.09831632562097108
0.07077622274859685 -0.07587620801168315 0.09835013986464955
0.07083760137736139 -0.07482969046242198 0.09852848309908592
0.07073807107304733 -0.07390408454303231 0.09841988121303136
0.07055048008321987 -0.07321290659335755 0.09812040917230645
0.07082274967722464 -0.07350290659284739 0.09860471512389851
0.07043889366218747 -0.07270147634489066 0.09791695086400512
0.0707209334896208 -0.07269906847432314 0.09836033235259461
0.07066636122572018 -0.07174963647722518 0.09807583469855573
0.07062810790541976 -0.07097234784847882 0.09783904852524948
0.07103587560953105 -0.07130476803034533 0.09857067877790111
0.07119726164396119 -0.07038471019662558 0.09876636888195268
0.0710762088086544 -0.06940791789385964 0.09830209946985434
0.07154709645508685 -0.06896256887676051 0.09891712998202008
0.07144267805001304 -0.06789526308721959 0.09849983633233288
0.07180592254986609 -0.06743803036344062 0.09898094704710991
0.05938741024750864 -0.10559523351768647 0.10000153261808353
0.059746001960049595 -0.1050176123930375 0.10006828900867307
0.060115646811781685 -0.10542651612370062 0.10062912478012534
0.060265123152454636 -0.10408821644532518 0.09996813382928836
0.060476462249761644 -0.10469341414269681 0.10056722230862955
0.06086281317417907 -0.10311140801949935 0.09984093318922029
0.060997022791371674 -0.10373371299252461 0.10042806837899755
0.061410395027419074 -0.10235964550637949 0.09977025733886598
0.06158306694265482 -0.102791253270626 0.10024932833522779
0.06198192140140936 -0.1020507837666195 0.10001957944182469
0.0618438525897144 -0.10155294197086133 0.09945424527225039
0.06266039968966726 -0.10068307669936657 0.09947554642165019
0.06342795094926203 -0.09999694675603137 0.09972946444568515
0.06372588784653115 -0.09906333994282336 0.09931806379383894
0.06399152312982923 -0.09937519946983744 0.0998603511627359
0.06416910731666844 -0.09815884698964844 0.09910087673355945
0.06438887774135461 -0.09868715786788336 0.09970403937420326
0.06461097161571823 -0.09732820907447243 0.09892183196614639
0.06485579028691507 -0.09786429416553623 0.09951608620743654
0.06500582459221516 -0.09658008465505333 0.09876815142202883
0.065287415894084 -0.0970375349438594 0.09929273401806023
0.06521889653229244 -0.09612136677330255 0.09864914069832315
0.06560710944573912 -0.09621548673599306 0.0990033674365078
0.06610219006008257 -0.09553001094714215 0.09884718136159266
0.06644231408029978 -0.09497684626506882 0.09871722281793718
0.06686786745579457 -0.09524748819620926 0.09918219357485134
0.06757060251062802 -0.09446426258339648 0.09919519149554325
0.06820730072149077 -0.0936188018802457 0.099197415041845
0.0684905657971105 -0.09261805506864579 0.09895339714527325
0.06875059279381071 -0.09175578692162831 0.09881249006420818
0.06905940300002468 -0.09103631580145083 0.09878186040173216
0.06951148622978187 -0.09054633526738111 0.0989914061124258
0.06942035157184881 -0.08966028204767516 0.09868885268343744
0.06983631059101497 -0.09000645351264785 0.09913837830399166
0.0694708795841079 -0.08883093272131963 0.09852316439007641
0.06988717800588048 -0.08935824789673588 0.0990195161729356
0.06955963472285585 -0.08809138840336285 0.09838290039601004
0.06993886608813915 -0.08858894926837033 0.0988774978308263
0.06959947670094459 -0.08761730855708924 0.09827966970577054
0.06992845191807223 -0.08775349877276922 0.09865429708541792
0.0700091313548173 -0.08700300523590197 0.09854530157919146
0.07003099265862336 -0.08639246550750884 0.09837613009437916
0.07043524406476113 -0.0867751307707248 0.09895285404421561
0.07062071749814797 -0.08585666451187807 0.09896378542916319
0.07072597504809805 -0.0849035927323938 0.09890445405401427
0.07081588450748467 -0.08395732752526232 0.09893157851955403
0.07086881540257477 -0.08294252115642417 0.09903102569847647
0.07072380479132861 -0.08184602082017471 0.09880048687674299
0.07066835603133 -0.08108172140841134 0.09874380707953982
0.07077719722091554 -0.08060408622468901 0.09891506755713014
0.07059581304061285 -0.0800736954158429 0.09855460550451405
0.07077808747404364 -0.07995643069380835 0.09881402248841258
0.07073951585433745 -0.07928530764432919 0.09861699113835097
0.07064937374730007 -0.07863230498369302 0.09837158875685295
0.07104378879056077 -0.07896942198912961 0.09904315544724235
0.07116483471198849 -0.07796765286716965 0.09910234076356754
0.07120957441678749 -0.07693715581047712 0.0991090975813432
0.07120508768771404 -0.07597750538743202 0.09914722991778718
0.07126387280918285 -0.07528055646762888 0.09934369523764335
0.07112556815408283 -0.0743275765420783 0.09910893411694038
0.07109155340982957 -0.0734229611685024 0.09900759381382732
0.07112747386759297 -0.0727951968687209 0.09895327216734416
0.07099549950524078 -0.07218980500949278 0.09866067126627151
0.0714507837057043 -0.07243401123297426 0.09934647326022022
0.07161665618495851 -0.07134808272421835 0.09947624817758308
0.07159602213510319 -0.07045450150163497 0.09932480332625125
0.07143268952199625 -0.06981897651453693 0.09897182153182263
0.07182358028422905 -0.06993113608456349 0.09952870160225985
0.07202192937476976 -0.06925765368812176 0.09978327650527642
0.07200460937848799 -0.06823571931667584 0.09952377180838666
0.07214693728098667 -0.06742664060927983 0.09954053026071658
0.07210900787891447 -0.06714200221017103 0.09940024898688468
0.060620442835561145 -0.1056648722378767 0.1011797723923175
0.06082244392544474 -0.10522048689096339 0.10112296203925009
0.06126962880440121 -0.10559019656025684 0.10166649065748054
0.061238110303213446 -0.10430474828322028 0.10101038386003058
0.06159049719861254 -0.10488110618323422 0.10153286313535294
0.06184003602509367 -0.10328755007647973 0.10081980029846502
0.06211947230473007 -0.10388242916511935 0.10137590609545695
0.06252456043983273 -0.10213239820496597 0.10057343337279541
0.06281925466545614 -0.10278248377759416 0.10121506675502732
0.06254079805748249 -0.10141081830718601 0.10000830951439679
0.06320096171293421 -0.10119383508589308 0.1004716991954758
0.06372162047591413 -0.10156921298263046 0.10109909530161963
0.0630763782120432 -0.10077957405060069 0.10000491656094736
0.06362754123988862 -0.10048370346263354 0.10030427308543415
0.06386270138677855 -0.10078351341349726 0.1007164083875732
0.06403480305997054 -0.09984064418502525 0.1002474403745922
0.06455828529192359 -0.09918283393665904 0.10020933870714521
0.06463044850741742 -0.09970363141445988 0.10065298293966987
0.065142131535853 -0.09839841763807317 0.10008599603276759
0.065320501612005 -0.09897012985982115 0.10060298156032253
0.06565030522526445 -0.09752902390595099 0.09987579639505963
0.06605941177805383 -0.09807905806461062 0.10054946133130481
0.06605245248491645 -0.0966599582929003 0.09958053576436207
0.06654032716092546 -0.09707172276422654 0.10018826529241329
0.06630394360911177 -0.09595850669554164 0.09928648447904523
0.0669805382836391 -0.09608643691299004 0.09980271954045067
0.06769092206096212 -0.09517837837484543 0.09968684109773826
0.06826671704439018 -0.09446321190599935 0.09965752827760026
0.06885114006057905 -0.09395888823712396 0.09986412272862408
0.06895455140878277 -0.09312165514914873 0.09951615553403727
0.06930967001071424 -0.09341684876662526 0.09997765540412706
0.0691399644761074 -0.09231478332956682 0.09932805058872762
0.06947969878425651 -0.09278298553530517 0.09984182563788226
0.06933740285339862 -0.09158580505212964 0.09917313388760872
0.06966305120943095 -0.09204140627947167 0.09967188403405162
0.06945251714240466 -0.09111057127456035 0.09908450397990715
0.0697913270584563 -0.09124619685058058 0.09946081095830762
0.07003282322301964 -0.0905630630574276 0.09947187182878542
0.07022016893873327 -0.08990980922806513 0.09948313146864157
0.07044624392484669 -0.09054670932349367 0.09996429186918213
0.0703230068237511 -0.08915577375908262 0.09940769314795342
0.0706328828136995 -0.08979903851911568 0.09996314695564705
0.07035568582099194 -0.08831141171631847 0.09926746265589152
0.07074483137186381 -0.08893429537974722 0.09988495891154998
0.07031908427908934 -0.08754537316757283 0.09903292709040487
0.07078743158185738 -0.08787097397907971 0.0996745697593712
0.07098011898698772 -0.08685233066644339 0.09969533703685908
0.07109400429427791 -0.08587873189193045 0.09966570001504192
0.0711692980042149 -0.0849602483773337 0.09963635261531677
0.07128277380905564 -0.08412341775021621 0.099771884558416
0.07136602559003248 -0.08336710884433586 0.09988491246536016
0.07110383850602596 -0.08245784115905674 0.09946498990873273
0.07142420313422418 -0.08277867126823117 0.09997314684066498
0.07096390889078713 -0.08165565092079109 0.09924929999693222
0.07131408131806412 -0.08210599135656166 0.09979422604364417
0.07086845211650732 -0.08115391600151899 0.09911794223298924
0.0711435475212566 -0.08125869304156227 0.09951930140883324
0.07109549801341461 -0.08045827429031703 0.09937149032949917
0.07102762528651221 -0.07976800776315299 0.09914407353192319
0.0714667309646641 -0.08011830089819082 0.09984119145421239
0.0716091101811652 -0.07906559294141464 0.0998917959623083
0.07172177680328008 -0.07798494053713774 0.09995238557304435
0.07158586919776319 -0.07684858095802967 0.09977369187231198
0.07153499334664581 -0.07605945800054599 0.09976442131495897
0.07160015014806198 -0.07551065362476042 0.09992822654196447
0.0713658346622782 -0.0749728956769414 0.09955301941092198
0.07153058376343989 -0.07476267178659012 0.09979059355271683
0.07144725218497777 -0.07398100814945445 0.09960054835594491
0.07138969249066618 -0.07325588562025247 0.0994068597329157
0.07186347135227247 -0.07363567653772207 0.10008891893667886
0.0721071984644411 -0.07253160329939298 0.10027586072513203
0.07208011122029781 -0.07155573579188212 0.10014084496304103
0.07195791535211024 -0.07079311209237736 0.09987029497411502
0.07235019686128652 -0.07028552230570746 0.10035637426970744
0.07236718627603969 -0.06937128040605685 0.10033108967490749
0.07217572199281538 -0.0688614989719182 0.10003931491758346
0.07252672352326849 -0.0687061771774676 0.10043915515660676
0.07245137096183366 -0.0677944800788313 0.10012544161471705
0.07236444302095213 -0.06727938476010263 0.09988122599179178
0.07277472159807855 -0.06757263944592434 0.10059716389872024
0.06178350703175389 -0.10591447545930074 0.1022969929398088
0.062067794200448806 -0.1061345053985185 0.10269047636780873
0.06194486421016858 -0.10537644109141583 0.10208334243076835
0.062239863622584254 -0.10579214254893085 0.10261511650294679
0.062421509154431946 -0.10446299398927045 0.10190639788747588
0.06267001341479266 -0.10501152857050113 0.10245825371889514
0.06302212602788901 -0.10341750006710937 0.10176725593548223
0.0632473998294612 -0.10402042713146199 0.10230664793050243
0.06375469284590472 -0.10240901412581455 0.10163199200294959
0.06392088456476568 -0.10300724674307009 0.10216070298161486
0.06429037288361819 -0.1017449014396524 0.10155259978240387
0.06480353985662445 -0.10190189161163463 0.10201479417218491
0.06414488780551329 -0.10023863678505114 0.10061019110011919
0.06457406861927151 -0.10044269360121967 0.101030254229981
0.06477556348567705 -0.10109760095174239 0.10151093933866841
0.06535912474206748 -0.0995978831195878 0.10104077271358143
0.06602533386578711 -0.09887406657040176 0.10102323014900179
0.06674221155523544 -0.0983258759347688 0.1011822849309655
0.06698437713899733 -0.0974773896168078 0.10079601670802445
0.06735330567568143 -0.09772013526578842 0.10126479035404377
0.06738521873578596 -0.09662356925968762 0.10050035507896043
0.06768868196425203 -0.09706673728750002 0.10107855910693979
0.06789575374333903 -0.09578489876204428 0.10025384051084239
0.0681447510372815 -0.09628560502658463 0.10085080654303206
0.06837309867124768 -0.09501246146844022 0.10009527778667758
0.06858132816245 -0.09547858727102877 0.10063346509486251
0.06865219197495516 -0.09451966509851838 0.09999035091177588
0.0689549428283789 -0.09464329786664452 0.10039321717564154
0.06937047931410378 -0.09393588397471093 0.10036708752700488
0.06969671561380161 -0.09327805855612079 0.10034049866947939
0.06979216388160495 -0.09387852875567672 0.10085233616413962
0.06993410513228954 -0.09255144540272593 0.10023559615565766
0.07010829908743169 -0.09312983554802377 0.10081247111152815
0.07012576184368995 -0.09177746004594053 0.10007232281138363
0.07037229097659706 -0.09233004498129743 0.10070267942743837
0.07021853406790005 -0.09109842896828736 0.0998866220381917
0.07056863065356801 -0.0913828958688789 0.10052356485582088
0.07084991222963521 -0.0905200143523614 0.10056118162844713
0.07104045856634052 -0.08967935189792457 0.10053205220267973
0.07118383798344498 -0.08877576191519845 0.10047279905651435
0.07132112040183607 -0.08782272803768001 0.10043301410865117
0.07149096755539747 -0.08683899211546552 0.10047475329748606
0.07148440006300442 -0.08579543224316223 0.10027890039712282
0.07153512007245837 -0.08503045064867193 0.10024087895585349
0.07168180223630873 -0.08455206527793492 0.10042784821681107
0.07150565317057386 -0.08399661799081459 0.10013518778312945
0.07168545264871042 -0.08392313636226703 0.10040931207731588
0.07168110199126163 -0.08330567888734328 0.1003649081998264
0.07167566130595668 -0.08262318907659551 0.10033102425882096
0.0720010825729914 -0.08327559015610163 0.10082647333480411
0.07159891514499064 -0.08180013576638095 0.1001825129414777
0.07202406327801299 -0.08243345890956409 0.10080295104474424
0.07145237024962617 -0.08099819316778553 0.09992359794700871
0.07195837510785692 -0.08132430813661735 0.10063929405467953
0.0721225231922815 -0.08018192689602749 0.10075925988323056
0.07211072778199633 -0.07908627471902775 0.10059264897405926
0.07229026689087942 -0.07842548890290243 0.10078517835298353
0.07201669418076652 -0.07746023466535086 0.10040102700363328
0.07237197475467937 -0.07777949673497768 0.10089710483895951
0.07184610674344878 -0.07661179395977823 0.1002238280538667
0.07222810197257515 -0.07704090316803407 0.10073576419003008
0.07173422296288696 -0.07608518759611817 0.10011448187680165
0.07199827893930417 -0.07614238778249206 0.10048904774947548
0.0719112226015964 -0.07526920592885394 0.10034687853091653
0.07179463142746441 -0.07450367649288803 0.10013597224768732
0.07229567630445216 -0.07486531439532236 0.10080489812931136
0.0725421185361176 -0.07382665651113844 0.10101179280402144
0.07271836087588589 -0.07290832372066955 0.10113103464673945
0.07245469544063135 -0.07195249300499539 0.10067836197936958
0.07281471303775959 -0.07217735411300444 0.10118791536362813
0.07230676970309313 -0.07118231223616572 0.10039350378056927
0.07270927979246565 -0.07133450927576047 0.10094328454720941
0.07280412862605218 -0.07061619166840641 0.10100978869926734
0.07287452286268825 -0.0698223129306602 0.1010253039176388
0.07303792683991998 -0.06893876242994632 0.10113940668845886
0.07291212137445978 -0.06814904782829619 0.10088500247607413
0.07343943849234304 -0.06777555785947278 0.1016279237740731
0.07379474133239573 -0.06714317263564802 0.10196894730400959
0.07402801067905912 -0.06690015976944826 0.10223564403872863
0.062479129306706876 -0.10599061234985073 0.10300278002971691
0.06286249609744032 -0.10548085573538307 0.10300330223057101
0.06305505562612056 -0.10569837804511133 0.1034435824406951
0.06339698538598715 -0.10463052155632521 0.10287479487659079
0.06348846221746199 -0.10513629686046085 0.1034766007176133
0.06404225604375074 -0.10366554352953972 0.10270873611102531
0.06409647408434542 -0.1042917053598837 0.10332429667743416
0.06475153989858494 -0.10269908500575563 0.10254565179344348
0.06481672970306468 -0.10331571236050952 0.10312342835587957
0.06525304182453731 -0.10207029292915788 0.1024612664684339
0.0655398917548858 -0.10226962510880784 0.10293233616167236
0.06545137424165365 -0.10020113377920856 0.10146873079944561
0.06560773312924675 -0.10082074104895551 0.10194593894166992
0.06572839043037206 -0.10147301904005004 0.10244611971396228
0.06608030702593178 -0.09941150119689038 0.10139555150897575
0.06625523167535825 -0.09990594029041955 0.10185546088834821
0.0664312707382979 -0.09889681859720607 0.10131936637655989
0.06676499207034953 -0.09899909615482559 0.10167899890694591
