# .PCD v.7 - Point Cloud Data file format
VERSION .7
FIELDS x y z
SIZE 4 4 4
TYPE f f f
COUNT 1 1 1
WIDTH 788
HEIGHT 1
VIEWPOINT 0 0 0 1 0 0 0
POINTS 788
DATA ascii
0.05981207984577742 -0.08370608590955984 0.08147217553642941
0.06014196549567829 -0.08281166797023777 0.08156658830801157
0.060575864945100574 -0.08202761162205516 0.08168818447414891
0.061109873116078815 -0.08134175735022556 0.08189197640653813
0.0610211975197894 -0.08052478691349894 0.08119646493128212
0.06160345334184348 -0.07993575116728921 0.08139790331890742
0.061561986831105434 -0.07920653586965107 0.08071688638552253
0.0622006032198452 -0.07873214785961373 0.08102407314551346
0.0628733422906732 -0.07824055808590223 0.08132169564298401
0.06345857447110873 -0.07767775096114696 0.08159153665069188
0.0633079791009406 -0.07684955020931566 0.08091205663228601
0.06376540644927908 -0.07625776362327799 0.08120763670238774
0.06360743080451096 -0.07547314710150435 0.08063401031387107
0.06397303831854463 -0.07488052518514884 0.08092990414818718
0.06431180183538998 -0.07435565787815589 0.08135777000239594
0.0646919888430111 -0.07378595848135756 0.08198565991663209
0.05875437054161643 -0.08841949231605192 0.08279462951945168
0.05889213798216818 -0.08794386360908961 0.0824214476933061
0.059234840894146684 -0.08748463991868054 0.08246657575386658
0.05965736754330744 -0.08655574828560106 0.08237831279510988
0.05989230642752512 -0.08563163710295363 0.08224773761634217
0.06012567179118909 -0.08471817151126913 0.08227111746162577
0.06046159602092313 -0.08380667491138158 0.08237181172796595
0.06088217957289474 -0.08296399205644789 0.0824904946163424
0.06135191181004061 -0.08220562394059773 0.08262197414855262
0.061816338709167834 -0.0815682897250958 0.08274234849357834
0.06185962393596429 -0.08075284466571317 0.0822638889323398
0.06215227148850546 -0.08004433039615431 0.0820688533496228
0.062167355101312376 -0.07946144899830516 0.08160569791113274
0.06294091059149805 -0.07914728300830835 0.08207355806343754
0.06359171313218044 -0.07851992024726999 0.08231755806796516
0.06408364481652214 -0.07790576904944872 0.08256790780886492
0.0639295515054911 -0.07708215116901222 0.08186214844844225
0.06431735070427957 -0.07646254658181302 0.0821529888908673
0.06413633631079173 -0.07562942698543094 0.08149431501214269
0.06445511746877676 -0.07499011364514839 0.08179804507701978
0.06471863761081402 -0.07434754306640615 0.08215061392991216
0.06491309980676624 -0.07382605635244444 0.0825109524676027
0.06501278548581026 -0.07341756902353887 0.08269092337894197
0.05840341117460333 -0.08981795537927716 0.08409501830274575
0.05865954570519567 -0.08911682810063272 0.08353959201192336
0.05889381564514803 -0.08854323596766714 0.0831651708941279
0.059041655261968216 -0.08803443634045333 0.08275371141276847
0.05965856814079985 -0.08761337947193588 0.08310236044980306
0.06019106487321646 -0.08670664551005082 0.0831483520063775
0.06054620196747107 -0.08579869772001303 0.08318087424337586
0.06085813204420497 -0.08486991851059941 0.08325038090482695
0.06124718213353092 -0.08398179263747785 0.08333654582348134
0.06166138755325751 -0.08313726975477259 0.0834692304169183
0.06215430934928496 -0.08232687490303914 0.08358521043384398
0.06229184165081891 -0.0816081967059617 0.08329104571040807
0.06214494223832036 -0.08125134320491592 0.0828842081556477
0.06259577412153712 -0.08110692058182825 0.08327429362445388
0.06262408520339938 -0.08036827344244511 0.0827296344698971
0.06262265027477622 -0.07978273252681922 0.08228197587424614
0.0632059101958331 -0.07990347658528552 0.08292994233731164
0.06372709294508583 -0.07933092385622634 0.08308694381950471
0.06421462641663492 -0.07871810310577526 0.08328562177539668
0.06462149876624397 -0.0780864821178962 0.08349400138577012
0.06447551564493835 -0.07727740893217666 0.08279917134050958
0.06482759744598017 -0.07664605229726702 0.08306412756774992
0.06464624694726595 -0.07581486252829943 0.08242647267028176
0.06492396952739637 -0.07515607735359386 0.08272724435648765
0.0651214462377942 -0.07447496910505944 0.08301252058415057
0.06525994960622845 -0.07379530337492454 0.08325588827026166
0.06538855601543858 -0.07320180854984204 0.08371057027948199
0.05801372800130213 -0.09138984026823538 0.085091725093824
0.05832269735833393 -0.09060736246990998 0.08477713151476031
0.05869044692211259 -0.0899589486769966 0.08451166918080984
0.05855870726273035 -0.08957757010560508 0.08398657794684042
0.05892261762075927 -0.0893899073088053 0.08410186576160017
0.05912136016010023 -0.08883701079606936 0.08372951189132796
0.05927029182704071 -0.08830117741738452 0.08333739331938941
0.05984353507909452 -0.08849959639012853 0.08406198265209812
0.06048660745441757 -0.08771257924944378 0.08407081259685716
0.060958508530528706 -0.08686904686855246 0.08411345038116944
0.06129728758886478 -0.0859648968732115 0.08416844509434558
0.06164382938986745 -0.08505627189428873 0.08422862694670938
0.061978634191696705 -0.08416521078995857 0.0843299285295951
0.06237926201255658 -0.08335292298587064 0.08446115749564838
0.06281928112105126 -0.0826614434893311 0.08466381243433198
0.0627311620909293 -0.08184350320655318 0.08397880734268001
0.06326783225335751 -0.08133682109053865 0.08423221771094012
0.06325190151569379 -0.0806108606149567 0.08359394678884707
0.06380921476214833 -0.08008522129841254 0.08381956321930624
0.06429729010264598 -0.07950453053562019 0.08402431266097232
0.06474279865137075 -0.07888830596168811 0.08422463591999314
0.06511712428139603 -0.07824217396086233 0.08443477754088784
0.06498701477471142 -0.0774551028077115 0.08372165744160172
0.06529980605699473 -0.0768323142919877 0.08400294317161491
0.0651332523695048 -0.07600825773761571 0.08336298879027437
0.06537708140750434 -0.07533743521449017 0.08367408520629455
0.06551248962078046 -0.07459370300920075 0.08391971420063438
0.06559477602140912 -0.07385516345662478 0.08415633622598317
0.06566087216874734 -0.07326743575434776 0.0844700025345365
0.06567734810904723 -0.07261934165805312 0.08465992543183201
0.05797079095976496 -0.09214472435709715 0.08565247306247924
0.058361301055525706 -0.09142915141248127 0.08554019198148427
0.05868243948114914 -0.09073910150480598 0.08523570878994535
0.058653997425154654 -0.09039352248094851 0.08490457628000278
0.059226407037108054 -0.09030778783254882 0.0852964208169143
0.05940974989977159 -0.08965655505347021 0.08477742258831662
0.05948000635039711 -0.08913209160505395 0.08431668653946266
0.06010670974082572 -0.08920336528361068 0.08493037867076084
0.06073477256575298 -0.08859553806918953 0.08496244819243345
0.06130332098603143 -0.08786950367267142 0.08500905372730079
0.06173919793355725 -0.08704220577750321 0.08507104061896652
0.062064809458259776 -0.08614764851460611 0.0851354367426143
0.062349387163630275 -0.08523760641327295 0.08520926729353588
0.062650738926953 -0.08436684423754562 0.0853166072991027
0.06297757217474609 -0.08357247837378078 0.08547530709827372
0.063388608595525 -0.08288901946814668 0.0856740429908725
0.06333057103581008 -0.08208841944180346 0.08492674121433977
0.06384995451355067 -0.08154452841020567 0.08519420141376319
0.06383604608320928 -0.08081701505929907 0.08450575052098618
0.06435876784553107 -0.08026898268276246 0.08474862521902975
0.06481324542610135 -0.07966885978523644 0.08498248489420256
0.06520311056491818 -0.07902309109218367 0.08519299088180848
0.0655456806475919 -0.07833743713417954 0.08537696815306003
0.06541857740275338 -0.07759610401091642 0.08464940287425347
0.06568184076398695 -0.07700822805396294 0.08491727841800498
0.06557667225280203 -0.07621987207018367 0.08435501260230283
0.06579217546268198 -0.0755118709359151 0.0846719536073876
0.06589921184326163 -0.07471448175914117 0.08484544750018248
0.0659544548569701 -0.07396975979772828 0.08501838107107292
0.0659529787623398 -0.07321360015587589 0.08520548668134326
0.06593148009202061 -0.07243665197551527 0.08538487219579378
0.06577905059443256 -0.07180897617442387 0.08522746374951021
0.05761898124508439 -0.0941730391457582 0.08672136969176035
0.05788122771102365 -0.09327392999018641 0.08641560741084743
0.0583208323809921 -0.0924292381112723 0.08632699245191545
0.05899856498186973 -0.09176586871335388 0.08652813566450092
0.059155731912029524 -0.09099270653989455 0.08593091394241448
0.0599702294101789 -0.09053231928048458 0.08622550710638072
0.06008785564630329 -0.08987349245672607 0.08557997755360042
0.06087474048392089 -0.08937613991760211 0.08574906448891559
0.06156021278389858 -0.08877617353498363 0.08584155176345476
0.0620917334059165 -0.08804723264305997 0.08592578551551876
0.06245466750979369 -0.08720964408946504 0.08601262028062778
0.06275341206417887 -0.08632171764401562 0.08608863548703813
0.06298652257687949 -0.08541756745837967 0.08617332608161574
0.06320904332849027 -0.08454680014820401 0.08629511790355586
0.06350921721014734 -0.08376218973538585 0.08646246845677318
0.06388953780450891 -0.08306865817873914 0.08666050909564768
0.06385430507518784 -0.08228163895756073 0.08591840114064891
0.06434502382717884 -0.0817163983710473 0.08617719985786923
0.06437156488780836 -0.08099891386768783 0.08546766416840682
0.06483441994452342 -0.08042350309016748 0.08572136072680277
0.06525711589080323 -0.0797992944980223 0.08595889339791822
0.06565201852563662 -0.07912824887328644 0.086166309343043
0.06602091216843785 -0.07835353128671436 0.08634962627573445
0.06579654841041895 -0.077659121755915 0.08547423325091343
0.06592183663628702 -0.07717530305820956 0.08549345570784184
0.06605574189898104 -0.07657085088705898 0.08551631185318548
0.06626058286704724 -0.07562323163759489 0.08571154922883369
0.06622864316135701 -0.07475828424346058 0.08562693940524638
0.06634857053086482 -0.07413116598258201 0.08591686546433931
0.06635330566820989 -0.07323703962501063 0.08609351163810518
0.06624394216119021 -0.07237625804381492 0.08603823906996624
0.06591520266536238 -0.07195499324675447 0.08552074249964059
0.06598602952830841 -0.07167073914557405 0.08572163115484907
0.06587879563518445 -0.07140389451364265 0.0855476885324033
0.05762725193717675 -0.09498316353695162 0.08731347348873006
0.05783987881368024 -0.09422368264329692 0.08713708817983763
0.05830911869855822 -0.09337336787854264 0.08713651866454568
0.058942928787413286 -0.0925984748000614 0.08728357079345163
0.05973198595967649 -0.0919669455537551 0.08750507729894288
0.059851548999964956 -0.09123783499970572 0.08683494766676358
0.06076821464406905 -0.09075885901320223 0.08711266641254398
0.06087995851643343 -0.09008867183672672 0.08645000899639747
0.06167064178936558 -0.0895676044059735 0.08662310182389202
0.0622966584140934 -0.08894442441593783 0.08674436321451082
0.06275330137892025 -0.08819575415744892 0.08685119219286155
0.06310528602382726 -0.08736377496900642 0.08694030658633184
0.0633356838793394 -0.08647206408118553 0.08702777075368952
0.06351279929074269 -0.08556907728062323 0.08711936984293184
0.0637184370582669 -0.08470878307921291 0.08724735416838636
0.06400813249097274 -0.08393134665180495 0.08740871948778296
0.06435397166467334 -0.08322641482612606 0.08761190806888945
0.06432667838573375 -0.08244658888923542 0.08689775585339199
0.06480389701376547 -0.08186786912524856 0.08715242392032574
0.06482534008110374 -0.08114783851912462 0.08644402880948547
0.06528230636222374 -0.08056159175671657 0.08670079558536024
0.06570117643568303 -0.07993026788993612 0.0869377512812287
0.06609006573843723 -0.07926106562450642 0.08714656952789693
0.06643525292388121 -0.07864963057497992 0.08733264925875048
0.0661421840231315 -0.07747826689821534 0.08607565027445085
0.0664311004239147 -0.07793545394235803 0.08687111534148871
0.06655415270557018 -0.07715972483174789 0.08671200803021609
0.06642858673796623 -0.07638316942836781 0.08622154886121615
0.06668086334240746 -0.07654916287383429 0.08673064154806347
0.06659068025251731 -0.07603453065257992 0.08645061505498482
0.06671947116264233 -0.07537377791054657 0.08663078078416012
0.06690704099217501 -0.0742888204160502 0.08693975712671742
0.06672903909854627 -0.07338274109685647 0.08675296573628204
0.06650080951368756 -0.07293674112851543 0.08644274990246714
0.06674176928702656 -0.07277656175693827 0.08685420461297627
0.06642227006572013 -0.0719358216316898 0.08639535515370997
0.06616588613515227 -0.07147756683766208 0.08602737019795888
0.06663818582662857 -0.07167060613410972 0.08673506745712369
0.05753915970847132 -0.09659466280786129 0.08830416012732686
0.057662632739573186 -0.09604683991616904 0.08813548318847207
0.05794830221543657 -0.09519662051794579 0.08799167609566179
0.058371769453413797 -0.09430399971395023 0.08800053464468512
0.05894239745836075 -0.09347863773866949 0.08807876636061761
0.059653528404871564 -0.09274454611787705 0.08824039855282884
0.06051052799199732 -0.092111530327481 0.08847154828990192
0.06066419590883091 -0.09142214514288902 0.08778205498274266
0.061487277968952994 -0.09089883191595913 0.08805466285840825
0.06161711241037904 -0.09026531739971033 0.08735290783518049
0.06231753782999829 -0.08970820331563752 0.08753519309665915
0.06292121785552902 -0.08907508364021442 0.0876619860074115
0.06333632237014485 -0.08832122111505013 0.08777178792669864
0.06362402687502437 -0.0874806983473719 0.08787132095529265
0.06383115404342085 -0.08660012703239053 0.08794976945025902
0.06398603890185736 -0.08570256621206304 0.08804936814128589
0.0641888713723573 -0.08485474753625005 0.08817330425215125
0.06443385477296197 -0.08406838038013018 0.08833422181611336
0.06475401361810093 -0.08336241897279759 0.08853874561567318
0.06477190811366569 -0.0825969909331792 0.0878459645961727
0.06521270300141832 -0.08200420818940474 0.08810518422162943
0.06526263086253171 -0.08128799416321478 0.08741662866353803
0.0657102659481904 -0.08070245523013815 0.08766228356843142
0.06614932224693873 -0.08008092176232275 0.08789459436447356
0.06658730119155395 -0.0793915938185328 0.08813429099233033
0.06674106094348206 -0.07872497802198582 0.0879425839836702
0.06670860307983598 -0.07820225554797143 0.08754523619962941
0.06695172367577142 -0.07839380760640907 0.08811271781767602
0.06668522415309121 -0.07775659812948472 0.08722353712892496
0.06698030350471149 -0.07770341231856549 0.08775316877717354
0.06691820841486111 -0.07688181068274474 0.08730171999070534
0.0668423594394365 -0.07625858924011969 0.08696432988809057
0.0672033523955551 -0.0764065556446872 0.08767183719774417
0.06736047410857021 -0.07549460081227058 0.0877521818736472
0.06753017909517005 -0.07470346724094316 0.08802549444586971
0.06716660242289889 -0.0736998795845368 0.08743138571378013
0.06729361135078833 -0.07305946163143988 0.08774817059538591
0.06691846591269325 -0.07218987161364813 0.08720574077716707
0.06714214960603507 -0.07172768497714876 0.08760398334852204
0.06736102593273545 -0.07137959269477633 0.08809543758422397
0.057738357395578525 -0.09662917505450343 0.08875540853023502
0.05803414720720534 -0.0961146777180897 0.08890321322525249
0.0584735374149212 -0.09524154855178303 0.088926578978249
0.05897201723565153 -0.09436018245262914 0.08896315458378064
0.0596448020203636 -0.09356697770727632 0.08904421267559855
0.06036292610115376 -0.0928401295911198 0.08920967806979405
0.06112239711468447 -0.09219322281287871 0.08943829167669032
0.061323525538779594 -0.09152387994236769 0.0887584959286307
0.06208978065864646 -0.09099369398693413 0.08900297480396796
0.06223493451503256 -0.0903809160234759 0.08827608948969547
0.06290907304231227 -0.08981557191727102 0.08845623280644568
0.06345474744733547 -0.08916611640201132 0.08859184945305053
0.06382928013073728 -0.08841600482299272 0.08869813088419418
0.06410157503829579 -0.08759046423316501 0.08879108655487149
0.06426638540411701 -0.08671276352206032 0.08885616888277913
0.06441975208293328 -0.0858284265628984 0.08895770454715508
0.06457744227095853 -0.08497220605416957 0.08909101314489014
0.06481720838799766 -0.0841919076057944 0.08925612177916772
0.06513737621051016 -0.08348840632106436 0.08946340515505342
0.0651415904271062 -0.08272397185212209 0.0887819176257721
0.06560342132203142 -0.08214894173413659 0.08903286719900676
0.06567538056314312 -0.08143636201896601 0.0883546422614153
0.06613648102537699 -0.0808668692842604 0.08860192969232485
0.06659612004913901 -0.08027958129241697 0.08884556263314139
0.06703977632051986 -0.0797274344267698 0.08912600925279582
0.06701751023807416 -0.07896905626230387 0.0885764419343436
0.06733954490762391 -0.0783577885200815 0.08871663778515211
0.06737171999728303 -0.07766434616176478 0.08840157147945518
0.06721929351485406 -0.07717099982212969 0.08792986736914211
0.06754756592997187 -0.07716085153033345 0.08849720078445715
0.06771662543322357 -0.07646320687808297 0.08856683259436003
0.06788679009115854 -0.07571381366600102 0.08873771487772279
0.0680032025271936 -0.07497105435386774 0.08899192435574016
0.06767232176911166 -0.07400970885061191 0.08835148791802329
0.06773664976403716 -0.0732947645665069 0.08864450249790486
0.0674268910404998 -0.07240696702716017 0.08805848802016436
0.06751890224708243 -0.0717756454130697 0.08836944702052137
0.0676278108782882 -0.07142479589878345 0.0887342162449454
0.05812049553778749 -0.09691715301647574 0.08987638868966895
0.058538958999360756 -0.09617909834113805 0.08987646001216791
0.05903867037851237 -0.09527020256414255 0.08988839840140862
0.059597644651831407 -0.0944105419449121 0.08992085566175499
0.06027139888228637 -0.09361045343525376 0.09002768931189971
0.06094158779468311 -0.09288587346098165 0.09019078219844033
0.06168802724426345 -0.09224042876681435 0.09041588904367613
0.06187974973920861 -0.09160514626228883 0.08970221807965913
0.06264799027219127 -0.09106641270840835 0.08995721275667896
0.06282618834091071 -0.09046065741592245 0.08922309586674419
0.06344318009069652 -0.08988915801502778 0.08939122938020155
0.06395799855204869 -0.08925395442327853 0.08950917362047535
0.06432202187606316 -0.08851276299921496 0.08961744596057182
0.06454183986854574 -0.08769278168362413 0.08969169185382134
0.06470549405800476 -0.08683047262651925 0.08975319669930498
0.06482356011828504 -0.08594486175739342 0.08985852973070815
0.06498638484896785 -0.08509697768988805 0.0900009272000175
0.065237438497073 -0.0843222654619328 0.09017486439469065
0.06559320406731682 -0.08363924908507057 0.0903810379057726
0.06555814608038825 -0.0828728051697425 0.08969104667212256
0.06602387919367743 -0.08231044178689562 0.08993529018927612
0.06607971371433524 -0.08159732085266774 0.08927578630864368
0.06657826343292632 -0.08106197673231365 0.08951608494775952
0.0670599044206459 -0.0805235821010656 0.08977887574273996
0.0675058336607674 -0.07998207738841015 0.09004849987575035
0.06744026804120642 -0.07919234301551072 0.08940227359372531
0.06779526480950941 -0.07864492450428262 0.08966246889182726
0.06769206994912491 -0.07787659537563267 0.0890856923348906
0.06793573723875818 -0.07729536879186526 0.08928309469083803
0.06813278587820133 -0.07663330652199392 0.08946006079479611
0.06828905427189289 -0.07592192558040906 0.08967380876326493
0.06839050859449147 -0.07518497341495178 0.08990260427949597
0.06808098404481652 -0.07423835548006737 0.08926182125511845
0.06810839689260369 -0.07350416600968779 0.08953279470027314
0.06778409180673413 -0.07257649037551074 0.08892606979066284
0.06782941955215359 -0.07193225247356545 0.0892352734131938
0.0679490890995673 -0.07156234663904454 0.08962118631884383
0.05808150488003705 -0.09790448611613785 0.0911248893948509
0.05845174339340132 -0.09713729566161647 0.09088313917372383
0.05900921287552493 -0.09621131838587665 0.090850569642759
0.059556734456559714 -0.09528254952301599 0.0908562605394363
0.06018050548311865 -0.09443156012470826 0.09088817220703674
0.060837105204094404 -0.09364027015199937 0.09098938560314279
0.06152607595524426 -0.09293337120831353 0.09115218186222167
0.06223441678923098 -0.0922883829115308 0.0913905989525891
0.062421589082916666 -0.09165440587891668 0.09067809297670958
0.06316089388000604 -0.09113275810714037 0.09091750051586552
0.06333640894462401 -0.09052436911374498 0.09018010488826847
0.06396728053727994 -0.08997243559884192 0.0903331148455492
0.06448201546310713 -0.08934455160689972 0.09046045148084403
0.06480179458424205 -0.08861310677540492 0.09054803469517243
0.06503183340808538 -0.08781385637722745 0.09060287222027684
0.06516108859123189 -0.08694881100525358 0.09066364228020354
0.06527491642666726 -0.08607226745422936 0.0907659507482706
0.06546119106180852 -0.0852342079940406 0.0909283806263874
0.06572433486061467 -0.08446942651021173 0.09109651394881528
0.06608082287368573 -0.08379783411272948 0.09130097715696597
0.06602604955049786 -0.08303542186111255 0.09061406568801475
0.06649596247929657 -0.08250070281075944 0.09083414649098163
0.06653119608557591 -0.08179342901994681 0.09017697226212759
0.06703511154494306 -0.08128312677808915 0.09044851741318308
0.06751671817889289 -0.08076442983247306 0.0907177212791213
0.06797025013502307 -0.08022623465608994 0.09096491912857486
0.06790649506319775 -0.0794405592349383 0.09029871969873342
0.06824724420082998 -0.07889202071301514 0.09053541680457956
0.06809799233428984 -0.07809918714362549 0.08991555196454881
0.06833615212932245 -0.07750139783365394 0.09013858861714621
0.06851314766327445 -0.07685176208803286 0.09036027206157911
0.06862937901589547 -0.07612826162904258 0.09058279628508176
0.06867332159381874 -0.07538629552583564 0.0908227770547172
0.06842105720624464 -0.07445173105192918 0.09016377558013142
0.06842175299755131 -0.0737113092164051 0.09044628467983024
0.06811566810368613 -0.07277939836467122 0.08982489400381459
0.06816039162026277 -0.07211039610176337 0.09015959502347116
0.06825875387197973 -0.07155325099492685 0.0906313288039208
0.0683180450120814 -0.07110397251296224 0.09123719182017538
0.05791959234009129 -0.09895088138898486 0.09217613240883997
0.05826716920308439 -0.09814914321859491 0.09190953649482098
0.05889261127249066 -0.09719510052124807 0.09183356677613498
0.059507583867283484 -0.0962172213359526 0.09181510795426563
0.060144388574759 -0.09530764985466317 0.09180243286915363
0.0608119124690829 -0.094451557431832 0.09184092561861475
0.06144089017834781 -0.09366712214252235 0.09193256893956153
0.062123442460272946 -0.09297664658859794 0.0920950657551996
0.06280753726354309 -0.09236303104983731 0.09232290613405802
0.06295549580357536 -0.09172949412652208 0.09163618250406488
0.06371019096232333 -0.09122554231502963 0.09186866667273613
0.06386912341913521 -0.09061392383266612 0.09112790153831814
0.06447580775681837 -0.09006982367120511 0.09130089926776501
0.06492969278456386 -0.0894540431348618 0.09142780386594669
0.06526300568181402 -0.08873372835924485 0.0915009788303299
0.06546834006710855 -0.08791968601194623 0.09156306113071867
0.06559914936530273 -0.08705683047767399 0.09160977691607745
0.06573865893798508 -0.08619753164014465 0.09170901164186747
0.06594383493871407 -0.08537118227405724 0.09185687373557411
0.06623734826492564 -0.08460940317285143 0.09202188914066173
0.06658146423164622 -0.08395553047366046 0.09217398462876629
0.0665239796827404 -0.08322456045315305 0.09152445404395454
0.06699683449900429 -0.08271680649223365 0.09170610887878139
0.06699435714654907 -0.08201535867304663 0.09108119318271929
0.06751771326260791 -0.08155380595676978 0.09138835419182115
0.06803604680853964 -0.08103120914778669 0.09166921894313615
0.06846509235895613 -0.08045975162882296 0.09184326174837742
0.06836937255495075 -0.07969017416964619 0.09120877155815002
0.06867707237364142 -0.07913704599526343 0.0913741210724931
0.06851285904421066 -0.07833714931956708 0.0907577467326327
0.06872567989076325 -0.07777181410056973 0.09101987078889429
0.06885937881205093 -0.07710108907240851 0.09128208828855286
0.06889796288471012 -0.07633351357180497 0.09150667293419633
0.06889719248369303 -0.0755653447256618 0.0917576988544414
0.06865903206503034 -0.07463254306866597 0.09109245772604646
0.06864811666689324 -0.07388799361058941 0.09139327775732196
0.06839790438416221 -0.07296348490832734 0.09075837304979752
0.06843634402106842 -0.07224471972210583 0.09110372637905943
0.06846487491098611 -0.07153211409693269 0.09149593254552069
0.06849681869240244 -0.070959575772159 0.09198960179581347
0.05736706466949477 -0.10116498312938801 0.09360081586132533
0.057697509277752544 -0.10017808261460129 0.09318928612061114
0.05813660410491246 -0.09917962989737768 0.09291359608972413
0.058744843818991255 -0.09819211938521567 0.09283214238655264
0.059436271975390774 -0.09720506963356713 0.09279056517289243
0.060099564178187306 -0.09624071956808841 0.09275916581980341
0.06082146921720146 -0.09532678468418755 0.0927412263587779
0.061469030567640165 -0.09446190130859249 0.09275885638892122
0.062104234214450965 -0.09368555681966549 0.0928374036173827
0.06271872816558764 -0.09300640831317841 0.09300244258289732
0.0633645470634509 -0.09245271284255631 0.09322361182651318
0.06353651176088666 -0.0918421744527964 0.0925711702689542
0.06421278399103983 -0.09133975702055343 0.0927701669342395
0.06437297720448835 -0.09071896287233149 0.09208808676298394
0.06492750123924769 -0.0902254392652381 0.09227605127607034
0.06539968896002268 -0.08962930494219391 0.09240034836521942
0.06572460051385576 -0.088861087140411 0.09247157492704075
0.06591707150558701 -0.08803147244732487 0.09251206336188168
0.066061068565254 -0.0871770092353222 0.0925716019737134
0.06622021480799821 -0.08632148952265653 0.09267071752913647
0.06647073298630118 -0.08549486379029866 0.09281986706073876
0.06675208768817686 -0.08467452529929023 0.09294206111320666
0.06691431076979619 -0.08405530136149696 0.09278177720960562
0.06708350560084073 -0.08347420771844793 0.0925145639418367
0.06738969164996224 -0.08284663916099891 0.09238491384616762
0.06745996835900263 -0.08228085502550458 0.09194435742392867
0.06807513600449162 -0.08196295549356329 0.09247469652224925
0.0686333352678083 -0.08122032300857138 0.09261745368692467
0.06883884492564402 -0.08061639098998861 0.09244656902493345
0.0689008275229654 -0.07998724198245179 0.09215703344687633
0.0690054467242827 -0.07929472144672656 0.09198852791844214
0.06890258000291319 -0.07863558891688521 0.09156652193653225
0.06916095380425004 -0.07821785617098663 0.09203910595087865
0.06920549637425903 -0.07735102620924152 0.09222637084093457
0.06917063116305658 -0.07653716895057217 0.09243922740375513
0.06915081219517291 -0.07576637812620467 0.09268941141386065
0.068886551762512 -0.07481583031269592 0.09203462848362394
0.06891110913723875 -0.0740856178776948 0.09233862534171611
0.0686380786059379 -0.07314573233727698 0.0917159035439356
0.06868474852640961 -0.07240487569964477 0.09205243411409463
0.06873972914980041 -0.0716562304024237 0.09240202269415854
0.0688068557470527 -0.07097526311272347 0.09277401375589173
0.06864300711909854 -0.07055124852258203 0.09253241651194297
0.05726427493003731 -0.1018912285328481 0.09423688593968063
0.057542815921458254 -0.1011526631610944 0.09399199581010086
0.05804583404094563 -0.10016692712513148 0.0938701517754146
0.05866046050326862 -0.09916042201966355 0.09380289558256538
0.0593550389908567 -0.09817362354325979 0.0937627472514202
0.060139572723336546 -0.0972312070497189 0.0937059473745564
0.06089524600291031 -0.09627710140879141 0.0936860682382959
0.06159296984625618 -0.09530565815883324 0.09366111415364207
0.062190689487766855 -0.09441244993397466 0.09362808749592773
0.062743299416153 -0.09365639368725645 0.09366070842662429
0.06326989312568931 -0.09305673166505085 0.09378345596879151
0.06384834711332173 -0.09261077991736252 0.09396701087720442
0.06414870279112862 -0.09198067667631679 0.09357446775924418
0.06459236978668781 -0.0914134649562765 0.09342081560647798
0.06477606906448585 -0.09090777815906625 0.09295212194976467
0.0654016632198418 -0.09057453470678276 0.09335005793284566
0.06591446784268021 -0.08978981162834043 0.09340915887140222
0.06619320737849789 -0.0889720250951197 0.0934317718395765
0.06637537380009803 -0.08814446033260702 0.09345468274116858
0.06652502819659047 -0.0872906314579 0.09353114434767806
0.06675522636630124 -0.08645694357254771 0.09363569360181402
0.0670530572801955 -0.08560250260896785 0.09379626963103946
0.06713503318597691 -0.08485741405916057 0.09361733892521779
0.06712277447544181 -0.08432503521379371 0.09327748115324495
0.06740324370124755 -0.08457614014904864 0.0938097493228319
0.06714403212802213 -0.08393658288450091 0.09301405287680133
0.06751477895510016 -0.08394385638727497 0.09349803934257406
0.06763661437454856 -0.08319988876874648 0.0930554528411745
0.06775882326356954 -0.08262416626221682 0.0926723718661364
0.06823700579525784 -0.0828966456354998 0.09346335218089254
0.06886322013314991 -0.0821606349263694 0.09355883572908068
0.06909022020704671 -0.08145553328748587 0.09331127507937569
0.06906224459494108 -0.08091477549772935 0.0929435418220968
0.0693593757783511 -0.08118338337120623 0.09347007452549162
0.06905672497504299 -0.08051214731561326 0.0926693613901481
0.06935829453631369 -0.08051232371928324 0.09311319848767173
0.0692848108665397 -0.07967976287926952 0.0926165545283663
0.06918983252555325 -0.07902001439063541 0.09223525331345503
0.06953669794344035 -0.07926878982059038 0.09295928224867128
0.06954980526584639 -0.07839318070055099 0.09301595919362492
0.06951275434822203 -0.07754287617486604 0.09316103824050255
0.06943864073727002 -0.07672674564048204 0.09336137716280028
0.0694193455947044 -0.07595837037446077 0.09360006316565952
0.06915779545233931 -0.0750172768010796 0.09296225444335965
0.06920822470115383 -0.07429730853121926 0.09325352081588999
0.06894157538582552 -0.07335876278215907 0.0926580862453448
0.06904029469130758 -0.07262920054356625 0.09298639952466792
0.06915105482331832 -0.0718743970684397 0.09330492666652364
0.06925996206977107 -0.0711420612977311 0.09356803118371332
0.06899234377832766 -0.07047431286240866 0.09318018036847868
0.06931302353556813 -0.0701012369304805 0.09372974951434013
0.0572717037815748 -0.1027322194138957 0.09503900886602745
0.057479307600405205 -0.10201660668619913 0.09484582140900077
0.058002031347233377 -0.10108642926843592 0.09475482267240581
0.05865274879249296 -0.10006937968268835 0.09471889800596904
0.05934888234114867 -0.0991154200863754 0.0946497107739115
0.06015337567072935 -0.09819296971686468 0.09459338196353798
0.060975987415203055 -0.09729578485568259 0.09458202057214607
0.06184118820717709 -0.09630029176910154 0.09465980088529975
0.06240392761239276 -0.09517435160437877 0.09444445163482837
0.0629950966103277 -0.09426628830029897 0.09445045518167551
0.06329085333615221 -0.09356057493974869 0.09427904992502376
0.06382090685715117 -0.093152591053876 0.09451156003674806
0.06432626434726522 -0.09268640333754836 0.09454884606404168
0.06422435108474747 -0.0923665598702721 0.0941152888269305
0.0645815926857746 -0.09220144751531735 0.09431098581969496
0.06479847013094317 -0.09170269268527989 0.09401119769115494
0.06501021386951454 -0.09121067494798422 0.09363807763508142
0.06545365315068721 -0.09144478461441251 0.09436047033488315
0.06605709267579382 -0.09069818865331315 0.0943462010350112
0.06643681473352708 -0.0899012673754763 0.09435313379420888
0.06668760095329623 -0.08908258501107046 0.09435278478534456
0.06686679635214639 -0.08825275742460392 0.09437347200045663
0.06706219489654204 -0.08742809290248049 0.09445293748095265
0.06730569800214009 -0.08663160481866809 0.09457755270676409
0.06761504890411751 -0.08598844291371542 0.09474790270128346
0.0675054197654158 -0.0851904771025234 0.09424302621912203
0.06787733181971937 -0.08463769344262402 0.09438058565649761
0.06801960962924793 -0.08401468616980057 0.09413954846141781
0.06795504487762595 -0.08353262829120447 0.0937013340172055
0.06844539309913512 -0.08368796019119752 0.09428631487599219
0.06896614358662755 -0.0831777940263874 0.09441319175859171
0.06952329778772169 -0.08265570650364554 0.09457903214155858
0.06946399389117122 -0.08181495631371258 0.0939657872354322
0.06977455842199444 -0.08124225034500196 0.09399134148226498
0.06976053727688125 -0.08056030008283045 0.09367693636592159
0.06959066095283124 -0.08002440323101717 0.09323704679830032
0.06990140367452755 -0.08012933600462657 0.09376927308894113
0.06995331260781787 -0.07944309843757145 0.09383801725167377
0.06991802575957984 -0.07859556424821823 0.09392471731944281
0.06983734298954822 -0.07774492525135336 0.09406616666043205
0.06974811985291074 -0.07691683595990775 0.09424821366467377
0.06972241387920325 -0.07614379632242971 0.09448277145676416
0.06944215767631401 -0.0752125238244492 0.09387982648377687
0.06952286514402622 -0.07448591227738745 0.09411728240248053
0.06929270567743151 -0.07358243528771594 0.09355825439469154
0.06948396091058706 -0.07289145091525234 0.09390775787247235
0.06965356216271626 -0.07208312281354058 0.09423027358571766
0.06969026137776914 -0.07119113715352421 0.09432150570669842
0.06933495857600465 -0.07054478148870853 0.09374546313514331
0.06958625379015615 -0.07032901585644254 0.09420894513940035
0.06959820916166178 -0.0698747545483531 0.09421776210937477
0.05735746019188283 -0.10355905521543883 0.09577180109587566
0.05754083222227298 -0.10287074090446117 0.09562146987987202
0.058011817251016326 -0.10194854321800188 0.09556762563461364
0.05865285409110116 -0.10096001598264175 0.09552095586428747
0.05934209182054849 -0.09999295133459013 0.09546134658507839
0.06014412705349506 -0.09908831334673232 0.09538177569270853
0.06093537219477597 -0.09823453923103954 0.09535834910333843
0.06181197374051371 -0.09745946520505078 0.09546264194305203
0.06253693521864219 -0.09673124980338951 0.09560078049692786
0.06274704515829649 -0.09582781059867863 0.09519366212368718
0.0630995838182967 -0.09621301124736686 0.09571813467636311
0.06315701781943044 -0.09498096629523423 0.0950848011893391
0.06344797053605492 -0.09558181148219846 0.09563081035728835
0.06351864147509483 -0.09437352937031938 0.09509525813957619
0.06395645596129991 -0.09478120534875886 0.09562368185951353
0.06389238313371287 -0.09414155250468767 0.09531836099072415
0.06366048508413504 -0.09378630883437203 0.09490832054998868
0.06420837913547549 -0.09344353251458909 0.09513836731051492
0.06423500621721709 -0.09305396264559725 0.09484199157375314
0.06462522861290991 -0.09298562788005343 0.09509188897363856
0.06489608464960876 -0.09249265191990674 0.09489388096601617
0.06506227402556945 -0.09202093424805644 0.09458361215192457
0.06553047822189251 -0.09228287651717358 0.09525205410021688
0.06617776289461429 -0.09156130697399316 0.09524536946533853
0.06663687042575894 -0.09079466715661452 0.09524969910772398
0.06696196047773656 -0.08999125851461079 0.0952464718671561
0.06718647509317695 -0.08917375950602614 0.09524010676362865
0.0674156128807509 -0.08836515004703926 0.09526256883581685
0.06762812022782683 -0.08756642430641862 0.09531615596194407
0.06791620963186124 -0.08682366021530308 0.0954100899466622
0.0680015788622078 -0.08618505325843613 0.09530384414839124
0.06809354800141669 -0.08555486195672904 0.09509680083403112
0.06838341914967716 -0.08495035566881926 0.09503509495400711
0.06842905593091869 -0.08437386812472011 0.09473160405866242
0.06908961399487246 -0.08418499924515847 0.09516440789787894
0.0696494062337614 -0.08356142287309042 0.0952802934468207
0.07006657949039564 -0.08303334636246938 0.0953538098264257
0.07005496756103934 -0.08220095735099897 0.0948344489713584
0.0701835460673072 -0.08153497427780954 0.09461920313251226
0.07009040550260803 -0.0809037300211185 0.09425266466862718
0.07035173211915513 -0.0805738061159984 0.09464280745213961
0.07035591314174969 -0.07969099730739455 0.09472063016282319
0.07028836108914756 -0.07880787608038754 0.09480931122896899
0.07019136610695662 -0.077940563263503 0.09493189586662641
0.07010523361492581 -0.07708982463222525 0.0950757496832844
0.07004276481119585 -0.0763488270744322 0.09522064840590519
0.06982292134336285 -0.07542174699391291 0.09486228603371984
0.06980440515156398 -0.07457338687281065 0.09474982148383183
0.06966972934453562 -0.07383586554264449 0.0943905004889831
0.07001234687028655 -0.07327600635817616 0.09497247235768778
0.0700354497377242 -0.07235372516074534 0.09490401978035286
0.06991031198431921 -0.07186306960489344 0.09463756955372227
0.07014361548418042 -0.07173122810896529 0.09510815169426465
0.06993049627300257 -0.07075036642853022 0.09483240515562798
0.06984771037894076 -0.07004631492523004 0.09467197052515201
0.07013985329775874 -0.07035693314896435 0.09519321527101905
0.069824954384625 -0.06972918821734825 0.09461300637483261
0.07017534656852711 -0.06989253945275974 0.09522394321240477
0.057633564138505324 -0.10470782508530796 0.09687398037333064
0.05746967011914494 -0.10428044418242821 0.09640346612779871
0.05764195601464821 -0.10364579549157155 0.09631950596850822
0.05806992749660687 -0.1027451028203795 0.09630301614677138
0.058706957739118944 -0.10175643136342018 0.09626851634680762
0.059368199049072756 -0.10079217361727244 0.09619468832122513
0.06015777786955064 -0.09990021439481694 0.09607457304103255
0.060949472165663196 -0.09905358749891015 0.09598214132919775
0.061598600902154764 -0.09834540174129587 0.09596884051017364
0.06226855827220736 -0.09791934622947857 0.09615331037973322
0.062359374276771865 -0.09735558806768355 0.09584756593499213
0.06276026100170445 -0.09731194187460204 0.09613248066658246
0.063161721555408 -0.09674115655000165 0.09610023139954026
0.06364963156311958 -0.09617320147774654 0.09609837599888282
0.06371471474281247 -0.0967876280619506 0.09658478516865729
0.06413297192317084 -0.09551825940617474 0.09608383955769786
0.06430113306895192 -0.09612910665097209 0.09660056959577218
0.06444896024755675 -0.09505416306662098 0.09609211359488318
0.06487691732625132 -0.0953115837659813 0.09658165673421491
0.06401703060824165 -0.09382628634516177 0.09526786291976731
0.06440525043890082 -0.09402229273155134 0.0955848899435591
0.06478030226812376 -0.09459803645152204 0.09611361579018982
0.06486558847608453 -0.0934199118892057 0.09556267957676086
0.06512389931802018 -0.09286821757994378 0.0954060593515775
0.06561347346733941 -0.0932477164414777 0.09601205985900428
0.06631275269761956 -0.0924409912860516 0.09605548581914687
0.06683896024620145 -0.09165691808225392 0.0960685703988078
0.06725443384200036 -0.09088787611613969 0.09607464966091378
0.06752603574215442 -0.09006545328130736 0.09606907537483177
0.0677563709401881 -0.08926883312309199 0.09603633858217077
0.06805160567194105 -0.08848946663375108 0.09614466211736086
0.06818795774399977 -0.0876778131719941 0.09600132332342522
0.0685206982071363 -0.08722203063214028 0.09616461801050623
0.06831628108866959 -0.08651655602053523 0.09573326863980991
0.06873728062592688 -0.08672286049004653 0.09617174395223987
0.06822611806904728 -0.08608150692985266 0.09550018864971653
0.06863006447388818 -0.08611044259161729 0.09581945055563637
0.06874323306681862 -0.08542353084116193 0.09558568292083151
0.06881632663646414 -0.08482498407454121 0.09531664070511708
0.06941036737955074 -0.0852252572385445 0.0959940999809191
0.06992784638570289 -0.08451112510682467 0.09600129326706705
0.07036040613938174 -0.08384511085508536 0.0960264618382837
0.07053603580951152 -0.08322406123484606 0.09585552375775698
0.07029712475780821 -0.0827655963983165 0.09540469100613867
0.0705159554037134 -0.08260379321255669 0.09552682058888938
0.07047919877176662 -0.08196763450163777 0.09518402855154895
0.07039616569071261 -0.08134094850168293 0.09484395729117173
0.07076411593514446 -0.08168551214120062 0.09553263755181879
0.07078684036220852 -0.08079877486731324 0.09554909044720525
0.07073131736202179 -0.07990641698407258 0.09561046349111486
0.07065191837469464 -0.07901789033913961 0.09568844085671648
0.07056946654491783 -0.07811703089613722 0.09578508691375309
0.07048431966243852 -0.0771974213215483 0.09587835831370682
0.07028967965451968 -0.07639530441071456 0.0956903101364921
0.07005843834527246 -0.07596949616573166 0.09536869817919369
0.07026795675797534 -0.07580485964880015 0.09571025294570061
0.07007849698989545 -0.0749312280972251 0.09535546148938115
0.06996685762216477 -0.07419353040536303 0.09502924234723574
0.07030331190331662 -0.07439006568470818 0.09568919568251624
0.07055093789820044 -0.07374656581521716 0.09606253001540839
0.07035017349418883 -0.07270332825734259 0.09558100250113538
0.07053632456707874 -0.0720278579375187 0.09597121393308483
0.0703333992498636 -0.07107287979067747 0.09553166288346739
0.07049461926173847 -0.0704011674075806 0.09582396023918412
0.07067259581436686 -0.06981317671884082 0.09615021032336439
0.05780297708597163 -0.10432090373066502 0.09690674099975524
0.05801751246682183 -0.10476192417178254 0.09742253570118446
0.05817795909684401 -0.10496451903102365 0.09775512561370296
0.058189132628118645 -0.10348105247553682 0.09695512471136204
0.058354494286755154 -0.10413021441780712 0.09753262762003483
0.05876656250758864 -0.1025095787232089 0.09694929290154058
0.058911728284544794 -0.10319379269328781 0.09758411086322176
0.05942923653281457 -0.1015269750668038 0.09688698495726829
0.05953443297972841 -0.10221327858812498 0.09754014915988744
0.060165837637118316 -0.10061216288253849 0.09674898903285627
0.060263547084013214 -0.10128438483517282 0.0973987209915292
0.061003872225289746 -0.09974269411234588 0.09658737419736199
0.06106331640188871 -0.10037728462798166 0.09720654888572233
0.06165251745420019 -0.0989413984605626 0.0964478504970623
0.061826238561662215 -0.09948720364324719 0.09700489218842767
0.06196197845970691 -0.09844597390539032 0.09633562022234826
0.06233556391383015 -0.09859777271168452 0.096734302115948
0.06290799682302753 -0.09785317917395912 0.09661753815817244
0.06325552763001915 -0.09725647175719707 0.09649605663472884
0.06360411778938202 -0.09762803687816349 0.09709286580188818
0.06432315896957441 -0.09684533635594846 0.09717562357113639
0.06496733164187973 -0.09609313902209567 0.09718595245189661
0.06551106534442162 -0.09541803114497066 0.09721959566533658
0.06511710985413857 -0.093948917964425 0.09602063046958517
0.06572873205708099 -0.09443699862053025 0.09678364979653206
0.06653030445104147 -0.09337765110783405 0.09682640695717477
0.06707799094334224 -0.09250146806952622 0.09679277083429669
0.06753309153255474 -0.0917572767075848 0.09678623581549958
0.06797353419039365 -0.09099155201791934 0.09689115452900438
0.06811681985160481 -0.09007967730063825 0.0967219375867158
0.06831182173002039 -0.08939710561411011 0.09670614065353404
0.06867699356022534 -0.08897742895706696 0.09693412360288949
0.0685385957414863 -0.0882119797699772 0.09654837572170061
0.06895902656239103 -0.08850258182031168 0.0969951553185557
0.06853518050188247 -0.08774945418664157 0.09637636206334706
0.0689134462787432 -0.08786565670323543 0.0967467020226394
0.06906530396733314 -0.08721690619947178 0.09663423862433472
0.06919867488811704 -0.0865818311013403 0.09645411783564645
0.0696775133660692 -0.0872165087615071 0.09704648189348754
0.06917453219123486 -0.0859250206447189 0.09614663940785242
0.06987521606227858 -0.08631035531972253 0.09681375714564464
0.07030616355479288 -0.08548625169648458 0.09672545820319405
0.07070084532140868 -0.08478538345440903 0.09670498346384168
0.0709103977192242 -0.08418367736056039 0.09660989312003135
0.07068961155020934 -0.08370721279932045 0.09622478877760045
0.07091645844048254 -0.08360592346157772 0.096360068532755
0.07084979487210687 -0.08301131495068557 0.09608411981129218
0.07077507560052146 -0.08240832905883418 0.095758328427877
0.0711648862480758 -0.08276130348343258 0.09638196840357958
0.07121430269331572 -0.08190401638589902 0.09638061393871446
0.07119459427062173 -0.08102203995138865 0.09641766405559114
0.07113311411583188 -0.08014812786014042 0.09647243842547835
0.07108042488442023 -0.07924832650795023 0.09654877725827203
0.07100452231295391 -0.07829124887523473 0.09663240394879309
0.0708181356919915 -0.07746418342855518 0.09649129516039794
0.07069998815715592 -0.07674473657883808 0.09632638624090949
0.07067502951123737 -0.07601927911491785 0.09630470590683943
0.07048437080951345 -0.07529316701111038 0.0960549591513809
0.07086220189997267 -0.07495533262219124 0.09662864320910904
0.07101954385911965 -0.07411248158721985 0.09699858176115975
0.07076773877070527 -0.07305013248221576 0.09646391619949819
0.07094208594406437 -0.07232941387801972 0.09682546734502183
0.07073797105964882 -0.071309091238439 0.09633309697619837
0.07095109656902272 -0.07048964428280596 0.09671072780690015
0.07094817936143481 -0.06971815803143176 0.09672270892911376
0.07089117053709927 -0.06947649654703224 0.09658785138266025
0.07110255523093822 -0.06952816959790127 0.09708435278754811
0.058493837366233106 -0.10458091799803919 0.09800212290398118
0.05904151709216163 -0.10383849767503717 0.09819075044441056
0.05927052625103241 -0.10433575314791159 0.09884526668999827
0.05967267813955496 -0.10285867015796224 0.09819009405165638
0.059764215047398234 -0.10354370359473646 0.09882536446365761
0.06038280849030055 -0.10192328424040789 0.09805566696975941
0.060479720455134986 -0.10257515502087083 0.09871720881132508
0.06119036890951454 -0.1009982643210156 0.09785620966343499
0.06126798440398319 -0.10163505738700404 0.0985279653543691
0.06196503624511543 -0.10006554514656302 0.09764007030422059
0.062049572027371366 -0.10069295260268737 0.09832016375288752
0.06261755743334813 -0.09917161214274887 0.09739012098235791
0.06278521351516682 -0.09974932529634957 0.09809728784544189
0.063023966613962 -0.0983920207366115 0.09712637775830489
0.06352025342103551 -0.0986684177710696 0.0978080154944377
0.0643382486103038 -0.09766115436446124 0.09781713542882775
0.06501263347947646 -0.09682230625366728 0.09780118880422675
0.06564715924734035 -0.09604212662770661 0.09779188029574322
0.06620525459735117 -0.09524776373111946 0.09772880137914781
0.06694950982228587 -0.09432705516994411 0.09770943792104436
0.06739555294341024 -0.09328773197080222 0.0974819760131567
0.06778863788565115 -0.09251171814526891 0.09739354649539882
0.06816152901230378 -0.09188826306256137 0.09741085649230924
0.06863122931287176 -0.09149426450263998 0.09767097452246533
0.06856247482626358 -0.09069385979320693 0.09734299435215536
0.06901430116171121 -0.09106241685574165 0.09780530796579372
0.06862119258657881 -0.0899880991310218 0.09719587507578903
0.06907968327039021 -0.09045986083296031 0.09768346456436344
0.0686546299561907 -0.08951793173379946 0.09711061033914317
0.06905822987358953 -0.08968731464773357 0.09748482115458809
0.06926183113779173 -0.08903264169892403 0.09740562239565986
0.06942348965413789 -0.08839197452137483 0.09729344432201885
0.06990765574382411 -0.08902972208041622 0.09778088081248813
0.06941736734403883 -0.08775776427532621 0.09708934591872555
0.07007401255631249 -0.08814736110470617 0.09760499790021304
0.07047890469770081 -0.08733896412431975 0.09756136582895175
0.07088024802232366 -0.08649144603117864 0.09751699629030829
0.07101558244951593 -0.08564464379368553 0.09725415282501335
0.07129486439660429 -0.08520531809882535 0.09726572442491492
0.07106306094976238 -0.08469551939935174 0.09692586560991638
0.07133951916296553 -0.08464564315275233 0.09705873723222637
0.07128967167881774 -0.08405437347663103 0.09682157105994327
0.07117681669143959 -0.08345895253618307 0.09655816884878021
0.07162968276283975 -0.0838431951060135 0.09712318294097541
0.07166915947255463 -0.0829937347817642 0.09716261223771096
0.07166899610347029 -0.08212169631334415 0.097195068725746
0.07161687390038597 -0.08126009503845368 0.09723641708510924
0.07157355175784688 -0.08039678837285276 0.09731500674909922
0.07155143354214631 -0.07951727657214296 0.09742676902512407
0.07150895512359691 -0.07870322619536323 0.09742478470237105
0.0711224117364449 -0.07784109125938378 0.09693923899776193
0.07144713332467398 -0.07805894886195482 0.09737977198540643
0.0709208109002257 -0.0773222132150454 0.09669689341834185
0.07116012420030036 -0.07732074729463151 0.0970369381800491
0.07102067686363611 -0.07651034027704245 0.09684459149623907
0.07088240797051897 -0.07578864611868834 0.096635704449894
0.07134525746416377 -0.07618968491286592 0.09736993096944938
0.07142024133170952 -0.07522449368108655 0.09759401127841208
0.0714511930150794 -0.07437504541276721 0.09785142264433412
