# .PCD v.7 - Point Cloud Data file format
VERSION .7
FIELDS x y z
SIZE 4 4 4
TYPE f f f
COUNT 1 1 1
WIDTH 790
HEIGHT 1
VIEWPOINT 0 0 0 1 0 0 0
POINTS 790
DATA ascii
0.06992525450933443 -0.06957719116477634 0.09531366901997942
0.07013135321705594 -0.0689908160933099 0.0956501440569033
0.05732639959294608 -0.10459171935713187 0.09652748138707234
0.05754246720423904 -0.10504255880898775 0.09705484648108934
0.05770237075847994 -0.10525075427461535 0.09739326399050617
0.05767743826751082 -0.103743022958787 0.09656907552968237
0.05784987312790197 -0.10440415055867935 0.09716087239730284
0.05820709678738111 -0.10275831813922977 0.09655744308286923
0.05835971088360395 -0.10345614197724791 0.09720614763196042
0.05881838171771035 -0.10175894986635087 0.0964891836823595
0.05893188906180123 -0.10246002181442804 0.09715802069731672
0.059499262814778346 -0.10082118635663588 0.09634783968446334
0.059604379606493056 -0.10150871962296631 0.0970151309033056
0.06027568605476334 -0.09992483965151581 0.09617970128262986
0.06034358076647132 -0.10057639031624319 0.09681990011605288
0.060878494876691266 -0.09910298953623221 0.09603224482060387
0.06104974079013405 -0.09965916266609809 0.09660921071330288
0.06116599718507456 -0.09859434796207167 0.0959151742603988
0.06152072212512223 -0.09874491429788297 0.09632650903596571
0.0620525640721639 -0.09797449645078815 0.09620340616535271
0.0623755669131031 -0.09735936643831494 0.09607556055841325
0.06270717843060439 -0.09773670124360552 0.09669249690489723
0.06337416482184847 -0.09692056613074673 0.0967761978762482
0.06396817506187111 -0.09613126629188244 0.09678291169998274
0.06447053002787921 -0.09542251044033088 0.09681143649071262
0.06408856761826999 -0.09390742962228339 0.09556087476360245
0.06466684141965964 -0.09439804459256136 0.09635404983296417
0.06541575045141644 -0.09327801755354814 0.09639047689896246
0.0659295666982353 -0.09235068792764 0.09634803976549196
0.06635707050202745 -0.09155374889069856 0.09633450631548741
0.0667733855714579 -0.09073730250035773 0.09643281911683033
0.06691307084209319 -0.08977752940768303 0.09624875815436755
0.06710055552534389 -0.08905875089389792 0.09622453825625835
0.06744885174081101 -0.0886096875034521 0.09645724709488399
0.06732644534676116 -0.08781864932329549 0.09605630069900939
0.06771979472732507 -0.08810407787959826 0.0965220404508972
0.06732843206415103 -0.08733825338546371 0.09587753757434475
0.06768590353718586 -0.08744590701649864 0.09626211746127043
0.067841830305299 -0.08677143903071804 0.09614613461368472
0.06798213558484595 -0.08610819696446619 0.0959616128944684
0.06842595188899026 -0.08674607780201511 0.09658370297945498
0.06797617183454735 -0.08543157867151473 0.095643265948163
0.06863605196290393 -0.0858006304122508 0.09634437309696309
0.06906923157287509 -0.0849269904903989 0.09626792520440555
0.0694676961361406 -0.08418029704143656 0.0962591213726263
0.06968949694262777 -0.08354107898724271 0.09616996293470385
0.06949580161117672 -0.08306351899845135 0.0957661917043014
0.06971743209422063 -0.08293791750788651 0.09591655649607343
0.06967904983933247 -0.08232536325993542 0.09562916772548982
0.06963073308652037 -0.08171013061162376 0.09529192175465462
0.06999167564238169 -0.0820412846469668 0.0959454017066178
0.0700750840036484 -0.08114574025028515 0.09594127260785265
0.0700923092685464 -0.0802318823534492 0.09597280965912539
0.07007070989994973 -0.0793263746865194 0.0960233856547067
0.07005636296808877 -0.07840210776063532 0.09609702466229478
0.07002455519572783 -0.07742384148636577 0.0961775936926227
0.06988051699101905 -0.07659173453228832 0.09602532656319769
0.06979849622067588 -0.0758711296373289 0.09585173457737776
0.06980950250905611 -0.075141788019241 0.09582641847995184
0.06966393041728017 -0.07442392536919337 0.09556351831875566
0.07005072822033528 -0.07406767998647304 0.09615402171494221
0.0702522089933144 -0.07321590595556358 0.09652953448956915
0.07005832581102568 -0.07217643485348998 0.09597501281868646
0.07026566414033687 -0.07145448018111379 0.09634503614881218
0.07011655760971905 -0.07046011624004479 0.09583760090772149
0.07036769722624887 -0.06964390585020463 0.09622807310230924
0.07040893997667481 -0.06888458864161788 0.0962399122614677
0.07036663146936262 -0.06864961923035064 0.09609989440511353
0.0705757494379157 -0.06868918539388848 0.09660943871092971
0.057996490207185135 -0.10486452966883165 0.0976399592281335
0.05850112524252224 -0.10411306025258314 0.09782665495528045
0.05873604171672914 -0.10462023143218299 0.09849582439141899
0.059079414572685826 -0.1031198485769865 0.09782042345413958
0.05918609168219915 -0.10381647545681343 0.0984717751040943
0.059731733676442494 -0.10216278105823659 0.09768689681098323
0.05984090245484146 -0.1028287413262154 0.09836231461769807
0.06047669791784246 -0.1012131718856547 0.09748730302536464
0.060565036143808496 -0.10186465248896101 0.09817508700696255
0.061192213375023514 -0.10025507438385718 0.09726682230502129
0.06128599559638518 -0.10089853577422679 0.09796598787202256
0.061793531937330504 -0.09932982186967819 0.09700848243350796
0.06196356993497849 -0.0999260498482019 0.09773965680023011
0.06216770040927998 -0.09852544038798633 0.09673152086680822
0.0626385907051446 -0.09880661308969496 0.09743927651666365
0.06339602671953555 -0.09776439414104739 0.09744350058860535
0.06401806799517556 -0.09688825501400726 0.09742474626932364
0.06460272805162089 -0.09606992396780357 0.09740960853334676
0.0651179031324212 -0.09523313356083642 0.09734109176653352
0.06580866108223976 -0.09425457728295508 0.09731722264545016
0.06622474622657319 -0.09316066238354982 0.09707041093385631
0.06659286664389409 -0.09233604658756397 0.0969701228617678
0.06694301204245764 -0.09166905228698266 0.0969801459653277
0.0673869072858615 -0.09124115552084876 0.09724585404121522
0.0673264248871259 -0.09040165542423038 0.0968961742283581
0.06774927223206334 -0.09077043298387016 0.09738330462003239
0.06738678616767914 -0.08966103475695089 0.09673392050296763
0.06781528684297318 -0.09013743409288455 0.09724772518391497
0.06742234388643642 -0.08917153429942058 0.09663932992930017
0.06780321123513376 -0.08933422932401343 0.09703256675123889
0.06800204734571844 -0.08864391763495771 0.09695223463491578
0.06816289420210145 -0.08797206379798259 0.09683625449983167
0.06861487613165815 -0.08861411126523466 0.09735820011962103
0.06816751173158414 -0.08731739849614026 0.09662291281716265
0.06878647080797101 -0.08769129033128668 0.0971758364878206
0.06918775985733282 -0.08683273838385663 0.09713941357710035
0.06959028641277659 -0.08593527992375295 0.0971028447606132
0.06974063167494833 -0.08504883091514014 0.09683726703972799
0.07001993258985943 -0.0845741461877658 0.09686181581455419
0.06981606735227759 -0.08406227354123809 0.09650140729804405
0.07008129500324153 -0.08398529329224118 0.09665550919786688
0.07005656257834542 -0.0833733041359001 0.0964089028465461
0.06997394766232677 -0.08276302529616777 0.09613046210334919
0.07039234777984033 -0.08312676926852818 0.09673138301844805
0.07046885963743128 -0.08223790683004385 0.09676246039502762
0.07050419109391674 -0.0813321682141731 0.0967872999509244
0.0704915715918299 -0.0804370398835398 0.09682268071712315
0.0704869603448504 -0.07954555512102926 0.09689627249331462
0.07050412627085587 -0.07864078527249815 0.0970049955262788
0.07049720437107546 -0.077811683433172 0.09699809827848026
0.0701586669132151 -0.07695762288897848 0.09649074137236387
0.07046600485673957 -0.07715938763669314 0.09694900922375985
0.06998662219733655 -0.07644187420831024 0.09623642765650037
0.07022107962952773 -0.07642739314589565 0.09658930356029745
0.07012441238140894 -0.07561675137679791 0.0963860153704982
0.0700253060520903 -0.07489938681514402 0.09616642447731649
0.07046173273250937 -0.07527807883824744 0.09692662539288671
0.07058645490603212 -0.07430406502601992 0.09715356772225353
0.07066476205049975 -0.07344966636499531 0.09741170494561448
0.07044553323496024 -0.07247272509090077 0.09688686956448506
0.07063504698393172 -0.07175894227280208 0.09718973685047577
0.07051237178862264 -0.07074741229703298 0.09670846861063505
0.07077214082135025 -0.0701427286776286 0.09719258397176213
0.07064323318602818 -0.06916712431404436 0.09687906296390268
0.07099643572325694 -0.06870320620371055 0.09743608732718527
0.07115527808238706 -0.06829934504863709 0.0975811338957968
0.059114787893512724 -0.10511896174346474 0.09930357514485454
0.05932403051423487 -0.10446496853745124 0.09915977323041236
0.05989682503188719 -0.1035112561066764 0.0990482599134196
0.06063064170780382 -0.10249655213715564 0.09888856899303175
0.06130999420004456 -0.10154690807151782 0.0986719843102673
0.06200390448517117 -0.10064004572339283 0.09846462438859856
0.06276260544874022 -0.09968239561440806 0.09831374717409866
0.06347644359538478 -0.0986420973723697 0.09820064307529904
0.06407940444601476 -0.09765613866005848 0.09811468978257026
0.06464332308728009 -0.09679770356850197 0.09804975667633067
0.06520924265926534 -0.0960146002227687 0.09802314016182133
0.06587668398833685 -0.09529521061942073 0.09807350222120338
0.06657665358718133 -0.09463597064740387 0.09813216360305495
0.06665281066135165 -0.09376964871006391 0.09774964754363237
0.06708488404669907 -0.09410740127916817 0.09821231312013576
0.06690843882641552 -0.09296700554277 0.09755515548593102
0.06729487567545758 -0.09349253875945657 0.09807738909900598
0.06717295216194305 -0.09226001110495344 0.0974490639835612
0.06753693397074607 -0.09275802051851226 0.09793417347800992
0.0673039301988513 -0.09178857330648935 0.09738272685814717
0.06768706106407801 -0.0919627930112875 0.09776381291474052
0.06799452139143518 -0.0913088694986229 0.09774115503330823
0.06825308318145819 -0.09067353783781983 0.09772074673586861
0.06865881072675527 -0.09130861870798751 0.09813828197143563
0.0683624614342648 -0.08990310568358044 0.09759708078679344
0.06893213828530352 -0.09052945453291196 0.09809431604806237
0.06834911923389214 -0.0892064881032648 0.09738969996692767
0.06905625843441901 -0.08953359902791619 0.09789964113958116
0.06935317097041527 -0.08860197752722211 0.0978151194579934
0.06962404348607164 -0.08777988715433606 0.09774426005601887
0.070007230162877 -0.08703552553830997 0.09781404073417545
0.07031830342499566 -0.08636546832677054 0.09782881615329474
0.07013186913939187 -0.08558357257061647 0.09736965057921736
0.07050381885544592 -0.08582771721151508 0.09780857176441707
0.07009966995824267 -0.08510073329823731 0.09713365266299737
0.07041697007416955 -0.08517635320095136 0.09746187497823326
0.07043512567008614 -0.08447323799340742 0.09716944582321041
0.070381234678475 -0.08385024932013382 0.09687526267029677
0.07079723587978443 -0.08422668901740375 0.09752187833237824
0.07089764187417102 -0.08331698781376606 0.09755552819056766
0.07092827253781284 -0.0824002296681202 0.09757139855554509
0.07090140592053451 -0.08149917222299084 0.09759746732992619
0.0708808918574665 -0.080632692351493 0.0976626303386746
0.07091634100008046 -0.07979211999603955 0.09777799347214507
0.07092440404357431 -0.07903223184519201 0.09776292614904569
0.07069180078717023 -0.07846017674984403 0.0973433860380186
0.0708509490664185 -0.07834620844553301 0.09760241111955617
0.07076800418633318 -0.0776846337963506 0.09744140197312075
0.07066452876917176 -0.07692776132566748 0.09726243819363382
0.0710671275785 -0.07760039390011872 0.0979213869229173
0.07047759402480097 -0.0761418387829706 0.09697823892320165
0.07096697554189768 -0.07651939489818008 0.09773897255711511
0.07101351417506302 -0.07544098056144699 0.09788282225966355
0.07103341870437467 -0.0744087593200378 0.09805399707024975
0.07092431509691842 -0.07358362562726506 0.09798837710261539
0.07085063556939727 -0.07279508816679119 0.09783097076084836
0.07092123949791104 -0.07195867173320833 0.09782871816793734
0.07086550165586218 -0.07116524427589226 0.09753656244848594
0.07122626446830008 -0.0708049324132681 0.09815964479868158
0.07106509222776328 -0.06958523403741947 0.09773249173907247
0.07145249531445212 -0.06906848613597233 0.098252987511179
0.07140451124810326 -0.06835445037138281 0.09802485228882901
0.0717613963177748 -0.06810613715305465 0.09860089612545168
0.05934998781380504 -0.10547375953035126 0.09979697349454053
0.05953362319529699 -0.10504902923552471 0.09978690876219125
0.059988911032781415 -0.1041850140235071 0.0997138316542898
0.06067671920764217 -0.10317766628478338 0.09957716978222378
0.06144254315472284 -0.1021063538648139 0.09945360914347258
0.06195994802397676 -0.10123980086661495 0.09907337044604876
0.06271576626821587 -0.10050636617497397 0.09904344595030071
0.0636015378242986 -0.09951150651940321 0.09907739279033488
0.06424173745326911 -0.09839731966306559 0.09882008373041151
0.06475415701169064 -0.09748869892040006 0.09867850091324837
0.06526149748378045 -0.0966998168001506 0.09858057396278025
0.0657463026721828 -0.09605457280942796 0.09855116017056116
0.06634355082415444 -0.09566224495259112 0.09868917525425881
0.0664248509359358 -0.09520282876717491 0.09838054893483326
0.06684736386883973 -0.09513267897341003 0.09863231524811512
0.06724147155288392 -0.09458325112346214 0.09857369542310375
0.06762897840652278 -0.09399264196420481 0.09853179150621813
0.06782493026371891 -0.0945504706497812 0.09897390333466968
0.0679634752802745 -0.09329465366321511 0.09842953358373939
0.06832765102447998 -0.09387439701753088 0.09891840208681978
0.06818987481093146 -0.09251467439750882 0.09827419213416863
0.06870891581774849 -0.09306907750037649 0.09878959984883463
0.06830079953025588 -0.0918563885014626 0.09810667971450679
0.06895556396656119 -0.09212509081930174 0.09857546592603746
0.06938799237932135 -0.09127859252557613 0.09857869256479675
0.06980167884414636 -0.09042158611127707 0.09857279433210313
0.0698976921454181 -0.08939189141586791 0.09838616313466715
0.0700598522471889 -0.08856391917450161 0.09826368034585013
0.07026961793545579 -0.08790633266257343 0.09822422696379113
0.07059484753183211 -0.08749538805735042 0.09837625477597615
0.07041724147405033 -0.08694875961989372 0.09809712342921122
0.07071627164157183 -0.08690775470345152 0.09831235458512282
0.0707820529319102 -0.0863229459106079 0.09820504734091873
0.07081859140537708 -0.08566209748909674 0.09805366567774562
0.07119174847689291 -0.0863084249477307 0.09858737373708208
0.07075596576828079 -0.08497990689133812 0.09772714686894642
0.07120392856761028 -0.0853481944158174 0.09836073463917983
0.07132685864307532 -0.08439691220381318 0.09833479289877828
0.07137292106498262 -0.08346039847560194 0.09836425966766603
0.0713328869094264 -0.08250860667689879 0.09836687800487412
0.07125738301733435 -0.08162752323957363 0.09836876262882677
0.07128457233644898 -0.08085969950220946 0.0984764605642409
0.07132415921002447 -0.080171020121037 0.09849582812166266
0.07110342681222347 -0.0796290452912703 0.09809960143818325
0.0712651044236725 -0.07950127342247086 0.09833837736767304
0.07116311243607558 -0.07884048361982118 0.09813796209896448
0.07105952756362809 -0.07821945557983229 0.0979286856604154
0.07144030460001878 -0.07857432707666714 0.09855470544307204
0.07149660148934664 -0.07761726891573299 0.09859082351133662
0.07149893740651293 -0.0765951866937798 0.09862897888191932
0.07151897633546578 -0.07555752819339766 0.09880899367089632
0.07138057207654636 -0.074632083654034 0.09870759483828434
0.07116138279950399 -0.07393339062570418 0.09841996971845363
0.07144790948254517 -0.07423573587578096 0.09888988249664389
0.07102668876636399 -0.07341537168444094 0.09822476008916947
0.0713125145397985 -0.07342312796101855 0.09865638131501744
0.07122205153541272 -0.07245968443780672 0.09838321080196466
0.07115356081100233 -0.07166900889194627 0.09815416067457355
0.07157636882139495 -0.07202156086809923 0.09886459279592903
0.0716960447221337 -0.0710960463558515 0.09906062676398004
0.07153614435355944 -0.07009742348326022 0.09860881401895917
0.07198978273077065 -0.06966203386668308 0.0992079058920176
0.07183619808968648 -0.06856989155216274 0.09880403818769898
0.07218047307480163 -0.06811653887590591 0.09927531295075075
0.05980062197349127 -0.10536863959510202 0.10023377946082157
0.060185261482428164 -0.10479692092335613 0.10030030480951034
0.06055494787983465 -0.1051996748515945 0.10084696582607952
0.06074773698482563 -0.10388029471115773 0.1001991919749403
0.06094803622248784 -0.10447542007297989 0.1007860386821075
0.06139240502432073 -0.10291834019856258 0.10007052661973817
0.061512955694209975 -0.10353010102251141 0.10064501086834447
0.0619804628621244 -0.10218010513861865 0.09999638241341462
0.06214739951064065 -0.10260410103196961 0.10046365329273677
0.06258260413482081 -0.1018779011396943 0.10023478384953115
0.062452283802280205 -0.10139087415883796 0.09968038014487017
0.06332337186977484 -0.10054196466591656 0.09969264819028582
0.06413633369861149 -0.09987131545284048 0.09993466276522271
0.06446536964771615 -0.09896058961283719 0.09953329311488421
0.06473474401628453 -0.09926485190859786 0.10005831376126051
0.06494398042784261 -0.09808017033586022 0.09932080480725705
0.06516267737256794 -0.09859642024736501 0.09990394578568419
0.06542036823240464 -0.09727702555272341 0.09914298555837164
0.06566554610745513 -0.09779896517902166 0.09971602721039356
0.06584519927767908 -0.0965543487347409 0.09899231144773259
0.06613165627252357 -0.09700149368862727 0.09949451202710745
0.06607471875152703 -0.09611283451022021 0.09887552925769832
0.06647862368086307 -0.0962094993654319 0.09921271567469
0.06700760895541687 -0.09555998353128983 0.09905750723399022
0.06736954676543339 -0.09503370848491698 0.09893517370710199
0.06780838517581352 -0.0952987143962504 0.09937031481220607
0.06854714242592562 -0.09455705937060858 0.09937841897526442
0.06921486734463965 -0.09375652873551577 0.0993755695875235
0.06951391651368198 -0.09280262338209398 0.0991459640580199
0.06978611009771184 -0.09197985518757452 0.09901173366298094
0.07010702191574443 -0.09130047907683377 0.09898040562955604
0.07057432513853805 -0.09084585559258267 0.09917524772926312
0.0704738846900957 -0.08999004972009801 0.0988970279554979
0.07090758458902101 -0.09033707885696438 0.09931502119916408
0.07051830830270495 -0.08919343210534465 0.09874305570069675
0.07095499367756027 -0.08971624605873768 0.09920427538699465
0.07060251344370579 -0.08848387165496918 0.09860841914829115
0.07099998902188091 -0.08897879723325026 0.099073039512135
0.070637976730219 -0.08802675035103405 0.09850973008198967
0.0709785523925889 -0.08817058309607181 0.09886520904886235
0.07105093897462077 -0.08744462301520002 0.09876159364016344
0.07106418281026813 -0.08685295669706501 0.09859830824630793
0.07148523534561413 -0.08724333174776153 0.09914466103068376
0.07165840300377296 -0.08635870249745112 0.09915730917144454
0.07174706053548777 -0.08543836680292213 0.09910071232473985
0.07181603806062867 -0.08452304723153245 0.09913289782152408
0.07184009455369905 -0.0835409464360595 0.09924077676138511
0.07165702156617146 -0.08247114229624967 0.0990306307265889
0.07157292422668628 -0.0817282590132033 0.0989837574811836
0.07166627756752829 -0.0812673954369185 0.09915397979269892
0.07146366661479642 -0.08074057271109834 0.09880989606185846
0.07164563470324031 -0.08063175101109088 0.09906077297641461
0.07158431860165923 -0.07996879225689398 0.09887291925589775
0.07146931196581789 -0.07932268551559896 0.09863712106936166
0.07187990866867418 -0.07966756717396077 0.09928633430966784
0.07196733355000201 -0.07868237014044548 0.09934803639925092
0.07197705024152358 -0.0776634402502085 0.09936058695022712
0.07193564279023712 -0.0767129591872131 0.09940453857777411
0.07196507162728803 -0.07602533040455732 0.09960073145819485
0.07178763667048475 -0.07507058194223942 0.09937679078649381
0.07171635583151463 -0.07416444344456719 0.09928225096814801
0.07172938966839078 -0.07353306140475938 0.0992312698047305
0.07157237989090949 -0.07291676838490758 0.09894946829733826
0.07203974371043634 -0.07317627182703809 0.09961459948829633
0.0721577699104597 -0.07208564017473161 0.09974619249295014
0.07210067476529067 -0.0711815916118706 0.09960248611750344
0.07191111994624316 -0.07053029501598315 0.09926105386855988
0.07230761375051503 -0.07065764260386038 0.09980072883546279
0.07247398720347986 -0.06997998505540083 0.10005256352508596
0.07241411014770921 -0.0689380029566644 0.09980328504085001
0.0725226873348887 -0.06811698561287964 0.09982136944143352
0.07247175028660291 -0.0678249652382308 0.09968524310689275
0.06106703936669083 -0.10543407057777723 0.1013832513023894
0.061288209510676074 -0.1049957593344868 0.10132745225367372
0.06173492673875197 -0.10535957848662506 0.10185481748182072
0.06174142788896288 -0.10409160953591198 0.10121596227969032
0.06208617337240999 -0.10466208629032603 0.10172121202137945
0.062394592854950394 -0.10309190779046874 0.10102094868169358
0.06266090612611824 -0.10367831884356477 0.10156189808280877
0.0631382740637911 -0.10195660241535182 0.10077383370456568
0.06341765965421804 -0.10259683224230681 0.10139752825433576
0.06317997757953456 -0.10125238908960933 0.10021679375757873
0.06386676604564563 -0.10103863218999355 0.10066568302572595
0.06438854070930389 -0.10140812656213474 0.10127402968432718
0.06375301204280971 -0.10063620720890909 0.10020668976618015
0.06433038155075256 -0.10034503459032883 0.10049585010602567
0.06456162470752168 -0.10063731199818024 0.10089945026159211
0.06476716497529011 -0.09971653473816026 0.100436408088629
0.06532622457264413 -0.099078825059969 0.10039282762829504
0.06538359004870198 -0.09958249478144947 0.10082768802029587
0.06595153950854289 -0.09831984440796106 0.10026464927387022
0.06612021258732695 -0.09887446434681714 0.10076689784161376
0.06649862121745838 -0.09748030457764728 0.10005226613246829
0.06690671603529016 -0.0980131628807955 0.10070153648501405
0.06693512010940833 -0.09664511344047659 0.09976027970896528
0.0674312194744721 -0.09704539852829958 0.10034180100721075
0.06721015298985239 -0.09597313017044577 0.09947379406374827
0.06791056601509919 -0.09610525235980119 0.09996024022083223
0.06866373865134852 -0.09524330024402312 0.09984067649829866
0.06927004937142758 -0.09456779250110921 0.09980743867636684
0.06987840567491917 -0.09409455379001869 0.10000063400227102
0.06999270479097529 -0.09329589430993565 0.09967139171665795
0.07035673832654564 -0.09358604774192097 0.10010518945805583
0.0701884460699862 -0.09252554179230167 0.09949376723338671
0.07053665609164726 -0.09298220008109782 0.09997595620790688
0.07039661015755178 -0.09183337120010014 0.09934132254459946
0.07073059442476536 -0.09227815825844397 0.09981018978717432
0.07051665484186675 -0.09138359403607949 0.09925682635191099
0.07086599407283345 -0.09152234126113486 0.09960786181299341
0.0711145159997843 -0.09087755751671554 0.09961902700460579
0.07130375364998551 -0.09025914671765181 0.09963251336421891
0.0715385280548692 -0.09087517469380939 0.10008038305159933
0.07140251252129778 -0.08953928530022592 0.0995659085773549
0.07172536193780367 -0.09016842584049843 0.10008396791972254
0.07142541815207702 -0.08872647466830492 0.09944169615891006
0.07183224192184007 -0.08934038577464859 0.10001658350969024
0.07137779395938072 -0.08798374972525494 0.09922281893296289
0.07186307943702372 -0.08831784872162987 0.09982337985893584
0.0720442796949228 -0.08733914661992408 0.09984762393314073
0.07214277991953875 -0.0863991544726216 0.09982529533121799
0.07220130193053502 -0.08550991026066322 0.09980282835922617
0.07229735595990165 -0.08470033351956113 0.0999413938124318
0.07236231705746199 -0.0839719950072528 0.10005432332250096
0.07206534676665022 -0.0830823035558554 0.09966311225383893
0.0724034111095639 -0.08340513768361736 0.10014466643036354
0.07189562263075921 -0.08229793600176169 0.09946536371500478
0.07226797249548382 -0.0827483843111859 0.0999828071883573
0.07177897917970862 -0.08180804071777473 0.09934503186540102
0.07206363756713983 -0.08191763113937825 0.09972981180756062
0.07198474584643548 -0.08113446269144985 0.0995954774097786
0.07189261755965302 -0.08045390323580513 0.09938003277613147
0.07234872986104808 -0.0808093638704881 0.10004906118601453
0.07245600512312453 -0.07977788117564615 0.1001043672961771
0.07253398239836156 -0.07871466015258874 0.10016877485500283
0.07235363401539067 -0.07758849195964193 0.10000691144095483
0.0722709066521439 -0.07680652613134531 0.10000523513779813
0.07231233738846021 -0.0762647630538985 0.10016808822096285
0.07205493332450988 -0.07572368351251661 0.09980694725905137
0.07221255476125349 -0.07551794796394729 0.10003822311463119
0.07209646334209346 -0.07473387524631217 0.09985693260284534
0.07201077679274066 -0.07400420693579877 0.09967150604554294
0.07250117347710044 -0.07439659184308237 0.10033033835330837
0.07269899581576378 -0.0732923083072524 0.10051726991324561
0.07263098416772056 -0.0723090529307853 0.1003903813623776
0.07247720544782446 -0.07153541723869698 0.10013078153985644
0.07284664894184609 -0.0710321101040891 0.10060409847287512
0.0728236931440338 -0.07010527739878004 0.10058601969012282
0.07260824096345775 -0.0695822392663986 0.10030701839926873
0.07295671701079212 -0.06943239193707723 0.10069448782930655
0.07284382685772865 -0.06850154675208368 0.10039219594494508
0.07273350273509217 -0.06797337151259077 0.10015558486080661
0.07315599341053976 -0.0682844004294782 0.10085380311245186
0.062248847627920316 -0.10567682624839017 0.1024686657889785
0.06253097391229316 -0.10589262764889255 0.10284992426479006
0.06243235130897263 -0.10514884558109923 0.1022557263004106
0.0627185241424231 -0.10555591363033304 0.1027735402517732
0.06295124651397511 -0.10425010498722766 0.10207629391751778
0.0631859562547313 -0.10478877155878244 0.10261331126343694
0.06360134083774549 -0.10321981127621978 0.10193386718661253
0.06381114810643217 -0.10381263753848555 0.10245794622772612
0.0643919532869273 -0.10223323771835491 0.10179140092520433
0.0645390803909582 -0.10281890438513566 0.10230374048896337
0.06496869080402422 -0.1015839205931448 0.10170587565737743
0.0654907943111523 -0.10173935669423095 0.10214586730174263
0.06486858176296627 -0.10010294915876018 0.10079252642096688
0.06530327950843531 -0.10030560253071091 0.10119713522733238
0.06549005721329224 -0.10094948621967323 0.10165849061838148
0.0661402302825625 -0.09948570602763282 0.10119326153777208
0.0668503585797692 -0.09878558974894189 0.10116328520476475
0.0676055734080344 -0.09825939045886063 0.10130232923895928
0.0678786027912746 -0.09743994687036622 0.10092328308315081
0.06825125052283632 -0.09767705699470434 0.10137142775600672
0.06831451781252246 -0.0966224691756693 0.10062939991831887
0.06861455479097224 -0.09705099786998869 0.10118350180620406
0.06886358944723503 -0.09582751559789265 0.10038130479228242
0.06910669950561751 -0.09630871542020195 0.10095285847807302
0.06937139031836088 -0.09509443852798541 0.10022325807806438
0.06957546215449002 -0.0955431676838095 0.10073565893270997
0.0696675720404692 -0.094627718246577 0.10012014665389636
0.06997545563647702 -0.09475077577644096 0.10050300421707879
0.07041257349206179 -0.09408252392645024 0.1004742434541022
0.07075517151131336 -0.09346098591318329 0.10044594334962235
0.07084495335411937 -0.0940376190578894 0.10093152638982145
0.07100474460263437 -0.09277344823283779 0.1003441927290571
0.07117728123798499 -0.09333056929358977 0.10089099358541355
0.07120691937106048 -0.0920414906466445 0.10018605726810614
0.0714548278118542 -0.09257716938604969 0.10078311116989486
0.07130513263798213 -0.09139382146597601 0.10000775676643739
0.07166051478113913 -0.0916774946842524 0.10061128504795729
0.07194772662495438 -0.09086330570874888 0.10064614514877063
0.07213920951819135 -0.0900664070336316 0.10062211432444122
0.07227747509756455 -0.08920334098217943 0.10057159181715913
0.07240531279605472 -0.08828986659133509 0.10054179651199394
0.07256272944346792 -0.08734430002724955 0.10058862770697999
0.07253782546215155 -0.08633245834591637 0.10041196774748498
0.07257695213693707 -0.08558828225735819 0.1003804932164333
0.07271655904331109 -0.08512869225921092 0.10056038632901135
0.07252295150270921 -0.08458551476963316 0.10028861876022152
0.07270326078951107 -0.08452243211966562 0.10054749917255629
0.07268142254455824 -0.08392353557865405 0.100510708455414
0.07265398109049724 -0.08326017949303054 0.10048799089860275
0.07300291709453449 -0.08390288615124425 0.10094953573569407
0.07254680853021583 -0.08245648617911733 0.10035865308900623
0.0730000253458766 -0.08308244355850342 0.10093890060179041
0.07236810233251426 -0.08167050696731847 0.10012021093254944
0.07289198079846992 -0.08200078489857958 0.10079796263154353
0.07301320441352925 -0.08088871722774052 0.1009263262480403
0.0729661871472875 -0.07981070148911362 0.10077636955130531
0.07312666145047884 -0.07916245657509634 0.10096468743139665
0.07281499939036944 -0.07820291160172246 0.10060621647649924
0.07318586155548569 -0.07852688489990557 0.10107771510232721
0.07260783669167711 -0.07736097473183014 0.10044490085565255
0.07301125575413975 -0.07779358065749635 0.10093127628486137
0.07247218189449177 -0.07683796125245322 0.10034490079117293
0.07273927419361048 -0.07690091713994827 0.10070401101675783
0.0726154691212658 -0.07603207568772495 0.10057246202466723
0.07246633668598164 -0.07526589839018788 0.10037260911440514
0.07298307552267035 -0.07563700292042053 0.10101473554975098
0.07318622827888904 -0.07460363087439749 0.10122154807197949
0.07332465540726942 -0.0736868833435261 0.1013424389154542
0.07302135218687449 -0.07271946150852138 0.10090904296976883
0.07338914769647985 -0.0729544955041477 0.101400930762902
0.07284184937298308 -0.07193868623100177 0.1006361569545184
0.07324957069371453 -0.07210234054128829 0.10116783652239011
0.07331388762803837 -0.07137835355868753 0.10123533278142097
0.07335080618931908 -0.07057485501440665 0.1012547654198369
0.07347921607314635 -0.0696813426013367 0.1013713110229722
0.07331914282080648 -0.06887559068683216 0.10113039420218382
0.073824085706456 -0.06850858287039455 0.10185739883807081
0.07415183126419563 -0.06787172538429442 0.10219323484827719
0.07437148413318048 -0.06762806811007543 0.10245437798075857
0.06295488067370628 -0.10574887875800304 0.10314930779701514
0.06336486664270788 -0.10524656249225824 0.10314399851498762
0.06355157485038399 -0.1054568665160457 0.10357329156433713
0.06394269278337052 -0.10441131085729749 0.10300897403698109
0.06401428846227288 -0.10490233488061902 0.10359789089980943
0.06464067241506408 -0.10346536114884716 0.10283409984351603
0.06467172032319134 -0.10407660663858927 0.10343291447827672
0.06540685075028406 -0.10251917473297631 0.10266020043057979
0.06545040842627645 -0.10312172827933218 0.1032200776403379
0.06594750805906979 -0.10190506015133097 0.1025686864941129
0.06623283963782778 -0.10209827700896737 0.10301911025947662
0.06621548626989919 -0.10007520872828428 0.1016065882117867
0.06635604260852443 -0.10068280027119947 0.10206657037472242
0.06645926743031068 -0.10132375074673186 0.1025452587424555
0.06689108504375178 -0.09931020409651632 0.10152253151587359
0.06705453095892976 -0.09979442612675779 0.10196626481701981
0.06726865027527619 -0.0988109325566913 0.10144131576558231
0.06760723563148507 -0.09891287509950744 0.10178444081692113
0.06822865072301783 -0.09819034419788239 0.10174824393980417
0.06876498517014808 -0.0975142170443095 0.1016872209343842
0.06875975101549138 -0.09810366514260156 0.10217311255229401
0.06927339886480212 -0.09679644581379086 0.10151640592763699
0.06933590894538297 -0.09734289493723873 0.1020748115463112
0.06976012274592468 -0.09602268570148312 0.10131486213129948
0.06986768582211487 -0.09655004258696814 0.10190515024714401
0.07019112001439186 -0.09523970769530342 0.10108826600717022
0.0703516143451603 -0.09573793736666393 0.10170280247825043
0.07046711212075002 -0.09457825562461732 0.10089227600576572
0.07077994703339578 -0.09480277199513343 0.10146299360892123
0.07125307613525576 -0.09396685137005902 0.10144725014641524
0.07158529412414268 -0.09319539320135921 0.10139943206571472
0.07185693793601786 -0.09240155749481416 0.10133064665284097
0.07212012221966481 -0.09159791130846553 0.10129311845164021
0.07235034846706687 -0.09078181351414018 0.10125671941473186
0.07253749535454053 -0.0899850244753299 0.10119415393071565
0.07274056874453247 -0.0891572427464012 0.10124458756554874
0.07281576493543011 -0.08829215228163997 0.10112831753868415
0.07301007844906306 -0.08776204445699848 0.10133362230728948
0.07287031945726563 -0.08690892938646895 0.10100089555847822
0.07315307704989145 -0.0872159813092809 0.1014587373191614
0.07282390592317149 -0.0861495438377669 0.1008310846040667
0.07311254549812453 -0.08657038453255612 0.10131043280320107
0.07279750097369433 -0.08566511843772001 0.10071361909597513
0.07302253578299273 -0.08577080045181815 0.10107307729205721
0.07299776169685153 -0.08503687697872907 0.10097879352732379
0.07293615504398972 -0.08444367205323887 0.10087388630066987
0.07329026029764579 -0.08476733914027759 0.10140869032596832
0.07339228476396206 -0.08387889958864654 0.10150187273595472
0.07340995878776295 -0.08296980684224921 0.10150396283037524
0.07351483450321801 -0.08207903029034365 0.10161599773964952
0.07364934091450435 -0.08125631167283837 0.1017204774813358
0.07334594498749258 -0.08038940568720553 0.10131469272477928
0.07370401632751288 -0.0805941888713964 0.10175730154153943
0.07325078105919568 -0.07982475859215679 0.10114593912590696
0.07353910726339657 -0.0798774637498897 0.10151448169899291
0.07350337719252313 -0.07909397749424353 0.10146683416170614
0.07343414680495758 -0.07831555217729533 0.10142652898583354
0.07384799515893167 -0.07895015041419043 0.10191810153720222
0.07325326091072613 -0.07741232306516699 0.1012951524529683
0.0737387791847599 -0.07801345332826609 0.1018498739192311
0.07302528132046153 -0.076570375062824 0.10108055819374602
0.07358987064468761 -0.07682088103146974 0.1017336472997674
0.07355764260928194 -0.0757021905018884 0.10171959537368498
0.07374632007631152 -0.07502340445032471 0.10193449166984195
0.07349299303997886 -0.07439735929995214 0.10161036239129251
0.07372512106425769 -0.07423057220376914 0.10187875641687584
0.07368356693397192 -0.07350511699331538 0.10180308226696025
0.07367286278569483 -0.07272761676240136 0.10175391197839946
0.07402023562020942 -0.07338097672319364 0.10223864034451743
0.07362273541323557 -0.07190418351310865 0.10164510231556872
0.07406246608560285 -0.0724833729551528 0.10226635248776694
0.07354677677714452 -0.07131073520039974 0.10151621516073245
0.0738913580168413 -0.07139650452880242 0.1019763930429338
0.07399430189035329 -0.07032645858494856 0.10212830846050801
0.07372360221823035 -0.06928700980720101 0.10174150091441729
0.07410766120539668 -0.06927802639474273 0.10229720830342034
0.07425254593847136 -0.06867877952294954 0.10243470760924787
0.07443167122027776 -0.068092259450742 0.10260310743758382
0.07465325847098919 -0.06762792693929406 0.10288105474345469
0.06414894481422914 -0.1051578034672445 0.10406778132766113
0.06464507525169569 -0.1046087027264109 0.10407667306332138
0.06536274424600402 -0.10375690148610679 0.10388238597396877
0.06612447881450259 -0.10281316533652543 0.10366866590608433
0.06675082434217247 -0.10202043806119489 0.10353915683013411
0.06718141545182332 -0.10040873758203818 0.10248627962285727
0.06718028828160853 -0.10116049608176926 0.10311720429732532
0.06781329534270127 -0.09945036208910409 0.10234372550008429
0.06794756138926776 -0.10002674136883007 0.10293747759105275
0.06820946194696696 -0.09870048005459267 0.10216489752924304
0.06859264992765915 -0.09891979808876479 0.10271477968049998
0.06930344647586842 -0.09796641446915247 0.1026521975541879
0.06990166203485712 -0.09713410508734052 0.10251381703950802
0.07041466110560982 -0.09631096199452324 0.10234619373095426
0.07087596975136969 -0.09546342795011853 0.10217445836299247
0.07128546368994089 -0.09462325536342578 0.10206443598743542
0.07164514209822775 -0.09382079573246863 0.10200952065814647
0.07195741831887953 -0.09306516005561877 0.10195675247435128
0.07222973234324387 -0.09230998662728779 0.10193348462376292
0.0725430162078889 -0.0915361952068051 0.10198826971467002
0.07271566589734364 -0.09065453170901631 0.10178581054220717
0.07287649393034727 -0.08997745528527547 0.10173768398116873
0.07310760017759785 -0.08952208205188131 0.10194018879293658
0.07304831548715973 -0.08879266075979196 0.10160612055033855
0.07327291117752618 -0.08901785629939377 0.10202688712759024
0.07303883399253158 -0.0883270901865893 0.10147430650562153
0.0732554065723884 -0.08839968361763184 0.10183933483839813
0.07333672891488323 -0.08773395864933606 0.1018353825851941
0.07339864496914453 -0.0870547878617737 0.1017933374042942
0.0736375567143235 -0.08766234862353128 0.10227948503812638
0.0733691837570167 -0.0862657921851215 0.10164520518471136
0.0737002025022934 -0.08683056277286684 0.10223372741862058
0.07327370216144204 -0.08553099020770519 0.10143086866029755
0.07365896371352892 -0.08576085082242732 0.10204393917891767
0.0737471860088425 -0.08472014571244044 0.10206672349849757
0.07381325220708834 -0.0837875129485573 0.10212242383112025
0.0738104478963186 -0.08295671680538583 0.10206663645838684
0.07402361439505925 -0.08246229205207882 0.10229990711439592
0.07382160685209105 -0.08191215870408118 0.10198949936943119
0.07408058101931705 -0.08177303667469538 0.10229098344127605
0.07403371482903187 -0.08105758483243203 0.10216630668197933
0.07396984631608773 -0.08031820181186769 0.10206724168741825
0.07436824086072029 -0.08081589867252845 0.10256260124666458
0.0738422053768495 -0.07963379631173313 0.10189355737551486
0.0743017115269449 -0.0798212974458659 0.10247912532387955
0.07420864054693538 -0.07871512182966636 0.10239424740425045
0.0741058447014289 -0.07776387711885066 0.10231928277660886
0.07410134256577428 -0.07706010427246332 0.10233903872128777
0.07397538016831293 -0.07631769200814564 0.10220423597021622
0.07442421718642692 -0.07679955067861322 0.10271568309539628
0.07389626838388308 -0.07570824817202336 0.10211505368866114
0.07428908516646375 -0.07571572765364415 0.10256952257730435
0.07409768209120209 -0.07469104232666322 0.10234701574112177
0.0739668348739997 -0.07400035439285246 0.10218186560061493
0.0742903332942003 -0.07412560212154706 0.10258804721227013
0.07443493967476236 -0.07339130608881557 0.1027784059289692
0.07446404551324151 -0.07266198819542569 0.10281225263809743
0.07434711196605619 -0.07190393535948904 0.10263548528929865
0.07475384489505843 -0.07241384889259986 0.10320672467167365
0.07422871495217478 -0.07122104272714644 0.10245231734646604
0.07466024580144309 -0.07125035945945182 0.10310817102896512
0.07451739523561807 -0.069996797664035 0.10290972128048431
0.0745029108612376 -0.06913455371559356 0.10281364753119723
0.0748268082953662 -0.06957232080459066 0.10333965716884168
0.07451087030575435 -0.0686329260102964 0.10274759958431319
0.07486043321716858 -0.06875716521510707 0.10328236809052334
0.07502382902745293 -0.06795259757806156 0.10345420195659709
0.07491706478594679 -0.06754937697685064 0.10325892062413834
0.07517941298513645 -0.06760264821038353 0.10360681788548962
0.06474583368515481 -0.10487747351747446 0.10459667290986853
0.06525573499401754 -0.1042983546027261 0.10458397981724984
0.06595068578781091 -0.10343548967446325 0.10436285820082641
0.06670642914277913 -0.10252898567368252 0.10410359924842535
0.0673856404394787 -0.10161327508754237 0.10382469865883014
0.06801856692763977 -0.10064202734214989 0.10358283422216125
0.0686519477101028 -0.099614169688123 0.10341287401268337
0.06927913180312328 -0.09864362490499892 0.10326164127726165
0.06988066574425446 -0.09774787505543682 0.10311964001762045
0.07043009680317722 -0.09690777853880692 0.10295761276997024
0.07091826934101832 -0.09607512159704464 0.1028126003828709
0.07132500138877967 -0.09524090524412154 0.10270453582888475
0.07169613466656596 -0.09443991986360821 0.10261992902836581
0.07200753680743384 -0.0936712291531461 0.10255206791765761
0.07229625766588199 -0.09296569057558642 0.10249585151856698
0.0725451120161283 -0.09232563913015487 0.10250117171625515
0.07285465381850108 -0.09189383439084788 0.10274206322445818
0.07291463361378794 -0.09114785053593988 0.10238751846382396
0.07310602507131266 -0.09141534078897327 0.10286594296115104
0.07301512167140162 -0.09046750902305978 0.10219415850384783
0.0731984862466062 -0.09084520834198198 0.1026982248265997
0.0730743460741435 -0.09003134414577857 0.10208167679353225
0.07326946899345291 -0.09013351368658647 0.10246060194952725
0.07340659081311521 -0.08948783540227095 0.10241910139471452
0.07350453286251994 -0.08884115244408962 0.1023559164298959
0.0737007252391123 -0.08937029755555861 0.1028685541478602
0.07352178280599668 -0.08823692924614221 0.10221718036236131
0.07380859155130412 -0.08848727194351672 0.1027723859228318
0.0739662891032589 -0.08757072442463155 0.10282323257408296
0.07408321498959501 -0.08659685591404928 0.10284640760657059
0.07410646787758719 -0.08551037723752011 0.10271287935841467
0.07412866889400009 -0.08457860545184032 0.10264699347020004
0.07413440009519319 -0.08395909866303286 0.10262430651604612
0.07406588292217281 -0.08342063444233196 0.10246749462265203
0.07431563386720941 -0.0836969470674657 0.10283759027037837
0.07405361124429301 -0.0829899029118874 0.10239922761769323
0.07433155014196643 -0.08310185526973904 0.10276385187224503
0.0745573528372647 -0.08234668285800484 0.10294769289508403
0.07436957194344108 -0.08150812037270184 0.10260637971771525
0.07473994227791246 -0.08145673676024551 0.10307145463630034
0.07472028644233521 -0.0806364935362916 0.10300689913613267
0.07475662858497414 -0.08003251225283921 0.10305479047792714
0.07467161058614175 -0.07929576690989873 0.10296084947223107
0.0750553490671044 -0.07985651211640106 0.10346030310890934
0.07457415567609756 -0.07832679986280146 0.10286084259766691
0.07510546294763965 -0.0788973380902429 0.10353992311707039
0.07441880075182479 -0.07752921910443769 0.10270175428246203
0.0748912230954485 -0.07761948163653581 0.10326923408077349
0.07482928543533311 -0.07647390196818135 0.10320119160657776
0.07475151519970274 -0.07564293981522169 0.10313038138992324
0.07451671371694907 -0.0749340570968089 0.10285512270376548
0.07467694650226661 -0.07426520797585977 0.10308272369128374
0.07480193162451175 -0.07368198132810294 0.10325866106795344
0.07471181898626973 -0.07309324905011316 0.10315145784604153
0.07508206625344303 -0.07332205979140485 0.10366315159618796
0.07517917238550079 -0.07225482352639791 0.10387024598229264
0.07512983023539659 -0.07136939095519938 0.1038509776275413
0.07510823832463001 -0.07051783357422493 0.1038264838506777
0.0752132316744507 -0.06951989582528323 0.103903534651665
0.0752537320276654 -0.06889193778800914 0.10389070912681168
0.07516294581666765 -0.06849712270647815 0.10370492820521376
0.07558269412030272 -0.06852447290184933 0.10428535607995511
0.0756644213751191 -0.06788025164882923 0.10427598444779938
0.06532782983072251 -0.10467846775157082 0.10526633013571102
0.06550803958481004 -0.10490576074390479 0.10590439329455414
0.06581516341161092 -0.1039821668011812 0.10510008240470996
0.06580393870394319 -0.10449686240101044 0.10579427954011848
0.06657175871682733 -0.10310023119050307 0.10480192445570331
0.06644534470835438 -0.10366078908080775 0.10553369271489058
0.06736460294455507 -0.10213966102763238 0.10448559902103871
0.0672635714140823 -0.102701511948053 0.10518884273173323
0.06805642995818648 -0.10118122668922021 0.10422410185322886
0.06804494750003233 -0.10171916255863818 0.10487764810573229
0.06869138501515397 -0.10023776282590888 0.10402680287898187
0.06870355243737042 -0.10078790607333456 0.1046431432550718
0.06929533567963995 -0.09927936474483244 0.10386652766391714
0.06933573846246549 -0.09985091940535315 0.10445409600212367
0.0698918413921681 -0.09835532875872453 0.1037061074183985
0.06992354992653516 -0.0989204931446775 0.10429161505933132
0.07042760546734658 -0.09747332268358869 0.1035533564037736
0.07047744095041705 -0.09800789538626666 0.10413318655084308
0.07092465723561464 -0.09663187848580537 0.1034085353323138
0.07094897300530816 -0.09716066449624437 0.10398669835623307
0.07135316530979724 -0.09581824339087398 0.10329696621785874
0.07137526152066287 -0.09634539403386931 0.10387191599315729
0.0717328068855388 -0.0950201900605016 0.10320622290629057
0.0717793723273032 -0.0955630851956617 0.10377131538940945
0.07207033920818433 -0.09425033255460216 0.1031326639394668
0.07211698326639732 -0.0947803589664019 0.10369159486564823
0.07236753416093125 -0.09352430608958086 0.10303925230433993
0.07244938761181728 -0.09404231785203016 0.10359347200047095
0.07261251497095418 -0.09285728129057177 0.10294917277215161
0.0727300216408197 -0.09330583800719625 0.10346488251891493
0.0727420171933856 -0.0924071773586724 0.10287384231588494
0.07294486796916923 -0.09254244560362097 0.10328391779199494
0.0731876055792991 -0.09189075775025717 0.10326009475502189
0.07336695510191277 -0.09127450878298633 0.10319111320141758
0.07351195873997826 -0.0918052345198624 0.1037138688292367
0.07348603477169227 -0.09057033110469691 0.10302271699238363
0.07369817234891803 -0.0910324199229575 0.10358988272139713
0.07354445410757354 -0.08994820354805041 0.10283466348243367
0.07382393673819361 -0.09012695207729948 0.10338728129515372
0.07402138086724855 -0.08925854818433962 0.1034044810933521
0.0742121379684064 -0.0883699978376123 0.10349885655242155
0.07427759870174404 -0.08742398743662468 0.10336554445374667
0.07436918887400902 -0.08684458419728497 0.10342275344477106
0.07441610778853477 -0.08616173116428054 0.10335085270473357
0.07460544344564302 -0.08674591563851354 0.10384742383521539
0.07454490829713666 -0.08519079553522561 0.1033434173222429
0.07482275631519525 -0.08603025073378849 0.10398975003839951
0.07443093222962664 -0.08427332372266831 0.10305445318436394
0.07503670159077805 -0.08525271977689056 0.10409840722885985
0.07483335774923203 -0.08448800321665412 0.1036091221332577
0.07519152757610778 -0.0845740317003714 0.10411615910353277
0.07467269301022872 -0.08367471463762662 0.10326418725136628
0.07509860536664674 -0.08392715985076665 0.10384389967412326
0.07464743340054163 -0.0830659115416851 0.10314153791308595
0.07499811311672086 -0.08310259874865847 0.10358383288472954
0.07522336391839711 -0.08219268737016375 0.10378306164403883
0.07510090527705826 -0.08114006376761661 0.10352243537575644
0.07546023329211392 -0.0814251089561438 0.10406608327981788
0.0750100104827594 -0.08046265075300435 0.10337584105034744
0.07536985721564954 -0.08058645542022876 0.10389075163765792
0.0754234470373762 -0.07976806998363996 0.10398938906895364
0.07561690370425858 -0.07912914612606618 0.10432184729267045
0.07542667961440756 -0.07815658125771066 0.10398653926960785
0.07576493732343001 -0.07842787999466368 0.1045276636899203
0.0753656822787435 -0.07702257089786996 0.10390029728667236
0.0757221104900661 -0.0777295202757958 0.10442762482591354
0.07514720337000402 -0.07593659713077926 0.10362135416342386
0.075844711626061 -0.07701201144961138 0.10462922175485989
0.07558997519521797 -0.07614109125903291 0.10421181682446656
0.07592583992675271 -0.07620353461960236 0.10474206052463979
0.07493447515470913 -0.07506376870468477 0.10336949540000019
0.0753553412618655 -0.07520554954515474 0.10391898355186242
0.07575699414482504 -0.07539645943081304 0.10451070230898753
0.07506110097092511 -0.07431228645993136 0.10358976651465983
0.07550649779853334 -0.07429629099735056 0.10423927997503453
0.07550341019639581 -0.07322699030411277 0.10431562464986614
0.07561908482347675 -0.07252431068573051 0.10463140638639956
0.07540468276505491 -0.07170203360785961 0.10431596167421041
0.0756649343528122 -0.07182672875476816 0.10479980226705045
0.07529937767869263 -0.07116730326513776 0.10414381142951987
0.07555368395403697 -0.07111564671520461 0.10459792673488137
0.07571055710720932 -0.07018680932554683 0.10480951405023514
0.07554065400232769 -0.06926504716940768 0.10435816824734183
0.07595756617946553 -0.06923650591569312 0.10500546254706263
0.07606959483108187 -0.06860439088466457 0.10500516210486115
0.07604262473542521 -0.06816896963712728 0.1048252190954656
