# .PCD v.7 - Point Cloud Data file format
VERSION .7
FIELDS x y z
SIZE 4 4 4
TYPE f f f
COUNT 1 1 1
WIDTH 789
HEIGHT 1
VIEWPOINT 0 0 0 1 0 0 0
POINTS 789
DATA ascii
0.06238156268687483 -0.08811151842434906 0.08656118491876227
0.06272692729873415 -0.08726105211494417 0.08664352049033824
0.0629543836460867 -0.08635254357287332 0.08672308347550292
0.06312974728919829 -0.08543579917626547 0.08680777170504232
0.06333314113258993 -0.0845630060830592 0.08692976881823603
0.0636183616101882 -0.0837731977651912 0.08708726485955769
0.06395922317645333 -0.08305710706047194 0.08728876746880529
0.06394642546189996 -0.08227467777392695 0.08657049660950362
0.06441700245490858 -0.08168310125494402 0.08682569352354617
0.06445323941239253 -0.08095981962371773 0.08611515522415006
0.06490616228124099 -0.08035937618955022 0.08637242808643718
0.06532272691833894 -0.0797137048145397 0.08661026596039484
0.06571127851187773 -0.07902861168945838 0.08682048150389439
0.06605668923167983 -0.07840282805591522 0.08700806575817562
0.06579799376538863 -0.0772322401629513 0.08574556255387784
0.06606740242845344 -0.07768385566065909 0.08654453894806292
0.0662029756929225 -0.0768992502253908 0.0863845056510862
0.06609799243741411 -0.07612075466887484 0.08589140434536187
0.06633885476886496 -0.07628003633565064 0.08640268714268977
0.06626225941493592 -0.07576500871585207 0.08612103360504211
0.06640114059669394 -0.07509589896724451 0.08630172152983297
0.0666050953686534 -0.07399838541070938 0.08661215911314497
0.066451839042157 -0.07308985247939617 0.08642234109278174
0.06623976272619524 -0.07264691475155648 0.08610886336314211
0.06647747694074975 -0.07247900978039198 0.08652380449594009
0.0661838365550859 -0.07164298017883862 0.08606179716497882
0.06594335218222606 -0.07118988364106933 0.0856918468465864
0.06639935375688927 -0.0713717833874401 0.08640384143628954
0.05728850605901513 -0.09664903303820721 0.08805692324600468
0.057406863447156266 -0.09609635953206468 0.0878839904058589
0.057681515662932885 -0.09523775996901636 0.08773395324356748
0.05809010689388802 -0.09433568027032899 0.08773744841239156
0.058642259100848915 -0.09349888885622593 0.08781202983761796
0.05933235205594208 -0.09275295467767461 0.08797103781913448
0.060165563621332616 -0.09210691964805844 0.08820021387489721
0.060322646943320846 -0.09140839331226866 0.08750657956293563
0.061126432173047016 -0.09087196939931204 0.08777929365994136
0.061261315435296344 -0.09022733216536741 0.08707403094148819
0.061945905572150475 -0.08965376795960484 0.08725607732544315
0.06253521967090667 -0.08900113302852398 0.08738081842086441
0.06294161234540777 -0.08822883290180183 0.08748580463581794
0.06322446559850835 -0.08736997452510357 0.08757814097301515
0.06342857100583921 -0.08647200099078334 0.08764915480088664
0.06358216523166083 -0.08556049098437209 0.08774162265428777
0.0637823498283756 -0.08469942587372417 0.08785986125294508
0.06402426811593329 -0.08390156369937878 0.08801731990018052
0.06434047836280209 -0.08318395380579788 0.08822003692599638
0.0643712594468047 -0.08241543861725639 0.08752254752539126
0.06480676897115098 -0.08181011532197134 0.08778221196051579
0.06487077290467864 -0.08109033689234714 0.0870907068073188
0.06531454591292161 -0.08048959999040367 0.0873377629201149
0.06575059919624596 -0.07985234931584238 0.08757216265770412
0.06618784343871321 -0.07914588300562438 0.08781382641630309
0.06635067238933305 -0.07846985544982434 0.08762122376991145
0.06633066450884921 -0.07794397742036324 0.08722141808421455
0.06656189616639552 -0.07813010201851894 0.0877924093221444
0.0663170650036251 -0.07749648863302225 0.08689830913984112
0.06660452444569022 -0.0774344088705271 0.08743067503423207
0.06656233003442026 -0.0766080648264387 0.08697650647321507
0.06650171599451889 -0.07598306802493068 0.086637118701428
0.06684882441549866 -0.07612187712186083 0.08734925595203501
0.06701976059644474 -0.07519917599855354 0.0874315704134155
0.06720191101102005 -0.07439638751364634 0.08770660220927552
0.06687018519407986 -0.07339681438355325 0.08710713707226861
0.06700875712500455 -0.07274789516069378 0.08742506627347
0.06666225525132974 -0.07188491613720303 0.08687738008682544
0.06688975671986533 -0.0714155663526481 0.08727906999128943
0.06711095793882925 -0.07105971547307167 0.08777456085428709
0.05748042312947855 -0.0966849070080445 0.08850820230923616
0.05776489092438342 -0.09616579561211658 0.0886519705043011
0.05818774938145869 -0.09528312195232369 0.08866965125921877
0.05866847215163357 -0.09439088902896195 0.08870212475771246
0.059319032937885825 -0.09358467778848853 0.08878012827603861
0.06001565643960078 -0.09284546787682584 0.08894295897192517
0.06075421885568789 -0.0921856714139043 0.08916966164498122
0.06095849791534282 -0.09150715608172393 0.08848554764264677
0.061706304753653365 -0.09096249267194974 0.08873069105145429
0.06185671845254906 -0.09033830065364416 0.08800139746941973
0.06251471176632542 -0.08975472001295998 0.08818094280993416
0.06304717352060518 -0.08908609760114222 0.08831429648521283
0.06341366142512368 -0.08831652201978558 0.08841586250099558
0.06368105499174151 -0.08747114014191013 0.08850176015973926
0.06384350178195222 -0.0865766490404718 0.08856021516419461
0.06399541612796675 -0.08567728813051688 0.08865449385682735
0.06415218022487597 -0.08480875549431219 0.08878205524035948
0.06438916870521325 -0.08401650786815783 0.08894369223864648
0.06470532558623128 -0.08330130749907466 0.08914939126830791
0.06472338560977317 -0.08253352487982601 0.08846266774409449
0.06517889155294176 -0.08194433393719676 0.08871464059609817
0.06526406236477932 -0.08122779536107677 0.0880333990106569
0.06572070931098464 -0.08064245211062819 0.08828287623757002
0.0661762835908093 -0.08003935091451801 0.08852983345898567
0.06661668158306132 -0.07947102686775054 0.08881385996772413
0.06661267632071866 -0.07870780286345583 0.08825974955079241
0.06693819815891204 -0.07808272830100359 0.08840146883532869
0.06698538753205707 -0.07738281976258886 0.08808383535068592
0.06684814705509413 -0.07689081132210823 0.08760873915702498
0.06716714675838661 -0.07687032769202581 0.0881804212825242
0.06734557007845904 -0.07616292457554973 0.08825174979880587
0.06752667808208747 -0.07540204118089644 0.08842467182461423
0.06765611344915226 -0.07464938816125548 0.08868016432912298
0.06735592878906525 -0.07369292506438907 0.0880338731267968
0.06743482537887861 -0.07297065649442053 0.08832852430368264
0.06715282063130834 -0.07208896713551351 0.08773718590109789
0.06725613073374626 -0.07145216563234583 0.08805114870178882
0.06737014595162506 -0.07109615651847502 0.08841888637853298
0.0578479236053071 -0.09697727991642843 0.08963193963915671
0.05825057531053304 -0.0962314704162611 0.08962688427146175
0.05873149495519874 -0.0953122566840965 0.0896339056929823
0.059270375032641674 -0.09443995454326651 0.08966245856771042
0.05992193824271971 -0.09362660121165156 0.08976519099652894
0.06057172681849294 -0.09288907768106053 0.08992580002784745
0.061297045423654675 -0.09223009452186955 0.09014905848833361
0.06149247795158167 -0.09158442666914207 0.08943261617946414
0.0622417428627533 -0.09103037778960706 0.0896876039180898
0.06242484245432935 -0.090413206399992 0.08895132320493412
0.06302654418582557 -0.08982347818484879 0.08911963574385738
0.06352809454763458 -0.0891674153053618 0.0892360192458133
0.0638840530290095 -0.08840563659850449 0.08933932928252522
0.0641000991040387 -0.08756596638730699 0.08940733514358323
0.0642611135178364 -0.08668548102928346 0.08946233052332904
0.06437898095425712 -0.08578528524429962 0.08956050317206903
0.06454080180822894 -0.08492477158290716 0.08969703639200848
0.06478883538183258 -0.08413805001842425 0.0898674971206626
0.06513937725794687 -0.08344204472395057 0.09007224675997733
0.06511977593408795 -0.08267197348671267 0.08937741616453529
0.06557895870625571 -0.08209525642002503 0.08962346144992636
0.06564900486884456 -0.08137773924827796 0.08896032195919262
0.0661411302647957 -0.08082588102857498 0.0892044218468638
0.06661791121029775 -0.08027157542757773 0.08947088981766524
0.0670612836687633 -0.07971470285676358 0.08974397549626095
0.06701639043945182 -0.07892042971393456 0.08909302142441704
0.06737329155866813 -0.07835838818955455 0.08935567291208127
0.06729145803539721 -0.07758676862385436 0.08877357908456812
0.06754097079069644 -0.07699303320327054 0.0889730586859532
0.06774663434964377 -0.07631841008154513 0.0891522628044166
0.06791315737946407 -0.07559596995701068 0.08936788002984337
0.0680267949165703 -0.07484861886438592 0.08959912795895615
0.06774772328628018 -0.07390804750894632 0.08895190229843898
0.06779112399361052 -0.07316568271150438 0.08922517615402033
0.06749703663345213 -0.07224617992581245 0.0886124743689914
0.06755583256440746 -0.07159653881409413 0.08892399221939865
0.06767971845896899 -0.07122188359803817 0.08931315711104405
0.057809314990274654 -0.09797615609277129 0.09088840069497552
0.058165890716752225 -0.09720122357426426 0.09064130682400773
0.05870222988243506 -0.0962651568595603 0.09060308948753888
0.059229221972160254 -0.09532515810321367 0.09060402426446433
0.05983040038255327 -0.09446013599656845 0.09063184745396524
0.060464864937349164 -0.09365446722540977 0.09072916918537259
0.061132245506523755 -0.09293286741173007 0.09088927938205699
0.06182091661940424 -0.09227448136545512 0.09112564440162253
0.06201194030330465 -0.09163044046965631 0.0904105474409212
0.06273256521995318 -0.09109224072667153 0.09065086233252224
0.06291350196412285 -0.09047235278827631 0.08991112403760598
0.0635274714606727 -0.08990052124256015 0.09006500924063475
0.06402863617122993 -0.08925115514822107 0.09019044928131084
0.06434122326943069 -0.08849905050584908 0.09027409810494046
0.06456638680550013 -0.08767815681287691 0.09032340946215449
0.06469417042182168 -0.08679531424467256 0.09037784529594245
0.06480777599449065 -0.08590396312693317 0.09047339388696347
0.06499274864322653 -0.08505267032066315 0.09062933434253118
0.06525278345200076 -0.08427521375866988 0.0907943866455661
0.06560480272096622 -0.0835903429275185 0.0909971805929747
0.06556578500575087 -0.08282478676077286 0.09030574540459355
0.06602895782158479 -0.08227485696312789 0.09052884440791116
0.06607893983813698 -0.08156209455857827 0.08986854145927707
0.06657684404763617 -0.08103624422383668 0.09014355548834717
0.06705448555207542 -0.08050117088865408 0.09041693261723237
0.0675061700246177 -0.07994669432977079 0.09066825707665835
0.06746200022493326 -0.07915733995829864 0.0899977231311825
0.06780576623360866 -0.07859346729017726 0.09023722383966652
0.06768034028908865 -0.07779736758825843 0.08961116810178432
0.06792506875201586 -0.07718600563756918 0.08983653970614354
0.06811134983554396 -0.07652242983193895 0.0900605757808944
0.06823878918522451 -0.07578740392911298 0.09028524791217481
0.06829769336716839 -0.07503409752762659 0.09052659592226661
0.0680732306577334 -0.07410554328687212 0.08986194091147814
0.06809081383846487 -0.07335773629704734 0.09014594327930259
0.06781488877989315 -0.07243470685547104 0.0895192195803872
0.06787328590029611 -0.07176118186172291 0.08985590846482663
0.06798065973854121 -0.07119998165330632 0.09033090840414455
0.06805042620794705 -0.07074508651627161 0.09093942378419713
0.05765265639069788 -0.09903436319413769 0.09194715254229825
0.0579869145756102 -0.09822467749894359 0.09167558850606299
0.05858886664377211 -0.09726060317281303 0.09159363526243822
0.0591807735559053 -0.09627224482653306 0.09156987941855933
0.05979375919937287 -0.09534908558832991 0.0915529394031791
0.06043725545082878 -0.09447769045904147 0.09158668511608627
0.06104467282597449 -0.09367811860497406 0.09167486734538825
0.06170554676478433 -0.09297221272656911 0.09183474564429277
0.06237045903145853 -0.09234450160890989 0.09206171865232772
0.06252318446934468 -0.09170073343563927 0.09137174665256119
0.06325819975304366 -0.09117957076971217 0.0916052031442076
0.06342255604770979 -0.09055593577165326 0.09086231481056958
0.0640133284058746 -0.0899922069246255 0.09103553574535336
0.06445553119176782 -0.08935482065366868 0.09116099337737107
0.06478052136479727 -0.0886121129892266 0.09123071833691711
0.06498216937912367 -0.08777665787805934 0.09128660837678196
0.06511095777900044 -0.08689625192582426 0.09132787363859803
0.06524944802860322 -0.0860207648896959 0.09142073789627747
0.06545295373675909 -0.08518000776017387 0.09156300779587004
0.0657433082785506 -0.08440446335418052 0.09172440106795755
0.06608366348659821 -0.08373745158991844 0.09187559764175603
0.06604121683447259 -0.08300334751326088 0.09122217820884172
0.06650758272805457 -0.08248036852862951 0.09140698226694748
0.06652087437562249 -0.0817734077801455 0.09077932159381744
0.06703787857870114 -0.08129550693908942 0.09109090995443789
0.06755243782394786 -0.08075535806777483 0.09137657249623207
0.06798189615588766 -0.08016717885058613 0.09155507093378834
0.06790635595804964 -0.0793945170958277 0.09091544053157749
0.0682181268200802 -0.07882598794193481 0.0910843255271586
0.06807717572120134 -0.07802326619983423 0.09046228325885657
0.06829734293448374 -0.07744230603666527 0.09072732549103302
0.06844194748580101 -0.07675726518431603 0.09099170328119106
0.06849610558504239 -0.07597670767653343 0.09121717538187943
0.06851198963357195 -0.07519853495000102 0.09146802181762535
0.0683008605420425 -0.07427168209483476 0.09079700868926771
0.0683071699755611 -0.07352099213747326 0.09109848110984974
0.06808474260805046 -0.07260538162570696 0.09045923130622234
0.06813826992275472 -0.0718830955729846 0.0908062807938992
0.06818283687803024 -0.07116816156451751 0.09120040731219203
0.0682301198549578 -0.07059181702411182 0.09169529043385528
0.057122525080307254 -0.10127077627551839 0.09338624042516898
0.05743946744804492 -0.1002752108360929 0.09296845965503543
0.05786116179759005 -0.09926697241313155 0.09268678600135327
0.058446300445612116 -0.09826950946132357 0.09259923126288765
0.059112001146741165 -0.09727113950894054 0.0925522872516676
0.059750800367052014 -0.09629468158402132 0.09251661136058417
0.06044599994448943 -0.09536529880337907 0.0924941825795544
0.06106988859791491 -0.09448418233909295 0.09250748959055591
0.06168286631970501 -0.09369162166565952 0.09258222931031987
0.06227838567786483 -0.092998486697354 0.09274462246928254
0.06290586377305113 -0.09243003559764096 0.09296635380223706
0.06307993164297189 -0.09180739448677933 0.092311200959261
0.06373970920982909 -0.09128922454869239 0.09251070155382354
0.06390448211361918 -0.09065654327230675 0.09182497136596178
0.06444411293738668 -0.09014341530427356 0.09201445545235967
0.06490304565914361 -0.08952317182651388 0.09213825021621988
0.06522055559749533 -0.08873197454269549 0.09220451226915682
0.06540931906330504 -0.08788152770999376 0.09223940321283995
0.06555154394695302 -0.08700826650053456 0.09229285185053257
0.0657095354248514 -0.08613641314751991 0.09238631449928715
0.06595785623952151 -0.08529371178016494 0.09252993741001904
0.06623816688643033 -0.08445931713651053 0.09264836202699384
0.06640274848278997 -0.08383022116582464 0.0924866440120918
0.06657695198292411 -0.08324132804356905 0.09221856741538277
0.06688545535219206 -0.0826028582243141 0.09208959319437263
0.06696541399390916 -0.08202996788303736 0.09164894160584112
0.06757072115324855 -0.08169397504333473 0.09218559053683811
0.0681296776682905 -0.08093002347368658 0.09233390800143015
0.06834223003674347 -0.08031399558200367 0.09216474325719003
0.068416907112901 -0.07967643091961132 0.09187436167852221
0.06853504236700948 -0.07897141809784192 0.0917058658365787
0.06844981713046369 -0.07830848646042121 0.09127988549956767
0.06871086412561662 -0.07787411995426348 0.09175744160173414
0.06877335565456127 -0.07699080556189962 0.09194552858328961
0.0687574721345787 -0.07616471906773349 0.0921575198040618
0.06875513423506999 -0.0753841180306786 0.09240687493687545
0.06851846241736029 -0.07444066791689692 0.09174524556030268
0.06855902043974686 -0.0737045795641178 0.09204992954709697
0.06831494021252599 -0.07277427826480995 0.09142214692365498
0.06837789112146746 -0.07203050772655516 0.09176015281911964
0.06845004768636814 -0.07127995450119655 0.09211150262334629
0.06853412314849508 -0.07059675702364895 0.0924847244049724
0.0683845899715383 -0.0701781970091298 0.09224024223336054
0.05702501431520026 -0.10200450590687411 0.09402614023250892
0.05729186522549042 -0.10125959513015839 0.09377734941342836
0.05777505303964355 -0.10026588671404721 0.09364970198760132
0.058366224043924414 -0.09924997002272598 0.09357667846503141
0.05903511471372649 -0.09825210807198427 0.09353111183419105
0.05979105311877001 -0.09729603435832805 0.09347058132598123
0.06051957671278876 -0.0963274258685458 0.09344676065035043
0.06119168610275456 -0.0953396486950123 0.09341645982593084
0.06176673186929611 -0.09442949737494832 0.09337930849523714
0.062299600253075516 -0.09365776353002539 0.09340829129597526
0.06280965341060454 -0.09304480940361959 0.09352993826744063
0.0633709011911612 -0.0925843158873208 0.09371502834205071
0.06366824872523404 -0.09194040910611474 0.09331950539735294
0.06410457966589572 -0.09135890563894199 0.09316512852523912
0.06428904317888944 -0.09084130219553438 0.09269397534495084
0.06489521408337696 -0.09048745070851562 0.09309457542895047
0.0653955677179288 -0.0896756678013409 0.09314987153569243
0.06566807196167124 -0.08883629439627949 0.09316815231098835
0.06584675185005763 -0.08798715168383556 0.09318593762481428
0.06599536193943815 -0.08711491536279972 0.09325609723877681
0.06622241976173897 -0.08626318605099362 0.09335578417880282
0.06651772159722182 -0.08539121001690539 0.09351247293214314
0.06660541302046104 -0.08463532263044518 0.09332878802983309
0.06660055268941507 -0.08409783593019564 0.09298551008982314
0.06686941043814885 -0.08434587406994078 0.09352215191233648
0.06662687143812912 -0.08370540303288154 0.09272049127775085
0.06698775678738035 -0.08370627352312111 0.0932079862384247
0.06711951972391685 -0.08295346946145091 0.09276353681887627
0.0672488858942082 -0.08236995790646881 0.09238057627121216
0.06771038036220282 -0.08263285378079992 0.09317843195556322
0.0683353260887252 -0.08187353460454276 0.09328163037597993
0.06857026978444432 -0.0811540098279476 0.09303626064533628
0.06855446364878741 -0.08060778607640572 0.09266615785731927
0.0688392123412692 -0.08087023136481429 0.09319906781295997
0.06855761751021736 -0.08020103059771604 0.09239055819339331
0.06885299290671339 -0.08019132832892997 0.09283964870839269
0.0687987188017095 -0.07935150318905909 0.0923402065329277
0.06872144607225392 -0.07868553874984549 0.09195559577533467
0.06905444904608457 -0.07892322694880939 0.09268807350562525
0.06908680237631658 -0.0780312972382103 0.09274462374290446
0.06906899707689831 -0.07716731368866055 0.0928887229027231
0.06901511403580993 -0.07633970502659705 0.09308741553189058
0.06901339728671443 -0.07556182150424301 0.09332562875644987
0.06877866472598482 -0.07462751811214001 0.09268017406515348
0.0688450264351107 -0.07390173122982671 0.09297262512203304
0.06860677548087589 -0.07297305399593004 0.0923707871916032
0.0687210839963053 -0.07224045430670267 0.0927010881634481
0.06884868254105626 -0.07148370534061482 0.0930217623046789
0.06897421176177979 -0.07075077419854342 0.0932862003703324
0.06872874501423759 -0.0700922955975063 0.09289384494324679
0.0690530491496693 -0.06971323703650358 0.09344839561940398
0.057035094492165726 -0.10285329892103774 0.09483319108964927
0.05723316269409826 -0.10213290100192803 0.09463605176133177
0.057735123908832446 -0.10119510585440024 0.09454075961550427
0.05836114871062767 -0.10017009501228864 0.09449890244500997
0.059031510477396285 -0.09920513369874842 0.09442581095279011
0.059807137381921886 -0.09826967850535019 0.09436568064075469
0.060600943706199915 -0.09735748783950644 0.0943512523420926
0.061436492562225255 -0.0963454026059252 0.09442549242386779
0.06197672456711299 -0.09520117453301834 0.0942031073882826
0.06254524899836353 -0.09427603915787328 0.09420363801895702
0.06282931473790893 -0.09355785089987563 0.09402827528594651
0.06334261112014451 -0.09313763931349882 0.09426228840792274
0.06383289974640187 -0.09265626028596427 0.0943006627685788
0.06373617232251465 -0.09233101307155311 0.09386437666269729
0.06408412117024048 -0.09215914344910248 0.09406140818109286
0.0642999682708632 -0.09164867057613031 0.09375970921140372
0.06451061857842716 -0.09114416440832956 0.09338480782799274
0.06493640524245654 -0.09137382388747121 0.09411217271715937
0.06552534148676123 -0.09059951350231125 0.09409477709031262
0.0658963358834683 -0.08977909197015696 0.09409778483328933
0.06614130935572649 -0.0889387231647909 0.09409325985204324
0.06631726242317233 -0.0880885388951198 0.09410947578658267
0.06651041077719166 -0.08724448356724093 0.09418326968945066
0.06675164537804773 -0.08643062382895718 0.09430362360017848
0.06705704537655803 -0.0857712813949456 0.09447308102595234
0.0669602777437594 -0.08496520403133015 0.09396118106905409
0.06732990761490658 -0.08439983402908151 0.09409906720062751
0.06747851176495852 -0.08376745563475335 0.09385567810284862
0.06742373151771619 -0.08328177156113782 0.09341449918713501
0.06789940891998458 -0.08342734814170387 0.09400698133913599
0.06841732730150632 -0.0828994697207679 0.09414049328143198
0.06897148298721084 -0.08235482012314409 0.09431564557609805
0.0689289019591474 -0.0815058752706319 0.0936986483986474
0.06924441969668553 -0.08091542982750614 0.09372961510185629
0.0692452556474719 -0.0802250040525674 0.09341275119191682
0.0690903091285478 -0.07968933286050736 0.0929673875247355
0.06939267694662729 -0.0797811604465347 0.09350776911715918
0.06945870252620927 -0.07907956115795438 0.09357723965658875
0.06944216607060882 -0.07821725321500272 0.09366335301130486
0.06938173844282113 -0.07735411901372326 0.09380291128156305
0.06931299655647247 -0.07651575743902146 0.09398346567612223
0.06930546530939506 -0.07573453547039387 0.09421760603130983
0.06905300349104626 -0.07480900323008509 0.09360618978365251
0.06914905208774552 -0.07407795065527249 0.09384496470358997
0.0689453426377916 -0.07318314797108828 0.09327920933381978
0.06914979084773523 -0.07248848992814676 0.0936319768797309
0.06933702499616654 -0.0716786131619405 0.09395664564314175
0.06939626133157123 -0.07078942714269408 0.09404729019034591
0.06906332204688556 -0.07015386646073689 0.09346479481517611
0.06931653501691033 -0.06993361244241386 0.09393201756390734
0.06933945865908205 -0.06948219898371592 0.09394065807610465
0.05712281564633438 -0.10368680165922203 0.09557234553240511
0.05729654910410278 -0.10299410571812327 0.09541820464306215
0.05774825654416607 -0.10206553986514501 0.09536043658445562
0.05836453302377891 -0.1010689915528806 0.09530937148367195
0.05902829378242395 -0.10009217141321292 0.09524542397132504
0.05980153058632064 -0.09917535783548638 0.09516229719777759
0.06056564633000125 -0.09830933682731206 0.09513561990553587
0.06141314192019808 -0.09752012765967934 0.09523863231293773
0.06211510935807086 -0.09677951034119746 0.09537528710284472
0.06231385292697564 -0.09586099753513502 0.09496068376555201
0.06265879461693089 -0.09624895054715014 0.09549333481392769
0.06270696547161381 -0.09500012182853236 0.09484645561307779
0.0629929144354648 -0.09560521292410948 0.09540244617237136
0.06305425175541796 -0.09438118996865551 0.09485277479606813
0.0634811339214872 -0.09478812593709285 0.09539140247468189
0.06341580586570637 -0.09414175648960994 0.09507670250772134
0.06318932233986053 -0.09378506523539314 0.09466061751753042
0.06371948965613047 -0.09342909925591594 0.09489364009644595
0.06374375420842546 -0.09303224847737519 0.09459522157292323
0.06412294291586619 -0.09295728358987415 0.09484704827282746
0.06438740422561137 -0.0924526265726261 0.0946481696961698
0.06455199512845708 -0.09196888135422766 0.09433687825502375
0.06500537252214238 -0.09222909492631401 0.09501035213152656
0.06563590268688924 -0.09147981003809011 0.09500229062950946
0.066083997942369 -0.09068752868306332 0.09500284591986081
0.06640119219589409 -0.08986121918077378 0.094995450148706
0.06662079865652948 -0.08902233346302732 0.09498500454318827
0.06684491080498 -0.08819316713758274 0.09500393428042982
0.06705517871970065 -0.0873750224969308 0.09505345592039179
0.06733958737025635 -0.0866136168219337 0.0951459029356843
0.0674289644520776 -0.08596308617840336 0.09503607577918191
0.06752697601913918 -0.08532346503405891 0.09482477646016409
0.06781746495315652 -0.08470593099377914 0.09476255807000972
0.06787149051364975 -0.08412111832052438 0.09445604895632938
0.06851995662776275 -0.08391546765393924 0.09489909959539192
0.06907872692011667 -0.08326883113249457 0.09502291034405082
0.06949657418498263 -0.08272073685215246 0.0951036833992306
0.06950045596593583 -0.08187640480466182 0.09458184660899277
0.06963932531478356 -0.08119574486286044 0.09436826391646193
0.06956109354475047 -0.08055883611910111 0.0939978021339284
0.06982435306574682 -0.08021191840049274 0.09439402082590626
0.06984741546420506 -0.079311135793004 0.09447149430524338
0.06979937327374452 -0.07841434775243751 0.09455871597266713
0.06972321970908142 -0.07753508642546486 0.0946794850868083
0.06965725868523495 -0.07667566804830395 0.09482208095655933
0.06961334728109518 -0.07592861947743845 0.09496557107991513
0.06942111218623907 -0.0750044064331 0.0945997511000701
0.06942287849018998 -0.07415666093075551 0.09448469485207796
0.06930911468696055 -0.07342436442313206 0.0941206728164624
0.06966002109651724 -0.07285818389378884 0.09470905593667109
0.06970646855478096 -0.0719386380496535 0.09463831544979677
0.06959532467412112 -0.07145323674469287 0.09436803818975278
0.06982902103515708 -0.07131703527246558 0.09484376113035907
0.0696449867375807 -0.0703461378625455 0.09456253567697072
0.06958125685001443 -0.06964804300740329 0.09439953963245976
0.0698609615041499 -0.0699517613934512 0.09492800550817446
0.06956673896480212 -0.06933345180360191 0.09434032477387737
0.0699078572699823 -0.06948983812617113 0.09495981544132973
0.057403463345948244 -0.10484536909634282 0.09668624127874084
0.05723856061993119 -0.10441402235141989 0.09621052194072806
0.05740056861110648 -0.10377609742912022 0.09612260097781208
0.05781003616001873 -0.10286979971169612 0.09610283418803757
0.058421843977065235 -0.1018737733918571 0.09606460035699244
0.059058049968237 -0.10090035687242223 0.09598762024255396
0.05981855792812309 -0.09999565910445543 0.09586469106811811
0.06058230617330282 -0.09913721746459528 0.09576875449470364
0.061209778399784094 -0.09841903530481404 0.09575330956443945
0.061858646719029374 -0.09798403069648208 0.09593950117537926
0.06194492987190941 -0.09741267623681553 0.09562684904914726
0.062334323272848574 -0.09736638358831826 0.09591637136644164
0.06272213573989133 -0.09678523788189548 0.0958825027474922
0.06319177583073958 -0.09620311476626169 0.09588008258227029
0.0632587364491382 -0.09682848763287387 0.09637505440859531
0.06365600390286111 -0.09553297899398118 0.09586282699643381
0.0638226469775293 -0.09615291294842077 0.09638976083403657
0.06395972711415886 -0.09505895762803127 0.09586851177120045
0.0643758179338824 -0.09531705457247029 0.09636635797055731
0.06353536769792359 -0.09382088199420874 0.0950239800779583
0.06391229439891623 -0.09401257740975051 0.09534810453558988
0.06427841273212417 -0.09459163692136814 0.09588788342421324
0.06435724326291052 -0.093394426491687 0.09532382523336355
0.06460850331376805 -0.09283155044717988 0.09516409066023349
0.06508411637391043 -0.09320925596298613 0.09578018430119775
0.06576310985709061 -0.09237609197197061 0.09582287865048093
0.06627498721547546 -0.09156630723238197 0.0958323301291422
0.06667905053033589 -0.09077162944392864 0.09583496290484973
0.06694465983853351 -0.08992656701879177 0.09582416912315553
0.06716947642349777 -0.08910810833588015 0.09578796379442553
0.06745900446880079 -0.08830806851978143 0.09589301583136986
0.0675953297626254 -0.08747776912769403 0.09574645360382734
0.06792196556200514 -0.08700814259416471 0.09591151017071323
0.06773044019378359 -0.08629429931215214 0.09547277951934598
0.06813782794666715 -0.08649691825072464 0.09591879239770987
0.06764830500512677 -0.08585390763174719 0.09523473643771017
0.06804107820301444 -0.08587618548085589 0.095560344304444
0.06816136978851046 -0.08517768325755178 0.09532222597252883
0.0682416633263092 -0.08456983435625917 0.09504990992117195
0.06881635278439648 -0.08496322259780639 0.0957414379105494
0.06933348544687049 -0.08422526949725756 0.09575589894474414
0.06976798292343966 -0.08353713044191129 0.09578794795189703
0.06995185991818809 -0.08289730970653665 0.09561973488447836
0.0697274538392745 -0.08243989477478016 0.09515963462654235
0.06994475462037533 -0.08226701012829235 0.09528719725904711
0.06992048047669847 -0.08162307416232702 0.09494170312362638
0.06985210393822841 -0.08098919960523357 0.09459808168021804
0.07020600859759701 -0.08132368847999936 0.09529803749329323
0.07024674890448028 -0.08041929941850487 0.09531350174753221
0.07021120801456214 -0.07951156388416222 0.09537261958933904
0.07015188024862543 -0.07860956450215266 0.09544894407622437
0.0700899321733004 -0.07769786137525818 0.095544182084556
0.07002671050061039 -0.07676960795708729 0.0956357580211205
0.0698536225897391 -0.07596745570079558 0.09544219709338803
0.06963781072697268 -0.07554581860854574 0.09511405943048923
0.06984751894295355 -0.0753758512445587 0.09546019402197563
0.06968375174170716 -0.0745069420213479 0.09509808502112613
0.06959193279036209 -0.07377350847176319 0.09476729148380197
0.06991932862034085 -0.07396079541717296 0.09543594339393766
0.0701803558750427 -0.07331303805444402 0.09581327074328132
0.0700083488219091 -0.07227929129901876 0.09532392062010578
0.07020997202227733 -0.07160247665764909 0.09571859447438971
0.07003323304093939 -0.07065901801256642 0.09527212041766497
0.07020970230058368 -0.06998889224390005 0.09556868665346084
0.07040176167997997 -0.06940170395092034 0.09590006740018332
0.057564404383903346 -0.10445637613942843 0.09671695753320991
0.05777970785776016 -0.1049022940445681 0.09723851947407114
0.05793988102619277 -0.10510768353705674 0.0975740129395892
0.05793298932148013 -0.10361210137764257 0.0967619536521437
0.05810189550612801 -0.10426723949356935 0.09734658267531424
0.058486513093287534 -0.10263399301403951 0.09675322984381364
0.058635415436910136 -0.10332502278180633 0.09739497122275599
0.05912347281492029 -0.10164298026011762 0.09668795279298147
0.059232836898267645 -0.10233669145010503 0.09734893465223786
0.05983220247208011 -0.10071667250168759 0.0965482790686655
0.05993361876986646 -0.1013965716682526 0.09720677855789304
0.06063942594153937 -0.0998337521161875 0.09638339169595886
0.060703089564841724 -0.10047683858453403 0.0970130713029658
0.06126515160998473 -0.09902217330418231 0.09623989290212256
0.06143762424891271 -0.09957317114120325 0.0968068907247527
0.06156363048093313 -0.09852013649769958 0.09612524008338606
0.06192777570725381 -0.09867132225024967 0.09653024224268232
0.06247990072284492 -0.09791380900385947 0.09641030622868572
0.06281516038369536 -0.09730788418890435 0.09628564177581964
0.06315524710864645 -0.0976823385361551 0.09689250867223483
0.06384824380618968 -0.09688290975238543 0.09697573574686033
0.06446732196745004 -0.09611214909128911 0.09698425596901802
0.06499035618540268 -0.09542020660529081 0.0970153392836206
0.06460241737772693 -0.0939280924973989 0.09579057391263593
0.0651973471600509 -0.09441744401512005 0.09656867256158772
0.0659725729857096 -0.09332774028516534 0.09660826301444869
0.06650331351000234 -0.09242596989216169 0.09657022423148814
0.06694460657968473 -0.09165538828670168 0.09656018976091835
0.06737297653178885 -0.09086428544843445 0.0966618062837819
0.06751446174161403 -0.08992844364281379 0.09648516372965209
0.06770570371205627 -0.08922775414539455 0.09646515348054355
0.06806243380133697 -0.08879337334473063 0.09669550137417866
0.06793204224615547 -0.08801511706882072 0.096302148208865
0.06833892081159768 -0.08830313319885831 0.09675841485917554
0.06793133371309808 -0.08754364799126253 0.09612675732868904
0.06829919371360173 -0.08765557459854924 0.09650422200261752
0.06845309351236127 -0.08699395412873413 0.09638999674591998
0.06858994248711679 -0.086344783864576 0.09620767346007347
0.0690512498571882 -0.08698106822695523 0.09681490941150865
0.06857490549854936 -0.08567806207938193 0.09589475835686878
0.06925516676460108 -0.08605525179519605 0.09657887880038463
0.06968724352030818 -0.08520636446262238 0.09649650745463452
0.0700838283872185 -0.08448256977828209 0.09648187030098057
0.07029951922820452 -0.08386209757543002 0.09638974794788746
0.07009229625617801 -0.08338508828644174 0.09599530685612855
0.07031653510734916 -0.08327163545096328 0.0961381332271663
0.07026402982829101 -0.08266805175501123 0.09585646398654568
0.07020252685124984 -0.08205894202355318 0.095524945290382
0.0705778878410532 -0.08240099468500449 0.09616351063863518
0.07064432024364994 -0.08152457064393806 0.09616077111172557
0.07064309906114258 -0.08062664989110357 0.09619506586064472
0.07060157894560466 -0.07973694027332173 0.09624774300386385
0.07056807340263024 -0.07882491074495504 0.09632273582974957
0.07051422786684781 -0.07785724596935525 0.09640484036113409
0.07034902134798038 -0.07702766891356078 0.09625815801571624
0.07024894218655955 -0.07630764667386022 0.09608891115842791
0.07024197194332277 -0.07558024673230847 0.09606541735672547
0.07007386475616294 -0.07485826185946995 0.09580909403866687
0.07045618231735998 -0.07451121249172696 0.09639119461678679
0.07063560526556657 -0.07366389365459361 0.096763928622621
0.07041276842011275 -0.07261299160073657 0.09621933378694268
0.07060362367795446 -0.07189165136268601 0.09658513199397979
0.07042701988734665 -0.07088431398865827 0.09608522848003902
0.07065918442933361 -0.07006648322999186 0.09646929773758375
0.07067836972846805 -0.0693010815872406 0.09648122026729831
0.0706287107832866 -0.06906276392840678 0.09634378152347166
0.07083897861498761 -0.06910838762228076 0.0968468113886282
0.05824487488380055 -0.10472277227868444 0.097820858198649
0.05877101981795696 -0.10397583153134383 0.09800852649336982
0.059002974007531156 -0.10447803790097282 0.09867036040191758
0.0593757270468202 -0.10298931167310299 0.09800509144552799
0.059474832102466825 -0.10368013914265785 0.09864839072427736
0.06005692903626497 -0.10204307074948543 0.09787112016386208
0.06015996837538324 -0.10270199477808742 0.0985395897859206
0.06083316838848581 -0.10110573579444132 0.09767159351617459
0.06091614154608549 -0.1017498872253515 0.09835135755232638
0.06157824425896152 -0.10016031052000106 0.09745327789060873
0.061667393688543994 -0.10079575859231808 0.09814290506345971
0.06220515817031046 -0.09925070403549782 0.09719913119159415
0.06237398644625339 -0.0998376858101121 0.09791829967168866
0.06259544559320723 -0.09845870814420733 0.09692877875961181
0.06307900665802381 -0.09873749726322154 0.0976234721541874
0.06386670438009194 -0.0977127425958702 0.0976301413116343
0.06451490558674988 -0.09685523580157221 0.09761279147156268
0.06512448816374124 -0.09605596734427549 0.0976005688941807
0.06566111704986452 -0.09524037780164869 0.09753477292719699
0.06637861377299471 -0.09429072937573076 0.09751315940498775
0.0668096729567118 -0.09322409620024755 0.09727602026559268
0.06719026923495024 -0.09242376742384141 0.09718166085167962
0.06755178063021838 -0.091778528911417 0.09719532822978082
0.06800857093144927 -0.09136757034086242 0.09745824432906645
0.06794395524910136 -0.09054760366705489 0.09711940954004274
0.06838128436948339 -0.09091627278835866 0.09759413841519411
0.06800349541614556 -0.08982439937724626 0.09696471905671558
0.06844698276090015 -0.09029848428169505 0.09746542434413391
0.06803799378010397 -0.08934455721115978 0.09687478861471252
0.06843022144358211 -0.08951059610905598 0.09725851853593755
0.06863144087285204 -0.08883809007715202 0.09717875219830605
0.06879269592475838 -0.08818181642668997 0.09706467114219285
0.06926075923000502 -0.08882172102021406 0.097569371724868
0.06879195147311007 -0.0875373683846468 0.09685594686212681
0.06942973992370559 -0.08791911240879509 0.0973902453924124
0.06983283502829557 -0.08708561758095423 0.09735021786654337
0.07023477835308667 -0.08621310913343115 0.09730974874428007
0.07037763494748989 -0.08534646810399886 0.09704553575209433
0.07065693323688525 -0.08488945099127818 0.0970635988184661
0.07043911810350023 -0.08437861651041584 0.09671345944509929
0.07070995834486912 -0.08431517925794293 0.09685695223888585
0.07067268669108744 -0.08371354542707862 0.09661506453586537
0.07057497144147037 -0.08311069422811798 0.09634414077772661
0.07101058402844636 -0.08348467605845103 0.09692711688452724
0.07106860041363551 -0.08261550369484581 0.0969623698805591
0.07108620523680964 -0.08172660744942602 0.09699101746506895
0.07105385716597008 -0.08084823849095042 0.09702938229992858
0.07102991000272244 -0.07997084340900565 0.09710547451839703
0.07102745098983378 -0.07907870743385502 0.0972157206813014
0.07100276279068217 -0.07825713857896936 0.09721128362199953
0.07064023164108417 -0.07739905778460406 0.09671483693575658
0.07095625879180088 -0.07760885820959895 0.09716423719219137
0.07045341228380897 -0.0768817519085715 0.096466510235369
0.07069029776119558 -0.07687377139938102 0.09681297247696155
0.07057224610010829 -0.07606325072232527 0.0966151604137368
0.07045356478027764 -0.07534372384874678 0.09640092385942348
0.07090319973780916 -0.07573357608109155 0.09714813990831894
0.0710030656901381 -0.0747639677515291 0.09737365914850561
0.07105771157954666 -0.07391204041069192 0.09763143982329293
0.0708110878181602 -0.07292345491730917 0.09711786665573957
0.07098449931494125 -0.0722103104255745 0.09741647617438866
0.07083568365563615 -0.071184566082966 0.09694242164935804
0.07107997217099979 -0.07058133461034223 0.09741962333833945
0.07092027983212318 -0.0695929926554275 0.09711243560872482
0.07126174697488355 -0.06913296066206483 0.09766223506640413
0.07140987778729295 -0.06872834927481168 0.0978054544015428
0.05938193731425711 -0.10497145145018631 0.09946990620909196
0.05960521491612533 -0.10432165950553934 0.09932924595386014
0.06020620523683841 -0.103376701641265 0.09921847687685241
0.060974076438228345 -0.10237304841190775 0.09905810367315687
0.061684063184142116 -0.10143603377308927 0.09884027167032941
0.06240827855913038 -0.10054253203694646 0.09863223902401778
0.06319975854845811 -0.0996007439777169 0.0984815134211122
0.06394439815031931 -0.09857801770350601 0.09837149611319686
0.06457350532308924 -0.0976092359593331 0.09828873672194266
0.06516216756690077 -0.09676947433751727 0.09822591288501911
0.06575216753834928 -0.09600620494479357 0.09820113945170829
0.06644667457803193 -0.09531007052245812 0.09824773460927802
0.06717371206480476 -0.09467546425635373 0.09830342811043737
0.06725223137230908 -0.09382700188979301 0.09793705212016678
0.06769908053376407 -0.09416421405507999 0.09838247598015401
0.0675165750578927 -0.09304526592812574 0.09775070860081614
0.06791537811807861 -0.09356544424683687 0.0982549446044209
0.0677897934542681 -0.0923594283850375 0.09765216586842598
0.06816499119391195 -0.09285097636260399 0.09811968805325826
0.06792456164822594 -0.09190030925532068 0.0975908634998232
0.06831876926243696 -0.09207647093678878 0.09796028307538254
0.06863498773744627 -0.09144453118097327 0.09793872679711127
0.06889942212645812 -0.09083046891585735 0.09792152718538599
0.0693191908964875 -0.0914567802874944 0.09831819414749027
0.06900825422987199 -0.09007812132794628 0.09780459357097544
0.06959727205163217 -0.09070202310653058 0.09827728481981717
0.06899089653751485 -0.08939598422012801 0.09760314550026059
0.0697197493722281 -0.08973197959231252 0.09809021883086312
0.07001870395809603 -0.08882716469185961 0.09800590231245425
0.07028976726574362 -0.08802870633366394 0.09793403777019379
0.07067445416551031 -0.08730723573086054 0.09800009232033383
0.07098583447561128 -0.08665799361052656 0.09801023548801202
0.07078545169209703 -0.08588514657571676 0.09756350997600037
0.07116824975640858 -0.08613670974333233 0.09798995381259819
0.07074668223003848 -0.0854094566680954 0.09733097049391501
0.07107159184902856 -0.08549412132287974 0.09764944318779767
0.07108070562194928 -0.0848066029579128 0.0973560656093368
0.07101472453963945 -0.08419501290012504 0.09706564418804693
0.07144485376665091 -0.08457851030503492 0.09769648487575368
0.07152863829310122 -0.08368948642649728 0.09773326344847574
0.07154115091842099 -0.0827918566332051 0.0977531466819587
0.07149347523666535 -0.08190858289736135 0.09778473981763178
0.07145266240525865 -0.08105749612670367 0.09785439457020915
0.07146966572434513 -0.08023092001063804 0.09797185256339143
0.07146158238168014 -0.07947974897451404 0.09795976258320431
0.07121406195835951 -0.07890617936397447 0.09754942509323988
0.07137162347892353 -0.0787987405300561 0.09780367314857318
0.07127210694636667 -0.07814051794177114 0.09764684906990392
0.07114965595460192 -0.07738511248998889 0.09747254715636827
0.07157047328794441 -0.07806518000823198 0.09811824344258332
0.0709416350019739 -0.07659642165802974 0.09719597380875658
0.07144416542192686 -0.07698564691536293 0.09794189180118654
0.07146302219023486 -0.07591214528080774 0.0980867532705127
0.07145506793942305 -0.07488354480472571 0.0982589533479387
0.07132179167863509 -0.0740564658871186 0.09819753661446406
0.07122639115394672 -0.07326197564940264 0.09804581892709976
0.0712776015846996 -0.07242064795338661 0.0980455266821973
0.0712019559869657 -0.07161729019963697 0.0977579439645044
0.07155332790150147 -0.07126371542366536 0.09837057834902624
0.07135686641809039 -0.07002642679218177 0.09795236470128166
0.07173069597940115 -0.06951454452223416 0.09846405480936363
0.07166067040790564 -0.06879115912433555 0.0982410475673447
0.07200966615408036 -0.06854929342245358 0.0988088611621957
0.05961610748108657 -0.10532309683109667 0.09995757825001096
0.059809881961668816 -0.10490051460352812 0.09994942994351252
0.06028875332049741 -0.10404322834745901 0.09987734589755203
0.06100996922723809 -0.10304589080407418 0.09973993765608322
0.06181065901511049 -0.10198609848874862 0.09961465332091649
0.06235525374902337 -0.10113314477895421 0.09923428531423333
0.06314264463326474 -0.1004121262114773 0.09920063836992875
0.06406490101121512 -0.09943293796149154 0.09923148558856593
0.06473620251872823 -0.09833888684848786 0.09897798214987003
0.06527231884944794 -0.09744777328902043 0.09883904237106832
0.0658025900670507 -0.09667705448261854 0.09874262142212864
0.06630794939414579 -0.09604911339058497 0.09871275657322655
0.06692800346905728 -0.09567355784714018 0.09884377395749262
0.0670157339426187 -0.09522880292112283 0.0985436387978478
0.0674518342630324 -0.09516468233484465 0.09878766540450856
0.06785962125476211 -0.09463096633634166 0.09873145252731215
0.06825921308225011 -0.09405809478372221 0.09869133654445915
0.06845805072422735 -0.09460351029747406 0.09911819984335332
0.06860398336340827 -0.09338152546104736 0.09859483190820771
0.06897691997350067 -0.0939512441506873 0.09906204191153489
0.068837087495282 -0.09262300736870782 0.09844699168818963
0.06937032084530963 -0.09317223294504917 0.09893787726805607
0.06895130165318562 -0.0919840105456976 0.09828795888745623
0.06962483703499486 -0.09225692752364863 0.09873293824935911
0.07006781792323429 -0.09144028239756079 0.09873746814653707
0.07049006912151518 -0.09061555183813635 0.09872919757033274
0.07058262516340848 -0.08961348457685822 0.0985534540302139
0.07074345629360053 -0.08880856522252975 0.09843302065728572
0.07095282580028606 -0.08817136588541793 0.09839241722133021
0.07128162286624204 -0.08777669389152688 0.09853722951839772
0.07109406992685681 -0.08723374571062927 0.09826997254901577
0.0713998207200812 -0.0872031718839918 0.09847379346775118
0.07145969697949185 -0.08663117629122724 0.0983701931207147
0.07148747601425139 -0.08598389973247539 0.0982244741933015
0.07187712754768824 -0.08663076271771454 0.09873620238790662
0.07141494500511142 -0.08531300351153752 0.09790263302934425
0.07187594939869019 -0.08569015571702476 0.09851561619479154
0.07198592549011357 -0.08476273876214893 0.09848906524016346
0.07201479713120028 -0.08384705934856294 0.09852263228601264
0.07195371630932916 -0.08291372376310585 0.09853278155790829
0.07185565572034251 -0.08204963103065155 0.09854252281411144
0.07186542946275867 -0.08129673155478027 0.09865272461790854
0.07189073605202935 -0.080618534703533 0.09867437527233078
0.07165592009963122 -0.08007585477486882 0.0982882429091634
0.07181622442481188 -0.07995425098586943 0.09852214413692537
0.07169686521039953 -0.07929832672927231 0.09832736026795062
0.07157780011187087 -0.07868015872298495 0.0981235566636968
0.07196915723720688 -0.07904151974272779 0.0987364179434586
0.07200394713730784 -0.07809202167205684 0.09877420013981138
0.07198159963553952 -0.07707539922165328 0.09881522635437966
0.07197403961935951 -0.07604365109671178 0.09899633021578418
0.07180967083654767 -0.07511830809996287 0.09889971628116119
0.07156937396196063 -0.07441458874607682 0.09861997870065568
0.0718654225930047 -0.07472519083267479 0.09908030100609527
0.07141924453247801 -0.07389216439954971 0.09843026050620096
0.07170759335941938 -0.0739067174402534 0.09885404577396562
0.07159315078975434 -0.07293390211396739 0.09858841868107329
0.07150445768937658 -0.07213427385633416 0.09836451663376491
0.0719373065367781 -0.07250028103774336 0.09906083751696795
0.07202911616665782 -0.07157110477449634 0.09925711497662836
0.07184326836950812 -0.07055788258140855 0.09881358817900807
0.07228542323959593 -0.0701291392663241 0.09940207033736409
0.07209901025387645 -0.06902038213112593 0.09900714490478474
0.0724306498732028 -0.06856962371469437 0.09947187520455933
0.060077076392072264 -0.10521751738148218 0.10038905098278242
0.06047910027869742 -0.104649730922088 0.10045542020128312
0.06084887097372189 -0.10504837796805402 0.10099257725405932
0.0610705126794007 -0.10374161311168015 0.10035366104310899
0.06126349563261733 -0.10433002433021465 0.10093231151508082
0.06174654167808376 -0.10278956141278951 0.10022400009556603
0.06185801112816684 -0.10339429984307634 0.10079002943676711
0.06236162169680784 -0.10206035657487264 0.10014752162046957
0.06252474680822905 -0.1024792823213702 0.1006069074762564
0.0629842074233742 -0.10176260770631401 0.10037861334119293
0.0628590510179191 -0.10128279859123251 0.09983151397769345
0.06376656290275147 -0.10044789614166509 0.09983773103775316
0.06460984408177867 -0.09978759241512973 0.10007178354734164
0.06495964469240571 -0.09889216312403319 0.09967711352143012
0.06523151112232908 -0.09919134308068907 0.10019059781181043
0.06546187306041121 -0.09802783652666855 0.09946776550854732
0.06567985650391661 -0.09853602079909161 0.10003753019289845
0.06596128286771787 -0.09724306354197479 0.0992907734426111
0.06620671347922476 -0.09775554879353418 0.09984964359869568
0.06640610201858693 -0.09653738830209645 0.09914211064525669
0.0666958166914961 -0.09697764808825984 0.09962936629289557
0.06664658193965546 -0.09610736160927374 0.09902681756917533
0.06706095896356545 -0.09620572677415694 0.09935263055977703
0.06761253586493178 -0.09558021595815334 0.09919807937777796
0.0679890108056291 -0.09507188860019433 0.09908083105062372
0.06843672165665275 -0.09533313476887624 0.09949608889359686
0.06919950050973586 -0.09461921959952486 0.09950094847645431
0.06988792906125234 -0.09384866366260164 0.09949473536733569
0.07019751726422131 -0.0929260129291421 0.09927473621879349
0.07047783777417918 -0.09212961423761899 0.09914495098853514
0.07080683463950621 -0.09147701401428515 0.099113150598138
0.07128430915115058 -0.09104600328519491 0.09929818497807512
0.07117765297519711 -0.0902104018103903 0.09903618161656587
0.07162320523978065 -0.09055800249369367 0.09943315152998697
0.07121800495345439 -0.08943564442947526 0.09889001501907212
0.07166830656771532 -0.08995545187756568 0.09932780977261355
0.07129917861816733 -0.08874611069272008 0.0987591252936046
0.07170883844772506 -0.08923927364139031 0.09920375523073895
0.07133172161330167 -0.08830031940386639 0.0986634629962017
