# .PCD v.7 - Point Cloud Data file format
VERSION .7
FIELDS x y z
SIZE 4 4 4
TYPE f f f
COUNT 1 1 1
WIDTH 789
HEIGHT 1
VIEWPOINT 0 0 0 1 0 0 0
POINTS 789
DATA ascii
0.05858734598081707 -0.09335106424912044 0.0874061947241167
0.05923933729738742 -0.09258657461060157 0.08755696389168995
0.06004985016746914 -0.09196746558057288 0.0877799863568256
0.06016580116024711 -0.09124699090866589 0.08711486928181657
0.0611048559090451 -0.09078197748728326 0.08739228348776487
0.061211297512153 -0.09012074150715599 0.0867339835147395
0.06201996818953447 -0.08961627454989396 0.08690699616999083
0.06265974582249667 -0.08901134867686898 0.08703007550120127
0.06312550948869743 -0.08828023805929262 0.08714153487310591
0.06348412120156711 -0.0874667499008316 0.08723743219304872
0.06371746469620465 -0.086591848185939 0.08733280084143527
0.06389633160580792 -0.085702633321439 0.08743131538862604
0.06410421060001216 -0.08485485137736301 0.08756529317611887
0.06439838020603873 -0.0840897986852854 0.08773053511755197
0.06474919797544536 -0.08339603554215425 0.08793541533059378
0.06470738765092471 -0.08261881190676922 0.08722536402884758
0.0651912483121932 -0.08205296012278084 0.08747951017813205
0.06519787411888063 -0.08133617961203696 0.08677323787065497
0.06565887802948309 -0.08076414001725257 0.08702950533690813
0.06608004693252201 -0.08014717299665389 0.087265585415631
0.06646926400925328 -0.07949386927616756 0.08747301293287377
0.06681421812353744 -0.07889678701935486 0.08765759525903616
0.0664867308890802 -0.07772462626183553 0.08640606713030838
0.06679517428526979 -0.07818739427577291 0.08719804202483959
0.06690569282329939 -0.0774205314091878 0.08703986008010317
0.06675952981264749 -0.07664590217569914 0.08655203732930014
0.0670232302429679 -0.07681861059936791 0.08705895062687873
0.06691945584379504 -0.0763043674366404 0.08678054944101754
0.06703817458430057 -0.07565197366777376 0.0869602029701724
0.06720939152080427 -0.074579583360879 0.08726772805018278
0.06700665101170951 -0.0736759738885662 0.08708397052167513
0.06676225939543934 -0.07322691765643745 0.08677701838043818
0.06700648092039481 -0.07307448380898438 0.08718498702313698
0.06666109819293291 -0.07222905321644474 0.08672929527322903
0.06638879184153264 -0.07176564662262586 0.08636327193208977
0.06687742287734146 -0.0719698347289067 0.08706667816268435
0.05779031185987399 -0.09654040068121507 0.08855171019047814
0.05791888743079643 -0.09599742059379711 0.08838730245838669
0.058215568571563625 -0.09515556631627858 0.0882497415077135
0.05865393271086352 -0.09427239952713491 0.08826397014868799
0.05924307555711663 -0.09345848427596226 0.08834584887859785
0.059975283765394245 -0.09273626959783579 0.08851009931105279
0.06085610165267779 -0.0921163197799305 0.0887432170282058
0.06100632744411587 -0.09143611075255473 0.0880578673963312
0.06184870787697649 -0.09092593779761911 0.08833036931173024
0.061973438834269534 -0.09030356138193808 0.08763212573463426
0.06268968823038452 -0.08976290258826934 0.08781465197974929
0.06330772441649371 -0.08914929554675707 0.08794349899828888
0.06373153712639201 -0.08841386835383547 0.08805812231297991
0.06402409518806493 -0.08759168543395443 0.08816486017981223
0.06423424608290165 -0.08672852875143389 0.08825075047855196
0.06439041974487578 -0.08584493173545545 0.08835748655504187
0.06459589754301168 -0.0850103736858691 0.08848712610722494
0.06484394444138313 -0.08423551234815134 0.08865150630917186
0.06516805278884205 -0.0835412093714198 0.08885784001277487
0.06517303737522298 -0.08277886683619981 0.08816975409801901
0.06561912144205057 -0.08219863559721056 0.08842853468245016
0.06565494524331486 -0.08148598535191125 0.08774291317448542
0.06610644084368278 -0.08091565648577935 0.08798717398990294
0.06654849783822339 -0.08030985228157059 0.08821740216974291
0.06698720458359687 -0.07963767451596546 0.08845513738709476
0.06713187008077916 -0.07898046735293035 0.08826432217068365
0.06708693785741744 -0.07846088906695947 0.08786942273360734
0.06734196964676514 -0.0786578820806416 0.08843340498162125
0.06705376391097319 -0.07801705335480444 0.08754912594478717
0.06735647819141974 -0.07797276973942176 0.08807603274185627
0.06727446038929034 -0.07715588863755103 0.08762729666520724
0.0671833689409413 -0.07653443133535692 0.08729190260702348
0.06755826930004522 -0.07669156655587021 0.08799478518431188
0.06770160026124117 -0.075790354670816 0.08807315929940099
0.06785889460434151 -0.07501088794925781 0.08834475227428336
0.06746345832072247 -0.07400329738782668 0.08775600940639411
0.06757892284522667 -0.07337141278195415 0.08807165031314254
0.06717510699901419 -0.0724952279660115 0.08753448568595498
0.06739498254472913 -0.07204022399060933 0.08792928067660798
0.06761154476952339 -0.07169990625284943 0.08841669291298895
0.05799680005993539 -0.09657354418102462 0.08900292931315083
0.05830391029099935 -0.09606365308246806 0.08915478378713432
0.058759841156333155 -0.09520005895098352 0.08918385084205631
0.05927610387732987 -0.09432956321767051 0.0892245315334349
0.05997115480572908 -0.0935493879891095 0.08930863618152216
0.0607108139847424 -0.09283493518755989 0.08947672797905007
0.06149121426994803 -0.09220095754428623 0.08970724690142529
0.061689176717035867 -0.09154082223500142 0.08903177651234877
0.06247387525599686 -0.09102513859232768 0.08927558836689144
0.06261372254619052 -0.0904237912673043 0.08855111969772993
0.06330399135914042 -0.089876689424783 0.08873186488967943
0.06386286804607405 -0.08924640061942155 0.08886975263639697
0.0642454417219446 -0.08851575272247313 0.08898076066510056
0.06452264047258331 -0.08771006059722294 0.0890807878574102
0.06468981305762696 -0.08684916435440372 0.0891525061951142
0.0648446294994243 -0.08597986925713624 0.08926130691363605
0.06500324079200916 -0.08513597466598806 0.08940036674504259
0.06524578237278349 -0.08436763675245243 0.08956894934021038
0.06556996294340672 -0.08367584461392942 0.08977781843455829
0.06556030361095802 -0.08291475429392109 0.0891015565521772
0.06602846843297835 -0.08235389736883268 0.08935148683108782
0.0660871876215954 -0.08164527565933659 0.08867626928072003
0.06655274529019395 -0.08109164808194648 0.08892137183769201
0.06701645101134877 -0.08052018788164794 0.08916168159136176
0.06746336635987553 -0.07998423294500345 0.08943854756366207
0.06742279577857578 -0.07923069187096037 0.08889352037726173
0.06774133525314453 -0.07863323255694156 0.08903218963957563
0.06775846851697959 -0.0779462377254339 0.08871968367428518
0.06759083378745111 -0.0774515350179149 0.08825136553366146
0.06792840004600918 -0.07745173265321696 0.08881435259738941
0.06808810665452034 -0.07676383708612802 0.08888228154779311
0.06824735309877565 -0.07602593155376587 0.08905111762109068
0.0683507695015422 -0.07529308001400409 0.0893040377326062
0.06798918938549442 -0.07432685900010676 0.08866946556980582
0.06803895567448279 -0.07361927065556875 0.08896083707611158
0.06770142457004569 -0.07272537908264443 0.08838016298119843
0.06778213554843662 -0.07209955880402813 0.08868810994187401
0.06788593616489881 -0.07175388225269959 0.08904989572727776
0.05839360498266784 -0.09685711390256534 0.09012116311904261
0.05882788412686103 -0.09612681390025928 0.0901263725247254
0.0593464020239084 -0.09522823692942395 0.09014323648506696
0.05992549853008459 -0.0943812286030511 0.09017959472817699
0.06062148063388979 -0.0935944277386309 0.090290520053668
0.061312093312602726 -0.09288282140358103 0.09045608888558804
0.062079666503620554 -0.09225094882168951 0.09068303854033999
0.062267666350606224 -0.09162608151935507 0.08997214214086983
0.06305487883493828 -0.09110268630772639 0.09022714445788486
0.06322814211034404 -0.09050836627800705 0.08949519950002478
0.06386041002768861 -0.08995510038497033 0.08966316191802627
0.06438848710329832 -0.08934075626938466 0.08978268005890405
0.06476057476793694 -0.08862015554722551 0.08989593086805017
0.0649841656091446 -0.08781987502689237 0.08997643110132267
0.06515045995089055 -0.08697576137042898 0.09004445618246959
0.06526871983360885 -0.08610475533815938 0.0901569576245254
0.06543254388510017 -0.08526951740423408 0.09030522444533329
0.0656866161864585 -0.0845068274824092 0.09048264037282563
0.06604760839527601 -0.08383681207449062 0.09069023807525166
0.06599705998523589 -0.08307398803307046 0.09000507711634305
0.06646935310260524 -0.08252599084481745 0.09024751751143534
0.06651094807208549 -0.08181726398622978 0.08959164416391156
0.067015930673175 -0.08129845042933183 0.08982813987265978
0.06750243811896131 -0.08077598424992553 0.09008725057366208
0.06795092533573725 -0.08024986333365833 0.09035340920166504
0.06786463850465203 -0.07946465906200251 0.08971191231122945
0.06821772543082011 -0.07893186942460821 0.08996964726040715
0.06809312757465555 -0.07816680655932487 0.0893981847233976
0.06833095081616007 -0.07759808221525533 0.08959350284973926
0.06851939614568593 -0.0769485724580038 0.08976822110302929
0.0686654262621962 -0.07624825161452015 0.08998008936129553
0.0687547130673487 -0.07552171448942578 0.09020641788380428
0.06841473638219828 -0.07456904876474224 0.08957208193757007
0.06842615998705204 -0.07384306784150728 0.08984073674737571
0.06807162430395232 -0.07290722749517534 0.08924000833802945
0.0681034753645499 -0.07226841435977166 0.08954687970235477
0.06821891358168143 -0.07190326866546175 0.0899295193228769
0.05835426442753328 -0.09783288805576583 0.09136171273322354
0.058738164054415655 -0.09707344971260864 0.09112530820105995
0.059316773647853774 -0.09615756872138959 0.09109839275605634
0.05988484166190518 -0.09524003686102488 0.09110884191068341
0.06053123092169062 -0.09440309429908897 0.09114483643964452
0.06120999108465888 -0.09362620543661798 0.09124993380469265
0.06192056990283476 -0.09293403672617824 0.09141540889293928
0.06264858982365479 -0.09230247195866335 0.09165587532287961
0.06283189860952881 -0.09167858191020352 0.09094595716693687
0.06358988100310674 -0.09117350353694774 0.0911844647140997
0.0637599495810739 -0.09057663551725176 0.09044941517373849
0.06440771440892913 -0.09004460327107233 0.09060156283584277
0.06493601767736079 -0.08943820446265278 0.09073081304314001
0.06526299227138287 -0.08872742925064554 0.09082234604557013
0.06549791351090696 -0.0879498406848704 0.09088272452003358
0.0656286402177765 -0.08710261522970819 0.09094983916694041
0.06574268496883168 -0.0862409029536581 0.09105891517254511
0.06593025850876827 -0.08541609784684584 0.09122784163573941
0.06619650773217126 -0.08466400633437789 0.09139905702143292
0.06655746365399275 -0.08400570532668573 0.09160518863417082
0.06648689857390891 -0.08324642760051856 0.09092279336592793
0.0669635590488351 -0.08272693132821647 0.09113984905164664
0.06698401711066648 -0.08202514210134067 0.09048579679532072
0.06749395302617019 -0.08153040424912492 0.09075386792173559
0.06797952861201327 -0.08102810181048589 0.09101889241302698
0.06843490672050748 -0.08050620477867762 0.09126195607357197
0.06835152595685809 -0.07972420261415908 0.09060009529822179
0.06868924932178624 -0.07919100610810077 0.0908339827920871
0.06851612649027222 -0.0784014165126122 0.09022031244103346
0.06874771587508019 -0.07781719605130907 0.09044100550521728
0.06891542903850988 -0.07718149646580637 0.09066032460810365
0.06902045974790559 -0.07646952346772767 0.09088068650208982
0.06904944959913756 -0.0757389113085452 0.09111928139879429
0.06876938154490228 -0.07479833308510044 0.09046592745044121
0.06875318243390939 -0.07406532489888125 0.0907469230779958
0.06841692376217606 -0.07312453533498188 0.09013087174822215
0.06844795098399388 -0.07246007306900105 0.09046356539799782
0.06853727011727162 -0.07190699093250696 0.09093201660738144
0.06858604988772331 -0.07146333314038238 0.0915352189316133
0.058187132647109806 -0.09886745594592267 0.09240544885425386
0.05854801715332563 -0.09807367857947935 0.09214382242782675
0.05919695758807483 -0.09712968072447806 0.0920738379858534
0.05983501004549218 -0.09616229050713015 0.09206067923612118
0.060495651019957186 -0.09526631792925117 0.09205226800851202
0.06118722223546396 -0.0944255441463678 0.09209550473850972
0.06183777704349365 -0.09365626737203397 0.0921906051171464
0.06254202155851138 -0.0929812476246679 0.09235571821782483
0.06324530746836259 -0.09238174676892391 0.0925844290635261
0.06338848354033572 -0.09175846000827674 0.09190094574670858
0.0641628594393573 -0.09127173165961848 0.09213247024258857
0.06431634621269797 -0.09067214858039985 0.09139382681205425
0.06493894253793997 -0.09014768315583607 0.09156661638681388
0.06540451436179637 -0.089553517903039 0.09169498324223309
0.06574616229142821 -0.0888556128824671 0.09177162311534214
0.06595519281604012 -0.0880630066577938 0.09183991183859182
0.06608802361911258 -0.0872177276741762 0.09189208535625568
0.06622854726311667 -0.0863746451418927 0.09199769696259204
0.06643538739028036 -0.08556272713339565 0.09215115637700778
0.06673205472783524 -0.08481473197646874 0.09231979602615707
0.06707992650829164 -0.08417401149959426 0.09247278838946572
0.06700736729911295 -0.08344616554763389 0.09182714006664541
0.06748671484559644 -0.0829536484209602 0.09200563715690788
0.0674684403777363 -0.08225770645875963 0.09138345707600148
0.06799815555931374 -0.08181251855709509 0.0916861823758386
0.06852026492669504 -0.08130749155263896 0.09196223922005328
0.0689488914604176 -0.08075277137462414 0.0921318156745795
0.0688329595833979 -0.07998627582602683 0.09150246993137551
0.06913657567080692 -0.07944855690111165 0.09166427556223218
0.0689490588496525 -0.07865146709798769 0.09105357566585452
0.06915452659774111 -0.07810175706763217 0.09131277131809022
0.06927731552594107 -0.07744534608056672 0.09157281689364236
0.06930032558128844 -0.07669075366468531 0.09179649980286299
0.06928290167175866 -0.07593259839817373 0.09204769188065065
0.06901770352813906 -0.0749938448204724 0.09138821093736445
0.06898954933660449 -0.07425545896022244 0.09168836534135073
0.06871153183940659 -0.07332205250818487 0.09105779658244645
0.06873485141682151 -0.07260682187737796 0.09140144374009213
0.06874730910267625 -0.07189654710734036 0.0917917253794125
0.0687638821603289 -0.07132781334947415 0.09228419109909003
0.05761227558078793 -0.10105916683608372 0.09381571066280193
0.0579562038141219 -0.10008098123766804 0.0934104365844966
0.058412676911057365 -0.09909234362857276 0.09314073210559784
0.05904401383990177 -0.09811480138926848 0.0930653815456997
0.059761178867170875 -0.09713908440873804 0.09302917549190429
0.06044897841940312 -0.09618685360024776 0.09300205591359456
0.061197606011624876 -0.09528838017534318 0.09298860694794063
0.061868854350178235 -0.09443974732246316 0.09301056123815671
0.06252629736870698 -0.09367964124496578 0.09309291772399178
0.0631597769150361 -0.09301449929236852 0.09326060621217823
0.06382394527158546 -0.09247557365174444 0.0934812189789345
0.06399378939224351 -0.0918771543802647 0.09283148362145267
0.06468656038718176 -0.09139050017473743 0.09302998753992138
0.06484215274764561 -0.09078160856327276 0.09235155590177767
0.06541158080113797 -0.09030769930155706 0.09253801324755569
0.06589703942290781 -0.08973569045799816 0.09266282667391312
0.06622936809330199 -0.08899047486622261 0.09273903192768264
0.06642555499313924 -0.08818172016032895 0.09278512642256213
0.066571324671354 -0.08734608604883168 0.09285076051493135
0.06673161828155484 -0.08650692859895058 0.09295553310252466
0.06698432561656968 -0.08569640575134672 0.09311021396594993
0.0672667131550716 -0.08489014322065684 0.09323617971154556
0.06742655971235408 -0.08428079862195664 0.09307732752884193
0.06759072518402268 -0.08370750410597212 0.09281097164103352
0.06789457977934264 -0.08309083953886155 0.09268063746172517
0.06795515468785976 -0.0825321578498721 0.09224016571036674
0.0685801933796834 -0.08223237142922864 0.0927641843580108
0.06913762592437722 -0.08151107476096901 0.09290136459544727
0.06933607764218709 -0.08091924618820154 0.09272874965311928
0.06938534379705211 -0.08029851669464314 0.09244005675763921
0.06947642257446765 -0.07961849295195118 0.09227153648669598
0.06935588756237515 -0.0789631503531317 0.09185350827092788
0.06961158224620127 -0.07856205790726278 0.09232110975230046
0.0696381596585031 -0.07771170821780622 0.09250754334190517
0.06958430608163661 -0.07691007942091105 0.09272125722048093
0.06954700313554042 -0.07614910717783112 0.09297226329435049
0.06925514308095364 -0.07519145630776286 0.09232431545222536
0.06926368593377816 -0.07446713937956727 0.09262761924720846
0.06896167353931597 -0.07351767011656112 0.09200994456107738
0.06899203087814479 -0.07277973711818861 0.09234499858106017
0.06902980433267338 -0.07203299803624107 0.09269283134705071
0.06907995932301822 -0.07135425752413219 0.09306360527825017
0.068901774104957 -0.07092477980540826 0.09282488799774935
0.05750421015273899 -0.10177787870910485 0.09444793257628653
0.05779444248200159 -0.10104570968580778 0.09420694514492936
0.058317279970270454 -0.1000679993926257 0.09409090301863472
0.058955350961146305 -0.09907093272369298 0.09402941630058381
0.0596756175832165 -0.098095209841094 0.09399469461803334
0.06048875880445467 -0.09716646285805047 0.09394163253617922
0.06127159819924881 -0.09622687388588284 0.09392570135778486
0.06199495076705545 -0.09527178020127029 0.093906101687741
0.06261535633182429 -0.09439553421798927 0.09387720591987074
0.06318771849149961 -0.093655175648872 0.09391347111844549
0.06373086243937098 -0.09306882082248803 0.09403732459968035
0.06432653291595418 -0.09263742266836833 0.0942193501996996
0.06462988398933962 -0.09202113939435101 0.09382978969273638
0.06508088306855493 -0.09146823215464017 0.09367686732153267
0.06526380648460267 -0.09097447451840526 0.09321063369724415
0.06590885406540928 -0.09066185123324438 0.09360591868344022
0.06643412944415285 -0.08990421219682551 0.09366884023112618
0.0667191157853672 -0.08910803882940291 0.09369579283544092
0.0669047734923392 -0.08830208458684065 0.09372383233177095
0.06705546932412956 -0.0874666949951778 0.09380659955304953
0.06728880061570974 -0.0866510797599067 0.09391601326671363
0.06758914891978268 -0.0858142022839397 0.0940804783190946
0.0676653856594423 -0.08507992757945139 0.09390630490294943
0.06764570590214977 -0.08455265978486888 0.09356986862264856
0.06793780901268132 -0.08480683814440204 0.09409775926635307
0.06766188527886882 -0.08416818757942122 0.09330802934999059
0.06804250936280853 -0.08418187380376149 0.09378850357356673
0.06815438562401076 -0.083446739951344 0.09334777391541452
0.06826941771663148 -0.08287880414135587 0.09296456366236287
0.06876431505201548 -0.08316088610967873 0.09374866528866649
0.06939178591404184 -0.08244820043380544 0.09383641603701927
0.06961082050802939 -0.08175752757996661 0.09358665038614633
0.06957065615659856 -0.08122223403461191 0.09322127904442835
0.06988018312563055 -0.08149701725511867 0.09374143449587796
0.0695564498914101 -0.08082373349404955 0.09294851390502869
0.06986421644328467 -0.08083380135790248 0.09338709398798786
0.06977149237806721 -0.08000850134974298 0.09289324337282458
0.06965878329777568 -0.07935496483397254 0.09251525125424834
0.07001952175745582 -0.07961484217821745 0.09323082540716009
0.07001335641474234 -0.07875555128713703 0.09328762408691843
0.06995704377167028 -0.0779189217556902 0.09343367852162326
0.06986269241772519 -0.0771142691947046 0.09363565974555314
0.0698258161383884 -0.07635541071677193 0.09387481469990486
0.06953743399034117 -0.07540752079277803 0.09324464449788814
0.06957191835220591 -0.07469338881251614 0.09353472435790043
0.0692768377830804 -0.07374497209678699 0.09294568335822653
0.06935994236515228 -0.07301845410976558 0.09327201264148695
0.06945384043602452 -0.07226559413882294 0.09358840189115689
0.06954611391014504 -0.07153385120833723 0.09385018419242451
0.0692563146186522 -0.070856821538154 0.09346683432183704
0.06957339275243113 -0.07048974116016146 0.09401143829241469
0.0575089586510545 -0.10261101946089009 0.09524511102955674
0.05772612359564781 -0.10190023156956309 0.09505587135862928
0.058269614526503324 -0.10097773739281049 0.09496916096260313
0.05894502026714059 -0.09996870037305129 0.09493916724862887
0.05966692264543518 -0.09902576143029372 0.0948738944558176
0.0605002878259679 -0.09811632434428501 0.09482138034605593
0.061351719860140874 -0.09723415843766678 0.09481309774662686
0.062246592269784906 -0.0962552736006748 0.09489442951085718
0.06283185257738497 -0.0951476441038798 0.0946861290496648
0.0634456810550563 -0.09425667314612754 0.09469761700186338
0.06375313340962396 -0.09356345107706718 0.09453017593263995
0.0642999576735392 -0.09316770475640383 0.09476118827756923
0.06482039370292346 -0.09271672145782636 0.09479739179042324
0.06471327745123236 -0.09240229183922966 0.09436656247188596
0.06507982260468352 -0.09224394027180884 0.09456092920404865
0.06529771941497622 -0.09175691674138824 0.09426305446345304
0.06551054761943562 -0.0912774001562042 0.09389171796236517
0.06597167838835002 -0.09151595722377745 0.09460914420711325
0.06658964211785338 -0.09079710145224057 0.09459801488695625
0.06697810554864608 -0.09002370741359952 0.09460888060999877
0.0672347136452538 -0.08922674241360251 0.09461271019839428
0.06741715171596648 -0.08841730382857427 0.09463786950741337
0.06761479494104208 -0.08761206349769148 0.09472300854998388
0.06786055713324854 -0.08683297670882345 0.09485188644975466
0.06817385021292804 -0.08620602054891273 0.09502312738044363
0.06805132345847158 -0.08541617742429253 0.09452527955426415
0.06842550846598416 -0.0848759945582095 0.0946625097919676
0.06856143632347735 -0.08426236514205611 0.0944238235067809
0.06848706205438025 -0.08378393026635181 0.09398857236180048
0.06899210302091514 -0.0839490317921662 0.09456604508524794
0.06951567659313176 -0.08345659118543221 0.09468627571324312
0.07007581826807356 -0.08295708494507435 0.09484279089396284
0.06999975539052752 -0.08212452544624735 0.09423328809022602
0.07030534847671402 -0.08156957222085219 0.09425341798099365
0.07027644279882181 -0.08089609693706083 0.09394146317031676
0.07009161665102946 -0.08035996555535098 0.09350704458248536
0.07041073811214944 -0.08047802118144501 0.09403111422708897
0.07044850527096494 -0.07980714952104666 0.09409912740985774
0.0703944436188345 -0.07897438517640566 0.09418641067191363
0.0702934908809535 -0.07813623603007065 0.09432974811598255
0.07018378055613556 -0.07731841868684662 0.09451328377917857
0.07013989609875251 -0.07655356861005053 0.09474825374659035
0.06983182835225382 -0.07561655035543435 0.09415377638566959
0.06989718310481029 -0.07489439263120644 0.09438991114931966
0.06964054389017638 -0.07398223753472587 0.09383760803773854
0.06981858880817987 -0.07329493180672188 0.09418385105689492
0.0699705428224469 -0.07248815162873551 0.09450422106955678
0.06998469600938338 -0.07159336375287856 0.09459604857008128
0.06960699683836208 -0.07093620010413801 0.09402646357594677
0.06985639367510992 -0.07072493348363353 0.09448620916536664
0.06985737345160081 -0.07026783066235652 0.09449520240455012
0.057592697047839245 -0.1034311608522764 0.09597153869288348
0.05778573983269866 -0.10274725024779173 0.09582500954008366
0.058276032292855835 -0.1018314765748618 0.09577507792250547
0.05894184348364288 -0.10085103335406753 0.09573279697198106
0.05965656236222106 -0.09989376158774377 0.09567753339146691
0.060487398750065736 -0.09900131294438691 0.09560153465597575
0.061305782222336326 -0.09815979335165567 0.09558137402947876
0.06221150899077043 -0.0973988655722077 0.09568696104919146
0.06295948514130047 -0.09668306395179616 0.09582659218918875
0.06318096917033852 -0.09579472355421838 0.0954269673591206
0.06354111364072462 -0.09617715915816388 0.09594326039660474
0.06360781433336879 -0.09496192893366419 0.095323484399276
0.06390377902176173 -0.09555851412459747 0.09585950816870001
0.06398378642540956 -0.09436600086345255 0.0953380881846053
0.06443254826198146 -0.09477440828908125 0.09585630552530916
0.0643697276054895 -0.09414148633691743 0.09556037059281684
0.06413240571146206 -0.09378769767318476 0.09515637705723852
0.06469804259417898 -0.09345812054024732 0.09538345269386053
0.06472702846224561 -0.09307584124290079 0.09508912214396706
0.06512829810799795 -0.0930141398149676 0.09533709395177468
0.06540554946545935 -0.09253285729096629 0.09513996036463085
0.06557332886640234 -0.09207318069138497 0.09483071621910649
0.06605639166511036 -0.09233684708442845 0.09549412786030372
0.06672045194470073 -0.09164301978514003 0.09548882960219
0.0671905871925216 -0.09090205011711876 0.09549694188638193
0.06752358602138087 -0.09012157305950207 0.09549788668862623
0.06775301342831809 -0.08932549311024693 0.09549560358099046
0.06798717712297342 -0.08853747376490441 0.09552159813088226
0.06820191541304234 -0.087758199555403 0.09557925186473314
0.06849367628175715 -0.0870341073531478 0.09567467190228794
0.06857501619843002 -0.08640744304664846 0.09557200882118737
0.06866092030516287 -0.08578669519982554 0.09536922431228542
0.06895015761462682 -0.08519523222951932 0.09530802976636346
0.0689873790291047 -0.08462707597741892 0.09500755731425765
0.06966003813310273 -0.0844550057394673 0.0954301045842482
0.07022083543411045 -0.08385450943244799 0.0955380547841652
0.07063731820845144 -0.08334646794622068 0.09560430477497381
0.07061017512808411 -0.08252602484245676 0.09508741164414747
0.0707284353234215 -0.08187472700070725 0.09487049310163523
0.07062035772263407 -0.0812491436759078 0.09450787117815677
0.07087974342538654 -0.08093623129728775 0.09489193510506432
0.07086500899320444 -0.08007139959224333 0.09497010237003514
0.07077792280715875 -0.07920193917955556 0.09506023912716431
0.0706600733002521 -0.07834656804966747 0.09518463490191865
0.0705537615508892 -0.07750450722260292 0.09532973850030138
0.0704727291751908 -0.07676956478393272 0.09547603828866648
0.07022525895774877 -0.07583961395886586 0.09512513116522563
0.07018644396603575 -0.07499064236773767 0.09501525718039627
0.07003083476827793 -0.0742478938037477 0.09466063861834403
0.07036515719547179 -0.07369436418586571 0.09523619489292279
0.07036489928571725 -0.07276934418166468 0.0951700361544068
0.07022575415995966 -0.07227342776317898 0.09490742046212035
0.07045867410576807 -0.0721459554676395 0.09537284932619865
0.07021644998817343 -0.07115512251308584 0.09510259503410995
0.07011459328413304 -0.07044511766067059 0.09494472657288552
0.07041918506216266 -0.07076264624132941 0.09545872558664457
0.07008359067642855 -0.07012546236995508 0.09488601136749182
0.07044325974100622 -0.07029579133326805 0.09548836171934905
0.05786420593085251 -0.10457014748957802 0.09706203056871358
0.057701333713927196 -0.1041467181808666 0.09659670398802576
0.057883916414462964 -0.10351534277906992 0.09651669459952555
0.05833042683604477 -0.1026202892373476 0.09650346954221761
0.05899271558789091 -0.10163903403289652 0.096472689824681
0.05967901251177953 -0.10068398287539349 0.09640201324681943
0.0604976708937843 -0.09980479010057464 0.09628472818615873
0.06131731664344689 -0.09896998993781408 0.09619582097378569
0.06198811203223611 -0.09827180816744804 0.0961846778360457
0.06267917825946207 -0.09785470623498883 0.09636743761540614
0.06277453443671026 -0.09729855938718006 0.09606859796581738
0.06318692628739424 -0.0972575564939264 0.09634891294370244
0.06360204976484674 -0.09669714491886658 0.09631828737205111
0.06410824745382425 -0.09614337509877283 0.09631700304555446
0.06417146002826944 -0.0967468346726229 0.09679485456286485
0.06461071837484147 -0.09550364538481168 0.09630519329439013
0.06478041027990848 -0.09610538799564167 0.09681172193794606
0.06493898350159591 -0.09504948603298113 0.09631606203860088
0.0653788301807762 -0.09530622385515265 0.09679730578037087
0.06449946393058835 -0.09383183571616262 0.09551210052392824
0.06489899137694427 -0.09403215093129168 0.09582202956956046
0.06528299469424247 -0.09460456672577763 0.09633969992520124
0.06537473173299803 -0.09344555652411378 0.09580189572147607
0.0656400965212545 -0.09290505688312106 0.09564839586741845
0.06614365826477402 -0.09328634400689095 0.09624429940817386
0.06686324772040989 -0.09250608437699724 0.09628846313752674
0.06740380454150688 -0.09174775116134647 0.09630518764787398
0.06783070523332277 -0.09100437730888458 0.09631471542677969
0.06810830882828427 -0.09020462639645963 0.09631436385224261
0.06834416549918187 -0.08942987839953416 0.09628509678870076
0.06864510802889073 -0.0886712192216201 0.09639669331567766
0.06878147375343022 -0.08787824320103091 0.09625658060699772
0.06912031941590908 -0.08743632651694853 0.09641811096289639
0.06890297320601566 -0.08673923500504718 0.09599414873006833
0.06933761086450024 -0.08694922959090712 0.09642508065589113
0.06880475911833633 -0.08630953719742687 0.09576603505980448
0.06921989602758376 -0.0863451394776697 0.09607894639492906
0.06932591310008267 -0.08566983320199316 0.09584953163565335
0.06939178087819473 -0.08508059782942985 0.09558376390808612
0.07000520878493491 -0.0854877644214737 0.09624714495474723
0.07052301356724065 -0.08479747716021144 0.09624706416686726
0.07095361319353395 -0.08415360819003873 0.09626534410650792
0.07112096478088858 -0.08355134453441312 0.09609167403103475
0.0708675204429011 -0.08309182260713371 0.09565011051121258
0.07108787947808003 -0.08294111378489935 0.09576680304823597
0.07103861153769525 -0.08231273365746906 0.09542670781643894
0.07094089082910537 -0.08169323482260939 0.09509018016344623
0.07132291284374322 -0.08204789514851699 0.09576758453433534
0.07132758379725576 -0.08117881891173401 0.09578502052891279
0.07125204236875132 -0.0803018386783323 0.09584864523794655
0.07115254813146175 -0.07942677849802228 0.09592827041157385
0.07104957843041673 -0.07853675438266713 0.09602631623735967
0.07094249654138789 -0.07762578472322129 0.09612127041261513
0.07072629142608283 -0.07682369567692664 0.09593872988527673
0.07047960940160716 -0.0763937085738679 0.09562364510887611
0.07068893861136456 -0.07623441218607518 0.09596061404290471
0.07047376616661165 -0.07535605288380222 0.09561314120919627
0.0703422883606792 -0.07461408788953433 0.09529149902462149
0.070687809839363 -0.0748198845055059 0.09594274339361429
0.07092202364149351 -0.07418065144672423 0.09631207334083706
0.07069248250540187 -0.07312791140270654 0.09583837693589445
0.07086315341724105 -0.07245379447369152 0.0962241049905105
0.07063402202605537 -0.07148728657952719 0.09579149069513228
0.07077996588344748 -0.07081399893347214 0.09607949459351815
0.0709438196342057 -0.07022521544161345 0.09640058285880947
0.058042097661464155 -0.10418529012871999 0.09709683105055307
0.05825586174848261 -0.1046214314736946 0.09760688784322606
0.058416585418813866 -0.10482124018834282 0.09793659092004334
0.0584458471740843 -0.10334986678282095 0.09714859011198596
0.058607650526099585 -0.1039930610557106 0.0977190011237195
0.0590472211163645 -0.10238506391470076 0.09714563608815391
0.059188628975683284 -0.10306244047247444 0.09777356327665271
0.05973564619613336 -0.10141091877612259 0.09708628634067816
0.05983665413647878 -0.10208977135930818 0.09773166357910962
0.060500141334374466 -0.10050763951159279 0.09694997530486472
0.06059413868954545 -0.1011721443773008 0.09759095906766775
0.06136899969601353 -0.09965164726222026 0.09679165252286397
0.061424234596913145 -0.10027771161103509 0.09740033299223246
0.062040569393394016 -0.09886064733321208 0.09665611988037023
0.06221555828395401 -0.09940124283818509 0.09720321440456219
0.06236101847329582 -0.09837184290415245 0.09654631684016805
0.06274406271943417 -0.09852424868265788 0.09693868848318027
0.06333682703950025 -0.09779259038194524 0.09682510199413047
0.06369664260782423 -0.0972051127615463 0.09670680560214708
0.06405376208532024 -0.09757377958265416 0.0972935662252047
0.0647988802632502 -0.09680782916148102 0.09737585910479894
0.06546817329402245 -0.09607421948802025 0.09738799923830362
0.06603262621174448 -0.09541596782575318 0.09742420430207283
0.06563261568125103 -0.09396989148803982 0.0962510452231781
0.0662609651349508 -0.0944566933595917 0.09699898144344846
0.06708891134999997 -0.09342773560975742 0.09704490913306169
0.06765356314388297 -0.09257716805351843 0.097015679964836
0.06812248795914329 -0.0918593987580015 0.09701264495160905
0.06857502015522417 -0.09111908561665462 0.09712086443235539
0.06872010680382043 -0.09023121308223962 0.09695907903764525
0.0689188712434357 -0.08956678768361957 0.0969474984217748
0.06929249248518182 -0.08916183672207695 0.09717311224620798
0.06914606756620527 -0.08840921974842918 0.09679498047829137
0.06958007319428142 -0.08870240628769903 0.0972322597615108
0.06913993424586369 -0.08795565415133685 0.09662634845702668
0.06952862246535665 -0.08807613568089885 0.09698955451774513
0.06967842270962375 -0.08744027726674256 0.09687885654926123
0.06980829378073411 -0.08681932015973191 0.09670094165320098
0.07030470230706218 -0.08745238159291187 0.0972784170547473
0.06977501380652829 -0.08617243529695673 0.09639890429064081
0.07049615964772633 -0.08656592217214086 0.09704900387839019
0.07092595159035577 -0.08576663208073566 0.09695477279324342
0.07131870717884697 -0.08508871656665279 0.09692845583430601
0.07152209386126965 -0.0845057957778847 0.09683039311960127
0.07128771117871621 -0.08402987028658165 0.09645463162644792
0.07151716569242061 -0.08394075866486059 0.09658235677792391
0.07143631077012437 -0.08335513010565046 0.09631212940337186
0.07134834694055658 -0.0827582695233943 0.09599206560803036
0.0717526362142859 -0.0831221875252911 0.09660076972780293
0.0717849987801879 -0.08228405430879085 0.09660079615086073
0.07174676434320625 -0.08141803052363983 0.09664059962879029
0.07166528635157617 -0.08055991740832356 0.09669746783572171
0.07159338811243572 -0.07967233738569307 0.09677514584894042
0.07149540778077013 -0.07872583509505883 0.09686028299935266
0.0712878272774098 -0.07790126489719006 0.09672473837734792
0.07115160001795848 -0.07718238652039025 0.09656416137662753
0.07110864011245648 -0.07645887184827702 0.09654428658947153
0.07089541284349997 -0.07572862681541451 0.09630111640999595
0.07126875108757907 -0.07540002526457387 0.09686637073677065
0.0714039887621229 -0.07456165330903465 0.0972334985983941
0.07112319911997594 -0.07348784109883785 0.09670876479256393
0.07128101401155264 -0.07276775054423623 0.09706604956600343
0.0710493723825545 -0.07173443071070759 0.09658121369700427
0.07124340094377878 -0.07091337151904482 0.096952375287787
0.07121833917444138 -0.07013580012551587 0.09696439394760765
0.07115397966497782 -0.06989079823703036 0.09683211950482998
0.07136645346845465 -0.06994851465876482 0.09732208027490778
0.0587433582733703 -0.10443894776984225 0.09818374168258293
0.059312596957897055 -0.10370104353938098 0.09837331692947791
0.059538675512618114 -0.10419335728962453 0.09902052908093957
0.05997024589618105 -0.10272791236924272 0.09837542458764734
0.060054217256332816 -0.10340715303779222 0.09900268481143515
0.060709346994178216 -0.10180340922418367 0.09824053285762682
0.060800133072468523 -0.10244820905104286 0.09889516342442965
0.061548271443552606 -0.10089074250845323 0.09804114773368997
0.061620535744201975 -0.10152014927557976 0.098704904196691
0.06235256014935739 -0.09997076151310305 0.09782719533346249
0.06243249912908191 -0.10059010206911333 0.0984977581865933
0.06303070153577559 -0.09909252909566997 0.09758144825184616
0.06319721868760793 -0.09966095127390916 0.09827661617659009
0.06345323640729836 -0.09832536133881505 0.09732431550214965
0.06396229883944644 -0.09859935721700659 0.09799290257384251
0.06481062577373031 -0.09760961164337272 0.0980044792685156
0.06551121783865169 -0.0967894484089841 0.0979899354718623
0.0661707076028222 -0.09602838392933906 0.09798354096652252
0.06675028264245425 -0.09525527412952194 0.0979231767390847
0.06752131597187573 -0.09436353863800687 0.09790605976982836
0.06798235110079881 -0.09335155503645647 0.09768828021283457
0.06838793574448788 -0.09259988399093028 0.09760578219493812
0.06877221912985247 -0.09199823917027247 0.09762673357223174
0.06925484424208819 -0.09162122186478852 0.0978840478529022
0.06918194490858015 -0.09084040660886693 0.09756692993185313
0.06964828440604554 -0.09120884842439157 0.09801681605748327
0.0692398389645381 -0.09015211640912023 0.09742738851625585
0.06971334983498906 -0.09062154644391754 0.09790184746846983
0.06927221371170518 -0.08969164014139973 0.09734679432854439
0.06968719782135749 -0.08986436743550422 0.097711474648014
0.06989317926313648 -0.08922755524374291 0.09763284425783289
0.07005523610843302 -0.08860252094281611 0.09752257216012578
0.07055552651279898 -0.08923809785517146 0.09799272688271857
0.07004371984144836 -0.08797856872403699 0.09732310717722412
0.0707192484720187 -0.08837601963413905 0.09782009232324079
0.07112592705079313 -0.0875927606020224 0.09777285510142099
0.07152665249747336 -0.08677027166308329 0.09772458460547145
0.07165443153130147 -0.08594333714559668 0.09746311470873259
0.0719336834675545 -0.08552172536654525 0.09746818904521604
0.07168785532257527 -0.0850129598147424 0.09713862109158898
0.07196993638262766 -0.08497666180403403 0.09726086002276249
0.07190747844626211 -0.0843957645958508 0.09702841768426969
0.07177944672145843 -0.08380777656910567 0.09677254103669578
0.07224960451550674 -0.08420230175913308 0.09731957703516513
0.07227049966467103 -0.08337257488204436 0.09736318284049829
0.07225252879012063 -0.08251740970190609 0.09739944874477709
0.07218058929310196 -0.08167258547739079 0.09744377999423352
0.0721178547286836 -0.08082336778149891 0.09752486447699092
0.07207604392742589 -0.0799564729804561 0.09763813669501031
0.07201575134968936 -0.07914992899582464 0.0976385986475847
0.07160517566403177 -0.07828370897653616 0.09716394688344121
0.07193859749032527 -0.07850964395462857 0.09759561187862816
0.07138878506173119 -0.07776324495761358 0.09692757782813459
0.0716305262308846 -0.07776830685263414 0.09726120097113203
0.07146967026210323 -0.07695800627597373 0.0970743105745882
0.07131180024115016 -0.0762341395439232 0.0968707690423431
0.07178787121366496 -0.07664638988804799 0.09759200067069392
0.0718379469336931 -0.07568562577569592 0.0978146276932104
0.07184517268123104 -0.07483866319437285 0.0980716582921636
0.07154370346279956 -0.073826726190419 0.097580597557655
0.07168479609244262 -0.07311486934233571 0.09787064926526053
0.07148364233124833 -0.07206063775699371 0.09741099124689773
0.07169680457982402 -0.07146031027239462 0.09787432269015571
0.07147541959773161 -0.07044645361878718 0.09757972887675083
0.07179331667063289 -0.06999416870136126 0.09811510442621238
0.07191998127681755 -0.0695880309280069 0.09825469470057759
0.05991819575005381 -0.10467615603217054 0.09980365164714974
0.06016954691336825 -0.10403475806492193 0.09966927548998626
0.060827027363306994 -0.10310729850414743 0.0995599657900507
0.06166316278879614 -0.10212577676835219 0.09939819340877187
0.06243454422094305 -0.10121409977909158 0.09917785127250182
0.0632194881998444 -0.10034741650591164 0.09896846772505029
0.06407664444701008 -0.09943745088566526 0.09881803784062922
0.06488297603002506 -0.09844996531946681 0.09871420739813398
0.06556443875700509 -0.09751562513901714 0.09863784978629538
0.06620263526715076 -0.09671329479344881 0.0985792413782158
0.06684083692120907 -0.09598977500680685 0.0985581482602504
0.06758952378618273 -0.09534023510115694 0.0985971800064803
0.06837074639046128 -0.0947549798196199 0.0986469120940216
0.06845397122059681 -0.09394228459378333 0.09831285456259438
0.06893042774370708 -0.09427842322061585 0.09872374723337353
0.06873576050571549 -0.09320242916652198 0.09814281821053378
0.06915934672560059 -0.09371188509545111 0.0986110155027201
0.06902641302196891 -0.09255897978202825 0.09805937864892664
0.06942408537772204 -0.09303758204358216 0.0984916885621555
0.06916877306407036 -0.09212454433571066 0.09800815055417786
0.0695851698102712 -0.09230459493160686 0.09835421167976044
0.0699189227461861 -0.09171670493345435 0.09833485611565124
0.07019511819127465 -0.091145264453333 0.09832407490082488
0.07064301166927472 -0.09175399366387176 0.0986789793314351
0.07030285547637369 -0.09042916153340422 0.09822061759955361
0.07093061161375343 -0.09104814400288529 0.09864418191623295
0.07027744827501847 -0.08977605370959137 0.098031051158387
0.07104979490284814 -0.09012983033655754 0.09847234084480036
0.07135283328845407 -0.08927874477448579 0.09838842986264341
0.07162426916038739 -0.08852766693752304 0.0983145522637941
0.0720119499645447 -0.08785209363226103 0.09837314849391236
0.07232392212719857 -0.08724459253233346 0.09837402150523784
0.07209553579597927 -0.08648990915927046 0.09795222165342295
0.07250010160422006 -0.08675633882415518 0.0983536722478726
0.07204355749763515 -0.08602855071355478 0.09772661412270957
0.07238373294061189 -0.08613134634213669 0.09802555687195177
0.07237464461386434 -0.08547507333790498 0.09773028054813036
0.07228436874563905 -0.08488631277014537 0.09744739130399353
0.07274286602830236 -0.08528397294759656 0.09804663616129505
0.07279327761395264 -0.08443638441822879 0.09808967682419323
0.07276941261218138 -0.08357707326292627 0.09811759184129719
0.07267997235605025 -0.08272941434460995 0.0981602444674828
0.07259842842914377 -0.08190913840042405 0.09823888838895233
0.0725784287748372 -0.08111056274698702 0.0983605331410456
0.0725379563122332 -0.08037680550541207 0.09835439551395458
0.07226051554158448 -0.07980013394674847 0.09796246127510597
0.0724149072401531 -0.07970577812968337 0.09820714950659326
0.07228218622195444 -0.07905420843572242 0.09805867587079983
0.07212173581830848 -0.07830169012031908 0.09789366510705254
0.07257905726594213 -0.07899672433443784 0.09851287406631204
0.07187149931378686 -0.07750740974132894 0.09763230882193345
0.07240036665928028 -0.0779200791898081 0.09834859947274531
0.07236378628075706 -0.07685641479892832 0.09849542676956144
0.07230001117981084 -0.07583507389000903 0.09866963266896418
0.07211828177693941 -0.07500409102668963 0.09861659600357388
0.07197935288152306 -0.07419765901934451 0.09847623628147795
0.07199167368007595 -0.07334647749851085 0.09847984282503366
0.07187614094444068 -0.07252320439739345 0.0982013810695411
0.07220862968760101 -0.0721831234099447 0.09879314737888163
0.07194145226369608 -0.07091056039007076 0.09839273783930665
0.07228808232779707 -0.07040839118149354 0.09888687636835056
0.07217390712683314 -0.06966624693147233 0.09867411164290757
0.07250713743471277 -0.06943727219131653 0.099225545369928
0.060150399741778264 -0.10502149391270924 0.10027983302931698
0.06036445360668506 -0.10460320990653264 0.10027552694813954
0.06089054999942578 -0.10375937513747772 0.10020542487680216
0.061678716410553676 -0.10278205713745343 0.1000664926514419
0.06254928546388171 -0.1017453452218077 0.09993772299168195
0.06314834501951466 -0.10091967116812561 0.09955708401205625
0.06399901966671384 -0.10022356794788145 0.09951595863455766
0.06499438935648534 -0.09927581791749521 0.0995405773063755
0.06572796663785323 -0.09822215665659288 0.09929470691548696
0.06631151332665819 -0.09736614990849048 0.09916106992333085
0.06688767510594802 -0.09663184381789068 0.09906766693187481
0.06743416599244491 -0.09603857958726819 0.09903689414033666
0.0680998681668321 -0.09569663085390545 0.09915388947102007
0.06820042937325171 -0.09528124075763504 0.09887075585919228
0.06866374426583358 -0.09522920515964432 0.09909927834282897
0.06909890353436017 -0.09472696279359996 0.09904788228945023
0.06952268546698359 -0.09418961593131822 0.09901135092435309
0.0697273240900065 -0.09471017599298857 0.0994077003173779
0.06988802521421285 -0.09355594499384676 0.09892636796417281
0.07027851830406265 -0.09410558709143904 0.09935024930196514
0.07013454867926545 -0.0928404168026915 0.09879354351876003
0.07069621596184089 -0.0933792647936863 0.09923537386272797
0.0702553414407821 -0.09224006792851176 0.09865148057774016
0.07096647985418343 -0.0925214171457014 0.09904883191616135
0.07143059255407307 -0.09176459037994063 0.09905596347996665
0.07186999927609956 -0.09100453466525212 0.09904293438940041
0.07195562473189954 -0.0900578349660219 0.09888896080670564
0.0721137918442133 -0.08929912448932377 0.09877261568160203
0.0723223677366987 -0.08870279949534844 0.0987297032211162
0.07265831357140026 -0.08834074962209165 0.09886006782561695
0.07245081455112648 -0.0878052054746464 0.09861658754911284
0.07277003337984726 -0.08779553596236091 0.09879756183146962
0.07281805791444276 -0.08724925240928541 0.0987013905256706
0.07282824810958602 -0.08662920512494955 0.09856701886598039
0.07325100452923428 -0.08727711544306753 0.09903473045205767
0.07273580486264494 -0.08598094955970172 0.09825454777622315
0.0732229893077858 -0.08637586728435956 0.09882626810741536
0.07330692895030236 -0.08549629189339952 0.09879849770886302
0.07330127365463368 -0.08462236442861372 0.0988402745460108
0.07319793857651415 -0.08372599815031365 0.09886550239869132
0.07305460889169653 -0.08289592928274873 0.09889097506304592
0.0730294421515809 -0.08217290955668279 0.09900618933243062
0.073026106059556 -0.08151569061230453 0.09903241054081605
0.07276302169139769 -0.08097155379979931 0.09866648209829577
0.07292058601461641 -0.0808623075609601 0.0988906264299435
0.07276639106781631 -0.08021606819890917 0.09870710766458811
0.07261628676352129 -0.07960356769472474 0.09851424214304806
0.07302888711335755 -0.07997798633681827 0.09910077195166496
0.0730205838059377 -0.07904358628657336 0.09914184693746904
0.0729487889398517 -0.07803787147230895 0.09918856975953783
0.07288593550317136 -0.07701795168335943 0.09937180162969869
0.07266952759523093 -0.07609279604700249 0.09928472496081857
0.0723869226595765 -0.07537898634703952 0.09902074490216162
0.07270205296337241 -0.07570616048196745 0.09946189136476626
0.0722058556776916 -0.0748477215641079 0.0988419964769984
0.07249924947745641 -0.0748759129250037 0.09925011373214188
0.07233673409320732 -0.07388428689960985 0.09899956010593565
0.07220754060424157 -0.07306669299958049 0.09878593785790654
0.07266050185178842 -0.07345968591373851 0.09945406838118771
0.07269644900219208 -0.07252313819115039 0.09965085725377615
0.0724585979816571 -0.07148062142156156 0.09922387169390204
0.07287780593115334 -0.07106518787720605 0.09979115885157006
0.07262561992606176 -0.0699230839671231 0.09941410873299737
0.07293200065313546 -0.06947752842900799 0.09986577153319896
0.060632139995732345 -0.10491498556138427 0.10070058622737907
0.06106898079464631 -0.1043550639914062 0.10076664628445899
0.06143902467173975 -0.10474546784097949 0.10128469060198494
0.061718353501633974 -0.10346396625146141 0.10066358957770874
0.06189677905592796 -0.10403893033131516 0.10122577733899124
0.062457210259428034 -0.10253173569836375 0.10053191000652568
0.06255055827199937 -0.10312242110565994 0.10108098510415191
0.06312643026247794 -0.10182062631340161 0.10045072717522914
0.0632819571575787 -0.10222940359566365 0.10089430454241648
0.06378999303580357 -0.10153181941909624 0.10066714579154822
0.06367515581327733 -0.10106647864375974 0.10013469150902769
0.06465566281473321 -0.10025967476638888 0.10012875735145198
0.06555969612861298 -0.09962011926013321 0.10034683896783526
0.06595108666133764 -0.09875538324304481 0.09996559793011334
0.06622795247601321 -0.09904435647998233 0.10045595821437303
0.06650060253757317 -0.09792334007421835 0.09976254951956598
0.06671717783703905 -0.0984153351823756 0.10030550395610753
0.06704607915186482 -0.09717540663853981 0.09958723239424884
0.06729205453247969 -0.0976689268554629 0.10011770086839247
0.0675308905769673 -0.0965038172029216 0.09944260731956954
0.06782716108280216 -0.09693026887918597 0.09989992559675744
0.06779328855641378 -0.09609681057546107 0.09933029969466309
0.06822864626725664 -0.0961985814342642 0.09963333894704791
0.0688254016778105 -0.09562116334487002 0.09948011415086501
0.0692309500015187 -0.09514879114453659 0.09937304370572703
0.06969645723308318 -0.09540250395227484 0.09974853350732431
0.07050731350550755 -0.09474414950716623 0.09974693645997561
0.07123719883555804 -0.09403361963607343 0.09973402740196813
0.07156788117340031 -0.09317356348999271 0.09953324080808075
0.07186447319837445 -0.0924299949379842 0.09941233445452931
0.07220966440476653 -0.09183105288232542 0.09937957250164633
