# .PCD v.7 - Point Cloud Data file format
VERSION .7
FIELDS x y z
SIZE 4 4 4
TYPE f f f
COUNT 1 1 1
WIDTH 785
HEIGHT 1
VIEWPOINT 0 0 0 1 0 0 0
POINTS 785
DATA ascii
0.05209478800611785 -0.08502107682318573 0.09503987603895099
0.052404467279865065 -0.08534905938599485 0.0958931232739172
0.05286418365292576 -0.08432853044086501 0.09589469516330441
0.053281682251340265 -0.08343023135481754 0.09597393681745144
0.05360783255037968 -0.0826215861176333 0.09594149047447255
0.05356810037541212 -0.08215926284354898 0.09541240416200981
0.05382004347674479 -0.08188915329899228 0.09568368754932306
0.05390030670207763 -0.08120391173802997 0.09537181981235139
0.05393756115506659 -0.08064147536488783 0.09507720344413675
0.054161362888832686 -0.08083705503809116 0.09587583447691832
0.05435224866811333 -0.07990426180656278 0.09592263030818665
0.054500180888687064 -0.07902142900103475 0.09595238170481923
0.054695554376389184 -0.07809056208791841 0.09604557343500947
0.054943475463345826 -0.07722062880871251 0.09613416743146908
0.05527602134162818 -0.07625079811852871 0.09618672710073489
0.055485519708349015 -0.07546987389488198 0.09590409441621267
0.05566143245717499 -0.07485171745581731 0.09568400054691285
0.05593428080712152 -0.07419064414945276 0.0956545993647305
0.05610761226896128 -0.07353531327403733 0.09524449415712327
0.056465055694300076 -0.07319676331939945 0.09596779517586329
0.05692280894118108 -0.07243433518040608 0.09637006674019756
0.05715569315250009 -0.07172592591207438 0.09570349101909459
0.057591808081960946 -0.0712431660557013 0.09609221248524309
0.057911538147436915 -0.07061271161478325 0.09548962151874739
0.058534727133067885 -0.0700479242990725 0.09594161584833003
0.05900409127666899 -0.06945891732433096 0.09594880363532174
0.05908641650649087 -0.06926778617721524 0.09574374730593808
0.05920497022428784 -0.0692663311354223 0.09636864472899336
0.05010261807121215 -0.10654388712292984 0.09631168717182297
0.050159666942970436 -0.10580570247786512 0.09652028451942664
0.05051393053452266 -0.10632940625795911 0.09716623641961429
0.05010650349970788 -0.10484695081807366 0.09658352496023086
0.05046832195837111 -0.1055288304764254 0.0971953900910325
0.05017165302964929 -0.10389194658788418 0.0965742599004915
0.050470410615618765 -0.10450553935332846 0.09722203806830805
0.05021302390973547 -0.10288751372673614 0.09655007441264807
0.050526106023260645 -0.10349870058999584 0.09722407647393609
0.050197956455110354 -0.10187953436516572 0.09649536742142195
0.05051647039165814 -0.10253022256164522 0.09718429910496573
0.0501753904340231 -0.10081898232952224 0.09626909209534741
0.05052270658252908 -0.10151942748375489 0.0970982249299295
0.05007954885610166 -0.09995464934122826 0.09596596008959254
0.0504934096888613 -0.1002624622455401 0.096863676298209
0.05057530400175999 -0.09920041549351201 0.09694913891686224
0.050696420953507446 -0.09823832711876035 0.09696774835088084
0.05078377422599899 -0.09726741969699347 0.09699435203697952
0.05088841118856553 -0.09628961628669 0.09693023780541003
0.05106827724623506 -0.09507605991987557 0.09695709168940055
0.05107500161739164 -0.09384363777165727 0.09669192034173715
0.05114693424736696 -0.09283553846936622 0.09660090052787118
0.051247985043315375 -0.09199198276964364 0.09664042420451041
0.0514418549951436 -0.0914623492159656 0.09690515314510571
0.051397268780096025 -0.09047425461317873 0.09644218033603921
0.051637552151651916 -0.09080908626950782 0.09704245374181686
0.051401049582946 -0.08961767190271998 0.09622314552952278
0.05163165337793623 -0.09008888072479948 0.09686284159001526
0.05139765628363481 -0.08911145953409294 0.09610188688098506
0.05161437705552397 -0.08925190752886118 0.09652006141729737
0.051785405556983015 -0.08847276620397565 0.09646129193916475
0.051917978540168934 -0.0877293822127041 0.09639301395875526
0.05217669899386734 -0.08834921001989926 0.09703874268049055
0.051964170822821405 -0.08708718859789825 0.09612940109478006
0.05233577237488512 -0.08735957709498302 0.09686398465520922
0.05267083216147035 -0.08634128065453696 0.09693569735147343
0.05303490904593018 -0.08531443777306616 0.09700085335998135
0.05331209593987958 -0.0843028711100018 0.09679617894528472
0.05364592888339802 -0.08368703042094516 0.09693859071446188
0.05359302329048079 -0.08319074680017109 0.0963728390314488
0.05389579427724965 -0.08295484275744176 0.09675366938777728
0.05401198853903565 -0.08225455757614338 0.09645197023944568
0.054061231298543753 -0.0815791908078558 0.09605041539851734
0.05431076853067486 -0.08187086806695329 0.09695897447717822
0.05445699461013855 -0.08086820971556466 0.09693790664296965
0.054577082314824596 -0.0799882712012524 0.0969604737874851
0.05474367259480214 -0.07905530664615217 0.09703745304624699
0.05493388535740082 -0.07817650595789942 0.09712680968546818
0.05519430050408066 -0.0772835621910659 0.09722917729739117
0.0554151852931029 -0.07654172200116804 0.09720979653594103
0.055536596061137464 -0.07578365226836696 0.09648535364351958
0.05562971824238453 -0.07593362052184108 0.0971437879612008
0.055617314529346824 -0.07531141208236443 0.09612010178806349
0.05577081025557004 -0.07525864863934344 0.0966008407366173
0.05598431851443842 -0.07453003097437233 0.09635136904279878
0.0561606937991623 -0.07391923029941982 0.09606062140886859
0.056304367813352484 -0.07416221217692359 0.09697122354715172
0.056753089474371424 -0.07329356917718631 0.09722402614959272
0.05713988358434731 -0.07254467955399768 0.09745150490242765
0.057320751143029466 -0.07187651017699377 0.09675926987865169
0.057743928301009294 -0.07140991581360195 0.09711576676054978
0.05809178715151663 -0.07080738646942625 0.09651828516945375
0.05859804965309902 -0.0703455420994835 0.0970689094089244
0.05901935506806902 -0.06961033587568373 0.09668240769828222
0.05947151799421863 -0.06921148154802173 0.09726049277790791
0.05977533867752453 -0.06887542663796566 0.09738190549012828
0.050930664510908503 -0.10678435605825229 0.09795396162089494
0.05081153047039905 -0.10618890335985066 0.09786712721271035
0.05079953285683411 -0.10521406301765111 0.09787057104359503
0.05082860789046366 -0.10413528965443858 0.09791863724749578
0.05086090282400503 -0.10317854890055513 0.0978609257351318
0.05088654757995057 -0.10223741662682483 0.09782841488887199
0.050946982264305773 -0.10118081145365905 0.0978543830112828
0.050960374563740383 -0.10006271971693993 0.0978085965449094
0.050984906541697066 -0.09907184692844898 0.09775950699760275
0.051063723004867605 -0.09812510563534643 0.09772233277853899
0.051159600349847734 -0.09718857911891252 0.09771404765738517
0.05141184933779798 -0.09629307495889171 0.09786934119920566
0.05164886126257855 -0.095381864331321 0.09808470235050583
0.0514230447489075 -0.09443687325219341 0.09754399701552305
0.05178744764252546 -0.09474828322396898 0.09824283922947083
0.051406712910487894 -0.09352577313084795 0.09732347456066659
0.05173975307381868 -0.09404473727689118 0.09804126737250021
0.051412092146254404 -0.09263447359005485 0.0972068283839096
0.0517160823916915 -0.09319451126352069 0.09786380479798754
0.05140516514685612 -0.09210252867943 0.09712150988025126
0.051648418129051035 -0.09226423830280017 0.09757691764518502
0.05179861522195175 -0.09146285421104566 0.09755339824646084
0.05190644420154564 -0.09063587902505245 0.09751321176697404
0.052204424471560575 -0.09135741646212789 0.09823585529506447
0.05193033331875014 -0.08980763422407774 0.09730484024898034
0.052331141952670336 -0.09041955221417436 0.09812962629986981
0.05196400516102202 -0.08905700320366328 0.09699101627904355
0.05240960116198319 -0.0892754555843209 0.09784270997073298
0.05264744325077288 -0.08819613009184912 0.09779328588465487
0.052900766555412086 -0.08721698578974087 0.09776575561207967
0.05318695750137039 -0.08634516147366525 0.09790884845349467
0.05348495809591709 -0.08555988847689575 0.09805267109625035
0.053459554723338076 -0.08473046529251513 0.097576486101401
0.05366201167284728 -0.0848492506995543 0.0981367255383345
0.05354567974337816 -0.08424248724298 0.0973335028762018
0.053740860549228935 -0.08420231509446584 0.09779698604751162
0.05404811021031199 -0.0834028844199029 0.09751622331467337
0.054203737628156855 -0.08268094709650241 0.09718866258299101
0.054386779349169356 -0.08298314991883088 0.09801730274974882
0.054575845682983695 -0.08196496945178663 0.09796815134307606
0.054739225274522345 -0.08099013415358357 0.09794944500402772
0.05486175709203879 -0.08000961640874416 0.09796250280555137
0.055006939628017275 -0.07909098077196866 0.09800280661118121
0.05520828618724365 -0.078242922803082 0.09814035834521206
0.05537063367515836 -0.07755284275136305 0.09812668526211969
0.05533970309845688 -0.07709307667244288 0.09762400279616396
0.055500273717875775 -0.07692008952936231 0.09797836213516671
0.055651643686279666 -0.07630315304746418 0.0978096283500904
0.05585584510145426 -0.0756192731593392 0.0975659978193696
0.055915836556710105 -0.07611473852543409 0.09838647860771026
0.05603214670135688 -0.07492735372299887 0.09709674545961647
0.0562004285018561 -0.07519575059144865 0.09809270871815638
0.056630993129311274 -0.07420038826179585 0.09817484888171513
0.05704148135728177 -0.07327292237831144 0.09831834471052568
0.05732257666568227 -0.0725566048608205 0.0982024757042476
0.05755068388923776 -0.07199310608050283 0.0979276869977849
0.057867625595688484 -0.07149208967981373 0.09785301149411327
0.05816453935091357 -0.07102273511261806 0.09749790132795305
0.05864141715925182 -0.07067467064707532 0.09827293623436426
0.05911490153972505 -0.06985586683789163 0.0976582060922074
0.059660075549989505 -0.06938727873463914 0.09830474360530964
0.0599718458997048 -0.0688349814040556 0.09798497730559375
0.06035241792997406 -0.06853359606444995 0.09865343532586807
0.05119737640406048 -0.10709584108396018 0.09840247740324287
0.0511368855525886 -0.10669837087660278 0.09843533702545289
0.05111637434431226 -0.10587306587593555 0.09847732606331273
0.051148068401645146 -0.10480955302336943 0.0985515755866557
0.05118373024412378 -0.10376629992954833 0.09861929466593004
0.0511463948356579 -0.10285647070257073 0.09839895794516303
0.051277788188881686 -0.10201556304327161 0.0985874506529562
0.051411657042464004 -0.10099350789796044 0.0988076298735326
0.05137811138342814 -0.09980861167784881 0.0986263584612005
0.05139735621679151 -0.09888341291481416 0.09850953179697476
0.051465782829903946 -0.0980086476682327 0.09845448169883035
0.05158099054669531 -0.09726485107734059 0.09846218431827734
0.05184214844788953 -0.09668346673495601 0.0987369026412376
0.05174251202005046 -0.09602789646984876 0.09835507197503923
0.0519493150401836 -0.09588279874504015 0.09875199197255798
0.051988505330902685 -0.09524851649754743 0.09876468178919659
0.05205267046142295 -0.09457983207646517 0.09874716945189878
0.052277194591865125 -0.0952014025593264 0.09935277927865667
0.052064131460471084 -0.09373453511792663 0.09861941986254388
0.05240217644705653 -0.09437049009529674 0.09938407640228053
0.05205707997833123 -0.09286722747246806 0.09839955916766788
0.052458933436107406 -0.09340460865109569 0.0992452968097608
0.052033949322011434 -0.09205351656032108 0.09813524270027824
0.05247223018725159 -0.09229227783225583 0.09895790770369063
0.052647333212541995 -0.09124541593279416 0.09892679811520898
0.05290583151959657 -0.09014249780279655 0.0989530842385535
0.05294749628478192 -0.08892621689074949 0.0986490694618654
0.05312697702703025 -0.0879690432037093 0.0985301878471517
0.05333728262066239 -0.08715974736199547 0.09854701575212893
0.053590791164787675 -0.08667036604675937 0.0987937807429276
0.053501184708201706 -0.08616848719085483 0.09835363996106862
0.053755228897643226 -0.08603362514691966 0.09873253632693925
0.05384889383975585 -0.08536785817254107 0.09865224975436274
0.05393696381003556 -0.08459899223336535 0.09851265046194661
0.05417408729857933 -0.08522507032091572 0.09929370655549413
0.054079121359868185 -0.08388693999724936 0.09819766001872109
0.05437361427248047 -0.08414586557079894 0.09903285937696442
0.05469775245861641 -0.08306857030284046 0.0990090974276704
0.05489082936828455 -0.08203362497121101 0.09896132546072445
0.05500714318736845 -0.0809983239506173 0.09887148065810067
0.05510649897739164 -0.0799834602004937 0.09882162795340403
0.05529304307496598 -0.07915364695841984 0.09895630977840553
0.05543972939512003 -0.07850797197873736 0.09904048929573599
0.055365266999401724 -0.0780674233467627 0.09854150496631432
0.05552777043411067 -0.07790887218355376 0.09886929760524212
0.05563834650612908 -0.07725201328479851 0.09865579970398718
0.05572328974659149 -0.07669083242135318 0.0984292261557443
0.05595137905941314 -0.07691560476220571 0.099146166675879
0.05626002261164325 -0.0760731321458283 0.09918462445402113
0.05657250484264707 -0.0751794049909395 0.09917152180492525
0.05697395559238027 -0.07421048487493768 0.09929700399663322
0.05725640938437128 -0.07337814554425899 0.09916411151747256
0.057384221515005225 -0.0727746043647977 0.09877399534663385
0.05748486736288288 -0.07298524899152023 0.09938636520685698
0.057494044600988996 -0.07236055894866686 0.09849911760892881
0.057670392228711634 -0.07235620824859544 0.09901417041202155
0.05791238887680945 -0.07176048591292977 0.09859172821146904
0.05817598005778309 -0.07128277656577178 0.09827316887827468
0.05838924294347411 -0.07140761962269387 0.0991956405741545
0.05889357892137525 -0.07066919778965312 0.09936142096646869
0.05920430222525839 -0.07008719133249973 0.09879184253713212
0.059744638155159985 -0.06966952567250903 0.09952975153498855
0.06019725325965556 -0.06888336669065781 0.09894129021970677
0.06067156512935933 -0.06847864370426794 0.0994340474423249
0.0514657400502332 -0.10698584547836808 0.09891748188098176
0.051502068056713986 -0.1064239807245725 0.09907728916061462
0.05192526440629285 -0.10678251433094359 0.09973960037592737
0.05153719944520146 -0.10549190719518554 0.0991686058494427
0.05191911256742258 -0.10606201979871305 0.09982203629395614
0.05154330580777746 -0.10452059967532361 0.09919613988838656
0.0519364173734608 -0.10514188531932596 0.09984001275938154
0.05158662595366902 -0.10375716510347709 0.09926886661456007
0.051932176496752164 -0.1041833035489803 0.09982259727700009
0.051842254562178454 -0.10340981503249796 0.09970306803134409
0.05152494587725738 -0.102931477102413 0.09911523747779206
0.05170050753333778 -0.10201376638537829 0.09936787227511805
0.05193710729214303 -0.10135683503679109 0.09979264593763404
0.05174769058169935 -0.10042235699349648 0.09941192594605978
0.052073504763180914 -0.10077284227300731 0.10000615206316002
0.051707456068940116 -0.09951371503896851 0.09926548992992489
0.052044606602315885 -0.10003647540370869 0.09990537517141282
0.05176313614845688 -0.0986406115435929 0.09914617535436737
0.052078980811390445 -0.09918528743090985 0.09982670156494741
0.05179798330405569 -0.09784521766724463 0.09904907956191346
0.052118364640773775 -0.09829231622144959 0.0996823487323378
0.051824477665022475 -0.09736011939393507 0.09894301601758883
0.052088548046829275 -0.09741079779526624 0.09941412959601437
0.0521918830820962 -0.09648729449540075 0.09935128131633868
0.05218069561186824 -0.09574106842668809 0.09923883256007715
0.05255041033056168 -0.0960926076319914 0.09994588178578362
0.05271370521928704 -0.09512028804879206 0.10009876335601252
0.05288939361562774 -0.09412802006660849 0.10023295946869878
0.052884352955389125 -0.09297745327406812 0.0999124371810918
0.052969520451520716 -0.09204378864988173 0.09972168286504231
0.0531499319232565 -0.09114971471844888 0.09966639686364648
0.053433095480155804 -0.09049834624430395 0.09996248637965507
0.053339787222539875 -0.08952464541985326 0.09950643290955144
0.05363041968861074 -0.08986029414105565 0.1001344122160052
0.05340414712465127 -0.08856733800733695 0.09926515371633232
0.05368956732005776 -0.08910903236273687 0.09998225094460053
0.0535217475190009 -0.087721927982422 0.09916603029909568
0.05375483378008512 -0.08819652912050861 0.09981805622611419
0.05358848501034622 -0.0872020932809712 0.09907071751795138
0.05377343902388873 -0.08730007019059939 0.09956357594577597
0.053913903068580855 -0.08652492250394966 0.09940932400540002
0.05402288449440795 -0.08586990239698508 0.09924072198917307
0.05428146164698899 -0.08615182042393855 0.10003038420120056
0.05450775150187481 -0.08517438331869226 0.10008811270588011
0.05477121026272797 -0.08414851619169209 0.10003045842794271
0.054989773605450716 -0.08314901925641212 0.0999800855616142
0.055204694334938104 -0.08202542649236844 0.09992426081456071
0.05526852391504735 -0.08085016325654637 0.09961168235831791
0.05539864188438252 -0.07996451271177939 0.09954437803899138
0.05558158984934374 -0.07942640641623155 0.09975853919145551
0.055475759640171485 -0.07895234760569696 0.09936240213746718
0.0556506999202519 -0.07883196716412431 0.09968729282145802
0.055701750797171726 -0.07825808683102148 0.09951092357922993
0.05577351961544731 -0.07764012062747944 0.099276097786013
0.05605460309149564 -0.07788391079487512 0.0999857767935794
0.05637420760133769 -0.07696825307937022 0.10008143185841915
0.056637140286676296 -0.0760881412846634 0.10006507656071295
0.05690798190814534 -0.07521264910040304 0.10005457356550186
0.057220700162861765 -0.07451612483151365 0.10024662995981459
0.05742451288813384 -0.07369252429251817 0.0999736294383199
0.057694688383351324 -0.07291590296998669 0.09985438891361119
0.05791407491804725 -0.07245281518564108 0.09974635141272357
0.05801639722145014 -0.0720284102332124 0.09932957341186215
0.05829890182193067 -0.07216807342142696 0.10016449903745545
0.05884517128486609 -0.07125397223981075 0.10025945165821779
0.059135899684826576 -0.0706388834000164 0.100067599986766
0.05925979373036454 -0.07027618703246771 0.09961549287886388
0.05951866689850262 -0.07025453583081617 0.10031820642262015
0.05998482355471348 -0.0697029828467632 0.10053193630907793
0.060413201084769094 -0.06902549061686257 0.10013425425615129
0.06093114239035206 -0.0684294638305569 0.10007153430261087
0.06105449965618458 -0.0682138366151836 0.09988684036121988
0.052343186206393034 -0.10694742878249532 0.10038371259178987
0.05232534885524353 -0.10650187831337048 0.1003838688096034
0.05277308686238097 -0.10682214541737804 0.10098557393685602
0.0522794119218074 -0.10567866906838977 0.10038548658930267
0.05274059240731639 -0.10615080480264093 0.1008918709610304
0.05230984704415802 -0.10468660416958912 0.10038347528118247
0.05272279555719242 -0.10523612857785412 0.10089022775105079
0.05220822345116309 -0.10351545071092721 0.10035188013670951
0.052678041212138066 -0.104154414482518 0.10092989703048513
0.05194623410483695 -0.10275946714198503 0.09984022118611167
0.05224875304507363 -0.10256829167564695 0.10042053978118896
0.052667403423020884 -0.1029052889339037 0.10104871298805293
0.052045882831530305 -0.10212320212823295 0.09997848486917502
0.052233549458958445 -0.10184355073158122 0.10041675039791181
0.05242306193370791 -0.10212806249378664 0.10079849852792873
0.05224957235939561 -0.10125831113438413 0.10043484799715434
0.052333293150227 -0.10055674979043733 0.10048213890536041
0.05249962443008987 -0.10112098723494263 0.10094834625265828
0.052416416157462384 -0.09969061927195152 0.10051978181708156
0.05265582602278177 -0.10025565070178599 0.10111234668681959
0.05248657926666198 -0.09878373187256896 0.10043661400560855
0.05284426248420864 -0.09934115563890111 0.10127607257280069
0.05250002300041112 -0.09783339319558762 0.10019670234623286
0.052860547341003476 -0.09822114072349024 0.10101483822356698
0.052464907182547774 -0.09703401336962432 0.09992298538495077
0.05287735900945888 -0.0970764123886006 0.10070075189724614
0.053004269841823805 -0.09596002434355616 0.10076945085509462
0.05312178506703598 -0.09506458760718235 0.1008554069363933
0.05332751693103679 -0.09446438735235227 0.10113796060554929
0.0532280116488108 -0.09350203156165796 0.10073090003293916
0.053487525993848234 -0.09381043462501268 0.10130988705696256
0.05324389891671002 -0.09263408097330586 0.10046147705511203
0.05350237339397541 -0.09312888865742676 0.10114417779259573
0.05337148251223998 -0.09181524475615555 0.10029904955922893
0.05359141577433941 -0.09230003276853274 0.10097627889735858
0.05344369302398558 -0.09121678497119144 0.10015440853417491
0.053668127169663266 -0.09137243303756691 0.10071386696654792
0.053827311352607446 -0.09051241069285729 0.10069274426756107
0.05395547689629113 -0.08967927955026334 0.10068786284168216
0.05414340945357008 -0.09044987182156389 0.1013818430836131
0.054031539638087066 -0.08876821444074555 0.10059171864763106
0.054271414589415534 -0.08945460238294795 0.10137257048920012
0.05406079697498532 -0.08781181247695061 0.10035300301380176
0.05436075848879865 -0.08846926825812401 0.10123970323547814
0.054078881269183865 -0.08701720600978408 0.10005648859140992
0.05447233915359491 -0.08726010818611928 0.10095461616360273
0.0547102728982711 -0.08615880064436864 0.10100075247818902
0.0549010118247707 -0.08513506195484884 0.10094613160972314
0.055087195347954906 -0.08419910001957193 0.10086728965922938
0.05531437421219326 -0.08334122205766825 0.10087886661024736
0.05560954632598187 -0.0824803829988739 0.1009744036762952
0.05553312872542474 -0.08145307563739883 0.10044017234575046
0.05580465526312457 -0.08179696427225706 0.1010822106766542
0.05555495455076655 -0.08058029949927699 0.1001456490271988
0.055796830536247066 -0.08105190698629496 0.10084906205167811
0.05558549410184028 -0.07998169533521111 0.09997191132861202
0.055789963443128074 -0.08011741806625741 0.10044974978910647
0.05587246361118069 -0.0792600221890469 0.10028790172828948
0.05589341626129442 -0.07864079974119312 0.10008210455388877
0.05625084750520292 -0.07893524664858649 0.1008295792181723
0.05654782884081337 -0.07795528550236903 0.10094744063171793
0.056867662469153334 -0.07702142813448706 0.10105203697227666
0.057005329637777755 -0.07597312928919102 0.10076513539937368
0.05718595927284367 -0.07523903543948181 0.10069716560634874
0.05746387085333699 -0.07468387398302642 0.10084949663462667
0.057411838775941755 -0.0742184855630014 0.10045696973316233
0.05762814140800641 -0.07403625585185847 0.10071202525193047
0.0578038095051289 -0.07335732003123206 0.1005092951444731
0.05795129670515572 -0.07279198251133583 0.10027637982679875
0.058269159656036996 -0.07307731604609563 0.10107931855829098
0.058810020274728037 -0.0721319284852226 0.10122266503794146
0.05913580424581083 -0.07133017641208746 0.10102495478133611
0.0592956848493584 -0.07079027097766392 0.10070002625548002
0.05982381804562818 -0.07036312489854024 0.10123801927106281
0.06019881865186071 -0.06971679008335131 0.1010935538990642
0.06026116264680731 -0.06936795758446562 0.1007019382693288
0.06058344790640688 -0.06927667642353952 0.10111624053603488
0.060940607772639134 -0.06866928084882275 0.10070541024764833
0.0611630503456507 -0.06828435209699507 0.1003929875687886
0.06131894010608953 -0.0684501257286323 0.1011868874550896
0.053240439556952006 -0.10710302547016427 0.10164209364145856
0.05356822648849297 -0.1073172971434495 0.10203708200582062
0.053176972898840894 -0.10659952057349474 0.10146729802623868
0.053560116150081535 -0.10698996197900093 0.1019943126810818
0.05314979000921556 -0.10574472538390473 0.10140768447518678
0.05354948401045518 -0.1062414702684704 0.10192202838979401
0.053100200614120324 -0.10480436693189647 0.10146005730238766
0.05349756268202331 -0.10533201860457074 0.1019462381164015
0.05308965186460424 -0.10374132834337457 0.10149415712417016
0.05349936678105465 -0.10435684807731203 0.10202089107356313
0.05309347624351712 -0.10301579972238574 0.10160318852676485
0.05351624975375781 -0.10314482506700394 0.10220086957078929
0.05239000868284367 -0.10163645255724728 0.10081347813743038
0.052687810215395633 -0.10178171042787626 0.10125760780980902
0.05310358282670047 -0.10238241466377157 0.10177634223238896
0.05287352480488881 -0.10088637351689819 0.10152284187306117
0.053041029946735305 -0.10009458062308701 0.10173404931798118
0.0533432343692299 -0.09949217411795912 0.10210987872274813
0.053231241439376256 -0.09862395771166602 0.10175759851415937
0.053530740707051154 -0.09885017766182769 0.10232252134295644
0.05322992065137828 -0.09767860796811115 0.10151549806007795
0.053551297868787436 -0.09815306148274167 0.10217849033660088
0.05329609009245199 -0.09663845480397386 0.10138411550804559
0.05359790750295904 -0.09721561272809083 0.10205342036555555
0.05333432676333626 -0.09571465752562036 0.10132987241467944
0.05362186828067952 -0.09626190018904175 0.10190021540571881
0.053347047031294684 -0.09511027007931855 0.1012905935464875
0.053567493630801016 -0.09525043476455057 0.10170511552927844
0.053647993887236095 -0.09442471199189313 0.1017346472969878
0.05373275477101971 -0.09366816179444455 0.10175601958473056
0.05395324758389301 -0.09433204460413677 0.10232812873577375
0.05380002356904406 -0.09282434639189469 0.10166732741868645
0.054031607145861006 -0.09346134919362534 0.10233107204498817
0.05388909385602247 -0.09189792898811902 0.10150520573488074
0.054128963801830125 -0.09247519472728129 0.1022694491099998
0.05395391421135926 -0.09116144336678028 0.10128682002581008
0.05423082482697256 -0.09140620235533556 0.10207415646731731
0.054447741250399945 -0.09033145680014291 0.10217401655511522
0.054613621436702876 -0.08927853447959552 0.10211203235295631
0.054759101536608366 -0.0882248162033081 0.1020221949091418
0.054918284073475813 -0.08714082282274711 0.10193788075223029
0.0551455532229823 -0.08608291563394257 0.10196627133522439
0.055221812932302314 -0.08500959137715473 0.10167942285894074
0.05536870964479367 -0.08432602750894878 0.10155312069471938
0.05564509026161917 -0.0838323544594074 0.10171968308732017
0.055586373600067296 -0.08320019789306936 0.10127854879562682
0.055838907312161075 -0.08306845007282132 0.10167041208817483
0.05596074496766774 -0.08240162568678253 0.10161549007699597
0.05605453986767134 -0.08165872495591307 0.10152368336600778
0.05627175047996325 -0.08237818978940314 0.1022569401492816
0.05608434592239357 -0.08075526898957602 0.10127354713369709
0.05642391054918589 -0.08149550933906988 0.10210891944684027
0.056095699355779065 -0.07986015193274065 0.10091564562659017
0.056557458150353505 -0.08022892749347717 0.1018423128752918
0.056908374594139076 -0.07898252289658156 0.10199417211274683
0.057030680589474886 -0.07801421699405012 0.1017985949701982
0.05735275628917236 -0.0774708248866594 0.10201366273210714
0.057262847717789084 -0.07659512132746138 0.10148256606447655
0.05758854078515873 -0.07690272772293481 0.1021214536299559
0.057332134196960496 -0.07576128240929977 0.10119476110989337
0.057630696334822415 -0.07619790746778933 0.10183858068390078
0.057387437987358424 -0.07523612488716275 0.10104425946041158
0.05768090311926542 -0.07526572199196742 0.1015017143102387
0.0578573290543428 -0.07446442733128651 0.10136364717270467
0.057982210899605695 -0.07378048095324906 0.10114217947994637
0.05836599292604993 -0.07409112305243762 0.1019343687615517
0.05884784980478239 -0.07317965762862029 0.10214788747957705
0.059236852065038995 -0.07239981508188217 0.10225429000372714
0.05931068595740633 -0.07160475500250181 0.10169672963359176
0.05956005111379577 -0.07176771386443186 0.10228997899652939
0.0594516264044314 -0.071019816937432 0.10133085372061766
0.05973132195567731 -0.07111872107833261 0.10197585939253673
0.06008970533464168 -0.07056494149604262 0.10198647155581228
0.06045622888496848 -0.07000190467407767 0.10192330599554195
0.060912629415442246 -0.06941271748180736 0.10193722261546055
0.06114536292221967 -0.06886044523384657 0.10157713939506699
0.06178209821006266 -0.0684819451775967 0.1024044222881844
0.062331545775333876 -0.06801887619073037 0.10277883672751909
0.06266131527156742 -0.06780029429353993 0.1031062917803561
0.05386776762492618 -0.10719181770492871 0.1024186417101268
0.053938439418815626 -0.1066910950573872 0.10250584118971413
0.05422479143829444 -0.10690703761966151 0.10296209860219437
0.05394877522660153 -0.1058825376700759 0.10250329223309917
0.05431924220027903 -0.10638560621604554 0.10312484128065931
0.05395146881029225 -0.10494668462613001 0.1025442711122296
0.05440957455703399 -0.10553495235323283 0.10317683905824586
0.053960056810104795 -0.10396629378999758 0.1026842674912901
0.0544154237702615 -0.10454125644091905 0.1032755771270106
0.053959202192086074 -0.1032864886469094 0.10279730351653188
0.054364763809789836 -0.10350780508632286 0.1033839957827918
0.05317250883734397 -0.10148922088878004 0.10196124223486479
0.05353559482744012 -0.102057825694763 0.10243197941058843
0.054000291003086426 -0.10264145294029903 0.10292860248144788
0.05328437008376112 -0.10061743815931883 0.1021221343332948
0.053595331434942876 -0.10108163206330709 0.10256225492446193
0.05333171104903867 -0.10008770818131964 0.10218675801863734
0.05360463016850861 -0.1001856826426386 0.10260313610394685
0.05373426757686811 -0.09939105295267359 0.10268587533118104
0.05382566154043124 -0.09864855264019518 0.1027221524947878
0.054123428810815645 -0.09927733478540537 0.10323116737128366
0.05390481370047218 -0.09778533286505912 0.1026759215490779
0.05421108752418157 -0.09840466521506148 0.10326519651150169
0.05392853222575723 -0.09684149540820176 0.10257182428535394
0.054265087950692306 -0.09746280582669913 0.10325340808596695
0.0539225201725493 -0.0958499525101521 0.10242776762339548
0.05428148186617511 -0.09644301381160872 0.10314270753325085
0.0538488796077906 -0.09503752401643427 0.10220712216725182
0.0542189236668758 -0.09530175756218283 0.10296395112390494
0.05430170285387281 -0.09422732734292413 0.10304219380417813
0.05437545297988716 -0.0932366081377532 0.10299593936485744
0.054467066005910204 -0.09224734375390646 0.10294930616187134
0.05462839046915174 -0.09121474153662695 0.1029693993047037
0.0547911317551421 -0.09017921547738418 0.10298037540947773
0.05498230216257419 -0.08913550228050386 0.10293767545651217
0.0551690584029496 -0.08815983432772578 0.10299431594219079
0.05530608202305238 -0.08710617873361591 0.10279088449497707
0.05551178863921055 -0.08647330800856473 0.1030174846248795
0.05545937646334057 -0.08556182523620619 0.10241708673722762
0.05569030117024481 -0.08591840869749882 0.103073170079272
0.055496844518181015 -0.0848305675003625 0.10211470197262737
0.05576906994892222 -0.08522030461422997 0.10275198677897841
0.055567946544525314 -0.08441310781324103 0.10195560128525481
0.05583226984674138 -0.08443053951666182 0.10240356520528195
0.056023961006142174 -0.08360891956081586 0.10231082941180986
0.05611462552620868 -0.08293110779443008 0.10219741019046694
0.05639975790265227 -0.08323884037818577 0.10290627762769677
0.05668529585606645 -0.08233329197419233 0.10296358518301787
0.05696256098303552 -0.08128707598154647 0.10293043225106377
0.05722814006947273 -0.08025620130890497 0.10305464987259665
0.05750216917639023 -0.07940851090530994 0.10313294853042952
0.057350119118570894 -0.07850003684555616 0.10249384079991694
0.05770071666619097 -0.07872882980704718 0.10310790002235294
0.05733238067496556 -0.07802950040692229 0.1022589943623525
0.05764362446627817 -0.07808588377237217 0.10276070349607117
0.05777995531857341 -0.0774071510077274 0.1026485183076566
0.057925990409530156 -0.07669198117481767 0.10254590461384482
0.05822139356105467 -0.07727289974586725 0.10324102071480334
0.05805838365557588 -0.07578207020041351 0.10230549211349636
0.05841026394055957 -0.07635648612821808 0.10311193815703353
0.05809546958589922 -0.07494183753747802 0.10197624909065824
0.0586388902647094 -0.07520314526794931 0.1028825252178578
0.058905917354381734 -0.07414170488100069 0.10281197384507834
0.0592763843958056 -0.07354133271544717 0.1030550043179834
0.05918928907163043 -0.07297610299452939 0.10259244556982378
0.05946725330661182 -0.07285322325004225 0.10293669328598817
0.05967963255942963 -0.07221740713816839 0.10282334459330417
0.05993402670723583 -0.07158452751931402 0.10272039513130532
0.06005687673633155 -0.07211467751150225 0.10330139469273422
0.060183825959583194 -0.07094941574958402 0.10255657533133472
0.060423348838485554 -0.07139243946500508 0.10328364689211776
0.06033344174378078 -0.07051963726967382 0.1023394484713207
0.060616509422364 -0.07058766213570994 0.10287172277614097
0.06116950285010764 -0.06978033718631213 0.10290005242196754
0.06133918858047607 -0.06907065195315498 0.10232212379658408
0.061762623551521685 -0.06897524117652204 0.10302036020218189
0.062124657872077174 -0.06855042308127084 0.10317701326117734
0.062523070590686 -0.06811899891633025 0.10331261601604613
0.06292190172426626 -0.06770519240763875 0.10358733774702372
0.05463162398790048 -0.10662183348498698 0.10358351713393513
0.05479018135712909 -0.10608147313221705 0.10379047573366702
0.05486515259026499 -0.10517892525796681 0.10389067042945056
0.054809891510189966 -0.1042208682103359 0.1039446753903209
0.05480227908054009 -0.1034226362777524 0.10403081252802428
0.05404098660446145 -0.1016553231191572 0.10307082917289943
0.054575083761101345 -0.10245145065156362 0.10374646990806706
0.05399525266886977 -0.10065701997857707 0.10312595946776565
0.05450403571759399 -0.10123424627546365 0.10379041902460838
0.053952262478598544 -0.09994494010621734 0.10306813876937486
0.05440028815569762 -0.10011234930083736 0.10370707961952955
0.054515391560709045 -0.0991077613892261 0.10384908360006342
0.05458299797990379 -0.09810734732990077 0.10386445563716869
0.05461820740025269 -0.09711888750094322 0.10383705831771121
0.05460452434523667 -0.09607051299197453 0.1038009345613578
0.054607716095438553 -0.0950361938780908 0.10374478247898684
0.05463854430411877 -0.09403346613083341 0.10371705764881507
0.054727573486854954 -0.09303962997903728 0.10368246876712717
0.054842860159758776 -0.09209954522876325 0.10373509891659463
0.05506565810545622 -0.09105201179324963 0.10390993838597885
0.05516735114218271 -0.08994578446011373 0.10374989030515519
0.05530814870119885 -0.08911232495270542 0.10368820810462655
0.05553553911163784 -0.08854516009389116 0.10395628627009759
0.0554948006018196 -0.08769882882024645 0.10349281958941814
0.055713075120441956 -0.08793680381053075 0.10408337271497606
0.05552159290213395 -0.08709716356417511 0.1032815795198616
0.055714491121500974 -0.08719930466364281 0.10373958455996606
0.05581293246954105 -0.08646704373370168 0.10361180385673281
0.05601214696657694 -0.08575666509999402 0.1034962335221145
0.056216168023798294 -0.08640654338393089 0.10421696483218379
0.05617276247243525 -0.08484888396578669 0.103236968491061
0.056458933600534486 -0.08545395462262162 0.10409733142721134
0.056212259303141596 -0.08407376109815994 0.10292589159558407
0.05661513951474147 -0.08426103116780684 0.10381903944342642
0.05692835315386722 -0.08319329840332508 0.10379982256656392
0.057254880273830716 -0.08214333058086208 0.10385060268638528
0.05743813290549731 -0.08121236788704557 0.1037257826400718
0.05768925453592043 -0.08068336475663149 0.10398191171532477
0.05751761320647322 -0.08009586725117995 0.10353634641221615
0.05783057824570092 -0.07997889431310502 0.10391367812442494
0.057934316668834036 -0.07925993555571384 0.10367536256186018
0.05800925296543541 -0.0785135132224721 0.10347203427142707
0.05835504859364819 -0.0790637710819354 0.10418222351381887
0.058003295133494615 -0.0778923260863865 0.10321999534659669
0.058527054155441564 -0.07806966598889534 0.10402979780325276
0.05873062523313873 -0.07702988160420676 0.10387477704576627
0.05889224159347567 -0.07611375334652268 0.10368327096099271
0.05912201491336099 -0.07545617666464477 0.10366994858408403
0.059185548549656894 -0.07475433147110197 0.10347671407248561
0.05951710063328231 -0.07526428229799734 0.10409348179067003
0.059245169647166494 -0.07418965247099504 0.10333286159288073
0.059636701139133545 -0.07424802589130927 0.10385180448159134
0.059695872957348455 -0.07328112600478208 0.10351774075023593
0.059784751831726254 -0.07264867532773873 0.10328564236573294
0.06009595473962738 -0.07278010027076115 0.10378689480007378
0.0605174506220223 -0.07215170640980759 0.10394107551966905
0.060792558916164134 -0.07155543844098841 0.1039242191217972
0.06092276604220171 -0.0709603039723681 0.10365911091542138
0.0612101357901881 -0.07140471268567136 0.104331391860716
0.061043007905210625 -0.07043685289936774 0.1034068590595317
0.06151861802670268 -0.07043940233271431 0.1041000870932736
0.061897318295135825 -0.06942909075154122 0.10378448224674125
0.06220537138453122 -0.06881154237905633 0.10365862754827632
0.06236148041655814 -0.0690663338043281 0.10420875173794819
0.06238345485894552 -0.06850085636385497 0.10357074265404052
0.06268103172819847 -0.06849847239549901 0.10410762627526264
0.06314032563647759 -0.06785849441070219 0.10417827869775137
0.06316164136212006 -0.06757219075874651 0.10395015150029546
0.06337648934426214 -0.06758809295078785 0.10427989493825207
0.05510149329355654 -0.10632817387779982 0.10429707247747892
0.05523759567745671 -0.10576003063157428 0.10450874977610268
0.055271051030445155 -0.10488716178142722 0.10454168598549672
0.055245507084866634 -0.10391872225172422 0.1045682076586115
0.05515479395495814 -0.10292369231660196 0.10454500676346692
0.055043784065833025 -0.10188622845134791 0.10448428688315817
0.054925751102563265 -0.1008383188355443 0.10444412360228907
0.054905632224153955 -0.09981367508387531 0.10443450506976035
0.05495285378764895 -0.09881427957499636 0.10448014408719165
0.05500340365462883 -0.09780000318014527 0.10451343356248544
0.05498493289544141 -0.09676444093370273 0.10449194127816532
0.05494932530373941 -0.09577873562503467 0.10444291868186055
0.05494974340728611 -0.0947661146318005 0.1044096288835253
0.0550081174049057 -0.09382238409595481 0.10438367100726384
0.05510076034815401 -0.09285363079066065 0.10439872945134389
0.055218131464554544 -0.092049432045435 0.10453041225994028
0.05548990550563733 -0.09146752007730109 0.10488497697713803
0.05540661990385157 -0.09047227390993653 0.10446427110869669
0.05569082787803336 -0.09079880145886707 0.10507313368524922
0.05545605933784664 -0.08969000839873173 0.1042736860242196
0.055698276377797826 -0.09005881156158432 0.1049040407647742
0.0555156672932756 -0.08916382539460763 0.10414577064761914
0.055725343250302976 -0.08923089538263092 0.10463283297983512
0.055842612876859765 -0.08842619109142898 0.1045917937132348
0.05595852369267179 -0.08772620809871369 0.10448232521696396
0.05618779834432721 -0.08830995863039152 0.10515031981251029
0.05601878744525386 -0.08702643336511105 0.10420195501691341
0.056379689055086946 -0.08729962352203154 0.10498754721319194
0.05667882662898304 -0.08628126259562774 0.1049797561841943
0.05700646462070313 -0.08511817424050563 0.10489897094934267
0.057198214884693406 -0.08395282936779233 0.10467981410764118
0.05743145447883672 -0.08296360089643907 0.10459993546596645
0.057567931529716364 -0.08226678065749454 0.10458615792508734
0.057606973742206094 -0.08171627655586215 0.10433625681571711
0.057755187421090405 -0.0820006449993608 0.10483798678012055
0.05767033183339997 -0.08126608134153503 0.10418760970070674
0.05788795687934685 -0.08140564853726825 0.10467238110319813
0.05825295063178355 -0.08060744688175392 0.10477189336147956
0.05818065394330368 -0.0797626585540794 0.10430174264253676
0.05863284642941389 -0.07974332395432789 0.10486180912649061
0.0588370111049948 -0.07889593637614363 0.10473906204326586
0.05901587910913099 -0.07828125871265505 0.10474466105924347
0.05909100620632497 -0.07758577611377568 0.10459150579967445
0.05942784436601202 -0.07814698447300734 0.10522879421538625
0.05923110609917765 -0.07668826305668505 0.104402253622197
0.059703853795095116 -0.07727405910358658 0.1052202919830397
0.05931497528465645 -0.07592395341622447 0.10413644573405191
0.05977764314703597 -0.07607503601413944 0.10478131739394997
0.06000260544507133 -0.07502169758136033 0.10461228125325633
0.06013543760602153 -0.07421830567502376 0.10448008617964594
0.06008359569002994 -0.07354520177233596 0.10413714061886664
0.06048800961936467 -0.07292682451538275 0.10435153935579047
0.06084684360215092 -0.07243950590510188 0.10450808158219443
0.06094074209005731 -0.07193160878129926 0.10432084453881402
0.0613347133202979 -0.07217817737357368 0.10492415438539876
0.06180089926416225 -0.07130956262936984 0.10503713775041087
0.06204978930260539 -0.07053490213198832 0.10493787067936228
0.062330335879369134 -0.06981188701669777 0.1048176135071244
0.06279183475683266 -0.06902864852483931 0.10480719593360978
0.06304883496930129 -0.06851468621038874 0.10474827598526025
0.06308549035975429 -0.0682291767943592 0.10452557046514775
0.06347705067882073 -0.06824234740324815 0.10508143046993476
0.06379205244105127 -0.06779266396630602 0.1049827699944291
0.055592813097565946 -0.10611333078310341 0.10510042850339889
0.05599462699142741 -0.10633534428067319 0.10574689511761734
0.055615330505424034 -0.10548366020765133 0.10513217615493677
0.05600696709611397 -0.10593910304587582 0.10572902580519564
0.055670564595519834 -0.10452716618919476 0.10515372414820814
0.05605396210367015 -0.10511606835363116 0.10575139060687266
0.0556223764718253 -0.10349049666480684 0.10520397336819422
0.05603735746181963 -0.10408058825847832 0.1057776350792095
0.055545954768805014 -0.10249925217943635 0.10519722532017341
0.055950690754135335 -0.10306707002527979 0.10578226387928037
0.05547521945576823 -0.1014951305727094 0.1051370057382342
0.05592202973763201 -0.10211312978097718 0.10576495863734445
0.05540861730276885 -0.10049564246410568 0.10511849328170704
0.05586665019140288 -0.10110677083324757 0.10576048771144478
0.05538763561671445 -0.09947034656700773 0.105146832865958
0.055822739587729174 -0.10009920102203483 0.10576777666329093
0.05538594165512849 -0.09848334794831554 0.10518991887747992
0.0557591848841831 -0.09907103563728747 0.10579958339136422
0.055366969461728206 -0.0974651352192495 0.10520888930084048
0.05573888297182876 -0.0981054809524235 0.10581189400026496
0.05534774913217438 -0.09648407029973166 0.10516416111088799
0.055706010853213986 -0.0971552944656661 0.10580060966876306
0.055339720668756906 -0.09550326501848551 0.1051236873880808
0.05571732583528584 -0.09617592219715179 0.10579373573112659
0.05534594425640492 -0.09451704484092023 0.10505270718983979
0.05573772608254431 -0.09525397457612109 0.10575516649958328
0.05541700437107606 -0.09354552766662858 0.1050431034642955
0.055779112974864126 -0.09422004295516674 0.10571125161476236
0.05545091812269358 -0.09263165456771032 0.1050475504270485
0.05580710271163467 -0.09321691952766605 0.10569544233535835
0.055460676117788835 -0.09209257542263843 0.10502406454687141
0.05575982026572437 -0.09222645088024968 0.10549881068092315
0.05590935039304237 -0.0913872283208407 0.105549849720489
0.0560169191889721 -0.09054046449949323 0.10559223126521643
0.056339306126955695 -0.09118861827921637 0.10623807450108295
0.056038988315223866 -0.08971007643021438 0.10543598005510418
0.05638460271235052 -0.09023198242463297 0.10614405396123713
0.05602957497488748 -0.08898021572805007 0.10515254762599095
0.056407225606738595 -0.0892219802077648 0.10588256365749392
0.05663863948174419 -0.08819198324413455 0.10587145867318111
0.05694830538228426 -0.08714149317386843 0.10590370376108085
0.057153626321613096 -0.08607970539393034 0.10567034771786796
0.05739472117647793 -0.08533591862425165 0.10570447858255022
0.05750832463693514 -0.08458248847527794 0.10556785968055618
0.05771899631709052 -0.08521927184389791 0.10624221653992189
0.05778065039845974 -0.08357725393275947 0.10548906358696884
0.057989400499965836 -0.08447033521080057 0.10632266537483767
0.05779665299562689 -0.08259331290386464 0.10511004343678645
0.05836598337411052 -0.08362713731607259 0.10641473758010409
0.05821752696068712 -0.082852337129974 0.10580365406665897
0.058605834802661794 -0.08295938663308253 0.10639613775434867
0.058120802575726146 -0.08201399858306233 0.10530285914086143
0.0586030778636237 -0.08229459143382023 0.10601935721525932
0.05819594356669664 -0.08139184730290108 0.10509603076508767
0.05861701423501592 -0.08145567970573081 0.1056437159030003
0.05908422646296359 -0.08057494207757274 0.10577618124920007
0.05917362460447422 -0.0794757633167077 0.10541710046981442
0.0595562101497432 -0.07982430498356961 0.10602911411582375
0.05923653993273309 -0.07876803814639875 0.10519409737804386
0.05962182902394131 -0.07896113871464888 0.10576568616656477
0.05988974631624021 -0.0781287155583515 0.1057942297764114
0.06034784867957588 -0.07757109176927829 0.10612394539261098
0.060285759012580764 -0.0766333122701783 0.1056434071855189
0.06072752638592242 -0.07694859637990283 0.10626925216790262
0.06051865530919038 -0.07558641756612701 0.10545105672515744
0.06085414091258741 -0.07628637229163357 0.10613072855403734
0.0605316759623823 -0.07454412682079728 0.10505821175156647
0.06122227001275002 -0.07567487718899285 0.10635156545455358
0.061030683405277154 -0.07482773465632751 0.10575430346428638
0.06151641525216483 -0.07498422885256942 0.1064095607868552
0.06051880781490519 -0.07371503943474791 0.10472554280336695
0.06099071234713709 -0.07391036299245994 0.10536201985875618
0.06148382854053884 -0.07415519929101126 0.10603905411836684
0.06096359749897895 -0.07301662102779344 0.10494735194424891
0.061546344393249186 -0.07306795158153033 0.10564900810572012
0.06192395286763601 -0.07217273030910977 0.1056360684073468
0.06237014293714485 -0.07158692929008438 0.10593684349967698
0.0623135229906333 -0.07083472487059779 0.1054887572463791
0.06267174354167362 -0.07098068778159197 0.10602010621832651
0.06233904754424227 -0.07037468620279912 0.10524459514091532
0.06272020067716819 -0.07036058458674338 0.10572043143282858
0.06319396483762403 -0.06959610452582088 0.1058164656484274
0.0632210612147895 -0.06882214126168601 0.10526800354817639
0.06368252983353404 -0.06885083025440718 0.10589227729354056
0.06398934872154238 -0.06834148699410096 0.10582125536786277
0.06408186821960554 -0.06801520549995749 0.10559080345302281
0.06474114414733109 -0.06793044050086369 0.10614886330898203
0.05632795381918545 -0.10616838942247636 0.10625053582074077
0.056427326262727215 -0.10558131804239443 0.10635845999095117
0.056796011947195905 -0.105876265543455 0.10693742529635668
0.056446187884869096 -0.1046799962590597 0.10641562205706617
0.05678613520201906 -0.10517236573209829 0.10695818873588697
0.0564129699546079 -0.10367210909360824 0.10638335303370657
0.056807124628642285 -0.10427363072659784 0.10695375184743547
0.056355875169568866 -0.10269081894678854 0.10633775877807262
0.05678523217424415 -0.10327315731206556 0.1069398390596416
0.056308894685010234 -0.10170649320431228 0.10630688643241744
0.05675135944132209 -0.10229771341844453 0.10690035713672136
0.05626122180920126 -0.10070591373925264 0.10633336697002392
0.05673328467193102 -0.10128442311595556 0.10694038987871146
0.056233546503300924 -0.09962924033280404 0.10639043874282496
0.05670343611151494 -0.1002100582481335 0.10701056932420279
0.05616011460488627 -0.09863791878946021 0.10639824063317688
0.0566651598265622 -0.09905191709576368 0.10714077068681961
0.05611476216331376 -0.09772237687243085 0.10640876745515554
0.05647210117424261 -0.09817835178496818 0.10692815851418674
0.05610801757919203 -0.09683661756762582 0.10642218942797882
0.05647821809244731 -0.09739508926229576 0.10702203074346953
0.05613337506842779 -0.09589872535929123 0.10637812130731651
0.0565111829606675 -0.09654162106234836 0.10700943853607209
0.05618558848729611 -0.09491601314471647 0.10636520764451116
0.056574288932759384 -0.09553803281964827 0.10697774607157756
0.056209560598037334 -0.09384021327691355 0.10634401042500172
0.05662567087327465 -0.09450483841318766 0.10699369929465541
0.056204265841768054 -0.09284500695487433 0.10626116086898935
0.05664981621528948 -0.09344753463243217 0.10694789176110506
0.05618874633257569 -0.09196219435734117 0.10609077811337653
0.05673731444387013 -0.09218034996187528 0.10695991111327804
0.05675333508016867 -0.09092708603073793 0.10687296337979046
0.056800295359229945 -0.08993005120576558 0.10670713958641669
0.05688443143010752 -0.08897482242891623 0.10658139646884773
0.05704010952908629 -0.08815251621353119 0.10654195905944605
