# .PCD v.7 - Point Cloud Data file format
VERSION .7
FIELDS x y z
SIZE 4 4 4
TYPE f f f
COUNT 1 1 1
WIDTH 789
HEIGHT 1
VIEWPOINT 0 0 0 1 0 0 0
POINTS 789
DATA ascii
0.0642834883326834 -0.08118472570433008 0.08148368332571113
0.06425262355981026 -0.08039914304540118 0.08156552817106658
0.06424072735465378 -0.07962620592590193 0.08160522394385895
0.064241146634067 -0.0788353290319967 0.08163848237465995
0.06423858021528012 -0.0781201190757986 0.08091637221968756
0.06422140201382358 -0.07732373704011292 0.0810486739222045
0.06418739983814346 -0.07653732903205208 0.08124317214785734
0.06415694043197752 -0.0757364207149474 0.08142300401508488
0.06411583513161495 -0.07493842184221618 0.08158640783809848
0.06410318575767152 -0.074150600200949 0.08174419705933009
0.0640473654745484 -0.07337962729175919 0.08106691870119036
0.0640402201608454 -0.07262423329890526 0.08126210271287841
0.06403546375980822 -0.07185908829068757 0.08144916690999128
0.06401844693111695 -0.07098381127234848 0.08159707761200673
0.06392685792098624 -0.0702007365939235 0.08130449431650653
0.06376922997597194 -0.06974230606945772 0.08081692210261683
0.06386710131123681 -0.06961284992879004 0.08138043654465701
0.06379701779415493 -0.06883402551781782 0.08145741311472829
0.06374369081218904 -0.06800365343721897 0.08159549634903474
0.06370856540478262 -0.0672213216202199 0.08167451800393169
0.06339774897221243 -0.06643888698277944 0.08110528700956363
0.06348140251431045 -0.06586359018625093 0.08155849073237559
0.06345008639393068 -0.06501030846523556 0.08187592442683951
0.06341521069879562 -0.06450096318706341 0.08190937379423932
0.06273263022549382 -0.11120574544831564 0.08235995426723987
0.06272517063796851 -0.11135121538819123 0.08278418659978849
0.06294800013960321 -0.11089294199797599 0.08284681212371846
0.06315028790382993 -0.1103501360764273 0.08225382299619474
0.06366380547963084 -0.109211055835993 0.08258665412677038
0.06406123129743332 -0.10821339148464797 0.08245541171731383
0.06430615101042218 -0.10745676975766927 0.08270341080802368
0.06452711429904687 -0.10655415031465182 0.08289009535660626
0.06472977148777015 -0.10577236953039333 0.0821991220623498
0.06481758502780231 -0.10493589475995811 0.0823378935346961
0.0648212530159757 -0.10419296685240587 0.08250225841404821
0.06477020564231996 -0.1034811766868895 0.0827315454339465
0.06488568057837266 -0.10272762080697806 0.08210559003166423
0.06487000090796023 -0.10189270737683821 0.08228646671757991
0.06496009785477279 -0.10114790412412998 0.08203149164285764
0.06480915930261386 -0.10127561972446304 0.08266391966233591
0.06502154457186878 -0.1005739212537985 0.0820880511784721
0.06516713541836369 -0.09980014814802304 0.08209454889024505
0.06535687425695122 -0.09894958566466974 0.08212385648910508
0.06557351890680409 -0.09807444983289544 0.08214801283799501
0.0658181322565108 -0.09719416825965187 0.08218631329169153
0.06608057223596525 -0.09632135556307399 0.08224584426005735
0.06631061482619387 -0.09550937184666981 0.08232220970831743
0.0664275155628989 -0.09489060648188623 0.08246911172864226
0.06659914504333346 -0.09374375599011828 0.08199717163668697
0.06653792970760003 -0.09424908301566834 0.08235772407628753
0.0664729391087193 -0.09359843699167177 0.08260295920755799
0.06646176358060601 -0.0931793762305111 0.08207024012204374
0.06605898683974243 -0.09182143528460873 0.08183012930645422
0.06622727746672398 -0.09235547953834203 0.08227929756034832
0.06605444908939921 -0.09162736439559514 0.082354473952758
0.06588332549559764 -0.09111248494612557 0.08188652324141295
0.06572573859154493 -0.09035875168285737 0.08194479829378172
0.0656628034303345 -0.08975674488624477 0.08224917768926937
0.06559217899986124 -0.08912235626658464 0.08255963650207546
0.06522067697019786 -0.08769480490046695 0.0820447907686137
0.06542469704179514 -0.0882680464948054 0.0825903525948139
0.06523472007564081 -0.08743517215965305 0.08255566531938056
0.0650355729804478 -0.08683257145015358 0.08195071625428191
0.06485638018128322 -0.08593338885074704 0.08182314235033748
0.06475426973781684 -0.0852570290217915 0.0819600254457876
0.06464391526628259 -0.08446547044160337 0.08203049558410537
0.06453598072044149 -0.08364730283140687 0.08211730287743954
0.06442996781622039 -0.0827879294608154 0.08217978532058252
0.06433571643449629 -0.08194903633538522 0.08222059757778336
0.06427599209716378 -0.08113512921381479 0.0822746447055499
0.06425162760075728 -0.08032849195574969 0.08232876343091856
0.0642399139072345 -0.0795358513112459 0.08237384055552731
0.06424482678685112 -0.07878429920765447 0.08241602593256586
0.06423074692739533 -0.07808794235241924 0.08175844754933488
0.06422660130835242 -0.0773700369740877 0.08196625577825173
0.06419856396642983 -0.07659724476336023 0.08218008612971167
0.06416463562957989 -0.07575841029012395 0.08232856602813256
0.06413207305080508 -0.07493974027990447 0.08245639627270432
0.06412725146127465 -0.07416089251895337 0.08258837769469868
0.06409966582509669 -0.07339608568326089 0.08192393984965986
0.06410388743457691 -0.07267732595812514 0.08215684594023158
0.06413449754360342 -0.07190721574900895 0.08238194450345707
0.06415080678906972 -0.07113712579818615 0.08258314208619517
0.06403307697468924 -0.0703386206733792 0.08197821099004289
0.06401436343679888 -0.06966482932510654 0.08219804352839605
0.06399801467058301 -0.06888273525519925 0.08237398069549619
0.06398971529675475 -0.06798207622901534 0.08249839134325879
0.06386312944475152 -0.06716381066095001 0.08223635444469958
0.06365794974068663 -0.06663998943678175 0.08177502677794946
0.06383084562969414 -0.06661346577641686 0.08237148687573399
0.06377265341724564 -0.06582809342102915 0.08250244383532905
0.06372535805208646 -0.06503389771070348 0.08262738663791806
0.06353475916912407 -0.06445799577115467 0.08229614108409426
0.06363396292783843 -0.06417149733789115 0.0829285622973135
0.06324831581843268 -0.11017560259681455 0.08309653932912259
0.06305543421586145 -0.11074541606132618 0.0834235344277836
0.06354379033093067 -0.10944994928775427 0.0833957699240955
0.06330292158887589 -0.1100556456937499 0.08382112587926298
0.06356611619786505 -0.109248107967332 0.08404363383409008
0.06392380701575 -0.10846245576767452 0.08330560095023579
0.06419914300690718 -0.10740437195451717 0.0836845714270975
0.06443514103732902 -0.10647957479769647 0.08362225984815348
0.06463016856417253 -0.10566456916624109 0.0831348246880761
0.06473028605870869 -0.10483088279602727 0.08304049817245938
0.06465664341592779 -0.10424990679526469 0.08333447229254767
0.0645615272686343 -0.10354409763938996 0.0836160288098721
0.0646827370061367 -0.10275227964538614 0.0829755243031597
0.06462507314183641 -0.10205273759321515 0.08323674376158874
0.06458490301360215 -0.10136740462481873 0.08345937159579114
0.06484819981453452 -0.10058614890219414 0.08281260697179034
0.06495492064076268 -0.0997918583992102 0.08287207999185929
0.0651126104057423 -0.09894429734995401 0.08292176025037717
0.06531710662970022 -0.09805110527411447 0.08297036095629932
0.065556655087109 -0.09712475870933242 0.08302546598641275
0.06583776938314524 -0.09619563835456799 0.08305003718144977
0.06611097641946735 -0.09536291884382196 0.08301568663660103
0.06628005290751354 -0.0946808446100778 0.08301059766226929
0.06632091863292047 -0.09407108355942652 0.08311002268212028
0.06625364558797936 -0.093484344544079 0.08332911747310827
0.0663244973348449 -0.09297983772031218 0.08283688012360318
0.06617293585458069 -0.09244018285323476 0.08314876992109288
0.06596948861660727 -0.0911576032753958 0.08266081686944815
0.06605425263824316 -0.09173156764755978 0.0831110581643379
0.0659343379498512 -0.09091896044925728 0.08332845621142526
0.06583767023521321 -0.09043892270920227 0.08264228591680085
0.0657438995343422 -0.08963171167475019 0.08296159794620721
0.06564135630777497 -0.08887334186789297 0.0831873606365169
0.06553887621008851 -0.08821363824468051 0.08338403206393386
0.06513803790850069 -0.086891725519143 0.08278063460379059
0.06533830342563515 -0.08741704869726082 0.08333452579845015
0.06512567947704904 -0.08662486273931398 0.08327852971754188
0.06493502745374988 -0.08603396665294617 0.08267565380505905
0.06475417122163131 -0.0851209879243188 0.08257950752212381
0.06465168609062454 -0.08442345635607326 0.08277886241974361
0.0645348415824328 -0.08355216009366656 0.082912604833194
0.06441783956715848 -0.08267874297016009 0.08294411273801443
0.06433811720353516 -0.08186585816376278 0.08296764131396238
0.06428265463618031 -0.08108023175995567 0.08304339404514766
0.06426111113361112 -0.0802631658116266 0.08309443036127
0.06425350271071649 -0.07944587593432323 0.08315173464102722
0.06425494794624353 -0.07874701425140333 0.08299190422346577
0.06424071900181821 -0.07815274918581493 0.08256579135558488
0.06424125999147212 -0.07759384051218277 0.08300575312812557
0.0642079355202817 -0.0766360676498414 0.08312667011565845
0.06417512280632931 -0.07575471693492569 0.08322683401617914
0.06414265503942003 -0.07492035845039316 0.08331980687126175
0.06414160698958903 -0.07416259346779097 0.08336857579471187
0.06413328799093866 -0.07346439790453126 0.08276812065102429
0.06418197778348574 -0.07283772859661072 0.08317364873603336
0.06423104726488962 -0.07195008206732527 0.0833186058651276
0.06423924979911078 -0.0712082512168147 0.08340412091298888
0.06415141322932075 -0.07047648458014857 0.08280992141930311
0.06418962891477799 -0.06987849328908313 0.0832099542590968
0.06420220386583145 -0.06896652300918749 0.08331795130215298
0.06422432549888064 -0.06822853713880132 0.08342695190182542
0.06406558080766865 -0.06742827117584657 0.08290593123581856
0.06412630926543512 -0.06687412994748396 0.08334216238641164
0.06405779880770748 -0.0658382410748652 0.08344858352971357
0.06388659115224342 -0.0649919648674792 0.08320086331621752
0.06370817431456471 -0.06451578035262254 0.08281002431071917
0.06383696541887034 -0.06451948851848278 0.08342316627966165
0.06377314618331288 -0.06413123887607791 0.0837588576600483
0.06320608435356756 -0.11038692622354127 0.08404250807399284
0.06336225665536577 -0.10980145709484278 0.08446613660213376
0.06346905692971413 -0.10913433860468762 0.08480953251874193
0.06378878161982338 -0.10840617323243024 0.08426232792375164
0.06392550751785073 -0.10773588497897603 0.08455415856939806
0.06443660574247899 -0.1060139537854346 0.08396299589486203
0.0641268468950545 -0.10684911579620276 0.08445093636609957
0.06420402468018935 -0.10599477890570165 0.08470925536684625
0.06451900139173763 -0.10516742118512552 0.08390530582102863
0.06444406433854609 -0.10434849672449509 0.08425433523893103
0.06433689060741368 -0.10360946629576472 0.08453392728641046
0.06445514540528915 -0.1028350264638342 0.08387355294842391
0.06437819467327803 -0.10214524620787921 0.08411048031687332
0.06432236021127027 -0.10144593659888011 0.08429123567151711
0.06459069368701774 -0.10063650466235222 0.08360295842251457
0.06468360696920326 -0.09983659843603201 0.08369191197622633
0.06480892584371545 -0.09896623110660253 0.08376174044866347
0.06494476487205295 -0.09803656831999785 0.08383790821670274
0.06513756646216981 -0.09704095896765727 0.08395233772938072
0.06557013890557682 -0.09593279751695145 0.08384149988012664
0.06594822245707814 -0.09512389445200257 0.08353910152190176
0.0660181737315764 -0.09456816838859036 0.08366017242333858
0.0660614203539791 -0.09398666743471937 0.08379369390397791
0.06597763376604526 -0.09349200189439541 0.08406303342671828
0.06610790427345702 -0.09293186867002565 0.08364099091545524
0.06596290130961066 -0.09228123721452189 0.08390583299621357
0.06587541231665019 -0.09144374566562136 0.08414316388902145
0.06588314221933365 -0.09065710849936676 0.08399485405458444
0.06586172514522431 -0.09017573269124493 0.08346843069639343
0.06576951916124463 -0.08941425978622719 0.08369183563832017
0.06567137792870668 -0.08858910560185294 0.0839469589214993
0.06552746425886882 -0.08789637908549373 0.08385098800467819
0.06543000411283655 -0.08736183194668601 0.08410550595503394
0.0650157159611196 -0.08607907067429718 0.08347709774260217
0.06521933250322971 -0.08656684448028178 0.08405729264180277
0.0650085292584401 -0.08576390754643543 0.08396027071748766
0.06483713869316386 -0.08528362951700444 0.0833377142152143
0.0646912440797544 -0.0843247193244462 0.08358273127855816
0.06454798307296382 -0.08335667785222041 0.08376647715901625
0.06442002745730432 -0.08249342639303935 0.08355271928168832
0.06436227332941968 -0.08184171288884683 0.08370216523567893
0.06431015024776482 -0.08104371349193724 0.08386259161125514
0.0642769879928075 -0.08018420711010711 0.0837640064892471
0.06426390269567905 -0.07963445193476913 0.08379446028491025
0.06426250699017222 -0.0790321806054416 0.08356992574133455
0.06428156053881769 -0.07948838421255304 0.08423929783560277
0.06425260471508658 -0.078401732419762 0.08322568724218107
0.06427307240702666 -0.07854169688715976 0.08398351390388671
0.06425543155917207 -0.07753503334674629 0.08399009002251054
0.0642153636408542 -0.07660620431939458 0.08404179223935625
0.06417396562681948 -0.07572298863165736 0.08411286961499267
0.06415040862406776 -0.07482143298546072 0.08418974965314421
0.06415616406271048 -0.07406171981200477 0.0839205500215458
0.06415561533970014 -0.07360292625659913 0.08345050094681715
0.06418524549651151 -0.0735267259848164 0.08403429794428983
0.06424718136283403 -0.07277424566135496 0.08413623318310884
0.06430709807006178 -0.07189278969504097 0.084251302300769
0.06430406485158673 -0.07115012913274664 0.08397992029497947
0.0642494596777651 -0.07066884295327319 0.08349743624663448
0.0643420840440179 -0.0706161302377385 0.08409463238286725
0.06437098935990587 -0.06983984981946914 0.08417710330471288
0.06439624102140198 -0.06896505102243618 0.08422296440013849
0.0643755249510398 -0.06826087462703986 0.0840142563933077
0.0642623239898767 -0.06772417494763376 0.08359678469813568
0.06442065948411829 -0.06780415451479242 0.08430090895590349
0.06438619670758532 -0.06688010644755403 0.0843131172428754
0.06431161381247447 -0.06608690553279845 0.08439307439256141
0.06407444129851768 -0.06526170869704007 0.08387911102297703
0.06402873446932335 -0.06473817752904855 0.08438210335504995
0.06385424600548142 -0.06396801587241473 0.08474726284268938
0.06374168737937218 -0.06339904511166805 0.08521220215714145
0.06334620461278875 -0.10950605976507913 0.0850820961643556
0.06331855401039944 -0.10901792585649644 0.0855309699992729
0.06358099042266074 -0.10843148926156893 0.08508902828625577
0.06368560673070178 -0.10766441424032606 0.08526457185282983
0.06377467001994108 -0.1068496662253188 0.08541602280400053
0.06383564856672921 -0.10605084826116724 0.08562876835785056
0.06420518187435006 -0.10518164531163413 0.08492746083925912
0.06414767546032771 -0.10441167166709162 0.08522621379490027
0.0640461362148896 -0.10365382539531333 0.08546164485399192
0.06421220031644084 -0.10289414042211253 0.08478111723581706
0.06410094252386926 -0.10220074714246467 0.08495868725082459
0.06401680900394564 -0.10151184595933749 0.08510215329883739
0.06429250500761939 -0.10070455317709708 0.08442439533026465
0.06433605851283206 -0.09989320626051738 0.08453712748053409
0.06437131234614597 -0.09900957238364771 0.08464014850978183
0.06443993527192443 -0.09808937471440089 0.08474260022086792
0.0646170574551405 -0.09736022559314907 0.0847148092640128
0.06425152329990966 -0.09778422978401902 0.08514283856955655
0.06436737435303289 -0.09726085436978069 0.08520164917911308
0.0649287346089267 -0.09667256728195824 0.08458374059408517
0.06457588138838372 -0.09650255662669587 0.08524996203715675
0.06517350814914274 -0.09599854556690718 0.08456390674570678
0.06554832574785342 -0.09523830455891434 0.08424615950581966
0.06570061210413097 -0.09448978396012551 0.08431059553601629
0.06580139612089209 -0.09396807512633236 0.08434393162582499
0.06564280353436085 -0.09371420504337832 0.08467822366055351
0.06571643390029629 -0.09305744536415692 0.08460766379929745
0.06564412816851983 -0.09224046928519838 0.08483066893253718
0.06560953118143685 -0.0916066441477443 0.08502854292440032
0.06581980493014282 -0.09002335521429353 0.08422947850937043
0.06570462659225214 -0.0907928684207979 0.08481700536412376
0.06575648469538373 -0.08924522832325879 0.0844452866673816
0.06569358346699072 -0.08989778111323911 0.08502702497913947
0.06569771725932057 -0.08860387300768223 0.08462568237459538
0.0656697802703755 -0.08902454919992951 0.08523993690887265
0.06566152158766475 -0.08828888416303117 0.08508428082877595
0.06558567436185989 -0.08790213628859839 0.08451083465296563
0.06542189061779882 -0.08700479937409387 0.0848007629982674
0.06526881350977735 -0.08638805686316564 0.08474347826419108
0.06487772455858944 -0.08503939775478227 0.08416362555184352
0.06510423182003681 -0.08574936316697399 0.08467789617928313
0.0647268807571998 -0.0841756395519095 0.08437884989983291
0.0649155701268822 -0.0848290883741429 0.08492320677444573
0.06460418872069641 -0.08347603386326793 0.08452900226402432
0.06473206491326516 -0.08392921431746427 0.08515486236870991
0.06458584654969969 -0.0831559212202888 0.08494742955984301
0.06448240069480647 -0.08267762753866294 0.08429446244650804
0.06439989816205192 -0.08186770458709594 0.08440704752495232
0.06436039848076092 -0.08133452590707944 0.08454335933539993
0.06432299406885433 -0.08069559159836175 0.08440581143512742
0.06438063788120807 -0.08123768905131101 0.08504300050653978
0.06428760385118074 -0.08005996352123311 0.08422981650982757
0.06432568326269336 -0.08031783521141679 0.08492029098814556
0.06429324246126013 -0.07937774859544255 0.08493475682743828
0.06426403678306133 -0.07841885720740502 0.08488657002303328
0.06424135854999335 -0.07746928279459085 0.08488865025383983
0.06420460409956666 -0.0765700595022235 0.08492663005642799
0.06417705912493205 -0.07570164085284424 0.08499267476759491
0.06416435650714479 -0.07495460816805558 0.08508325930943467
0.06416602758919075 -0.07424364031689586 0.08457146643028997
0.06420100895702063 -0.07369111806752947 0.0849717141434183
0.06428782331057274 -0.07280006073151528 0.08509457575693209
0.06436465325699016 -0.07205216257170767 0.08519735655961563
0.06438622718145728 -0.0713349767886875 0.08464655905819725
0.06446130083389957 -0.07075767601253977 0.08504120922982983
0.06452812501976735 -0.06980675306044652 0.08515898622486358
0.06453919584722378 -0.06903517146308458 0.08493051557413824
0.06448503435266106 -0.06853341415111056 0.08451966652072233
0.06458172722829789 -0.06852153893594097 0.08510680952572049
0.0645918356373349 -0.067746253881194 0.0851926132619659
0.06455372458220052 -0.06683153856303861 0.08520981560167139
0.06441996528073053 -0.06610153287853303 0.08498426093948394
0.06425476177907144 -0.0655615623800788 0.0845675250460959
0.06434188145268638 -0.06561008911026549 0.08527857884149384
0.06408350617815427 -0.06463719913627236 0.08536489034554354
0.06385266150579584 -0.06376369049962988 0.08556038215200787
0.06372536270519404 -0.06323585996528049 0.08577921608009789
0.0630890571600842 -0.10883579591129248 0.08619009225272677
0.06328570459606964 -0.10843449262245601 0.08588517464149382
0.06326178323547492 -0.10770912970157481 0.08612364569440888
0.06330082361542558 -0.10692895368970033 0.08630102290589232
0.06332676437584991 -0.10620684804734767 0.08651886881250632
0.06380963938592345 -0.10530143529380281 0.08592410214639438
0.06372028404184765 -0.1044909219911468 0.0862966066384358
0.06375793893017266 -0.1036740515633265 0.08623043201810623
0.06387315121517491 -0.10292109417290922 0.08573733210731668
0.06380707304624489 -0.10218187831340236 0.0856639962418215
0.06365541004391288 -0.10164650044685167 0.0859563276931127
0.06394796525751846 -0.10078805989254763 0.0852776322108923
0.06390621612844506 -0.09998761539697167 0.08544339966998206
0.06385330725326545 -0.0991002840717946 0.08560504375907182
0.0640004738252915 -0.0983149017538655 0.08543713769689439
0.06360230304981203 -0.09865620680087984 0.08606914806728835
0.06391572399666716 -0.09792755353615072 0.0856922867468657
0.0639554546956259 -0.09733895545864978 0.08585874882520392
0.0640347887671824 -0.09672781782428684 0.08597288908318027
0.06503154987015816 -0.09570731599425167 0.08493125259252968
0.0644840153189609 -0.09584896815633777 0.08567851415613076
0.06518630939954276 -0.09505246207477265 0.08495339644091604
0.06477341869713381 -0.09489626178130775 0.08566938342182867
0.06540863592794428 -0.09430979734606641 0.08490230607581743
0.06512589945861497 -0.09391205524011856 0.08549413077280589
0.06518896653460342 -0.09301012640297619 0.08561296618428603
0.0652426544772164 -0.09220927165447254 0.08569398351065945
0.06535140560849188 -0.0914319168574972 0.08570089859841173
0.0654481459282645 -0.09060371924806418 0.08571967346245506
0.06551554342496559 -0.0897955392289332 0.08583400020292037
0.06553666738662879 -0.08912859162675482 0.08600226278161084
0.06557889458187062 -0.08763013982465208 0.0853012757127028
0.06560476899253519 -0.08833325042742826 0.08585372252986932
0.06548585404817758 -0.08696289792536394 0.0855287499442251
0.06554072916603465 -0.0873634447970993 0.08614715849202954
0.06543088210942409 -0.08664014417952098 0.0860113360034943
0.06529837067896453 -0.08620538678423614 0.08543153408541682
0.06508556552710935 -0.0853673496722678 0.0853727605812511
0.06492374458849785 -0.08465861710495992 0.08566584063402964
0.06477425422921654 -0.08397126697490098 0.08586856625158211
0.06449853194684846 -0.08247154107646093 0.08500100395179626
0.06462160827766013 -0.08316906533831134 0.08564587618878998
0.06441695174665735 -0.08181084305917552 0.08493967269099793
0.06447029820472527 -0.0821045335148803 0.08564037742745058
0.06437356947244519 -0.08115362906194024 0.08576552411864449
0.06429247939240643 -0.08022308815589796 0.08577813210002065
0.06424241869470598 -0.07927685577226619 0.08577439104910213
0.0642220793251075 -0.07832541862391597 0.08575834019201721
0.06421049309924932 -0.07739760171515188 0.08575289964481253
0.06418634388252704 -0.07651415328985331 0.08577570607517322
0.0641658665198281 -0.0756457296225401 0.08586046184738344
0.06416928034457356 -0.07490935998717752 0.08565281379744022
0.0641745388161224 -0.07443405401975818 0.08521975692471528
0.0641703786923404 -0.07440629281640644 0.08580279570569775
0.06421920930596368 -0.07366102014040024 0.08593465478912894
0.06431050515430464 -0.07274705500027173 0.08607555148057028
0.06440892049769963 -0.07198107812439607 0.0857974394620707
0.06443835894075776 -0.07151919798156615 0.08531584668297448
0.06446042101093998 -0.07143786484807471 0.08589621684046518
0.064533866561308 -0.07070570243239672 0.08599263730693907
0.06461310782579206 -0.06998838626051797 0.08613663161636011
0.06463259203915139 -0.06926164770861808 0.08561575164092662
0.06468217591505371 -0.06867682002136104 0.08604411269385918
0.06468958930627348 -0.0676812441542595 0.08616573043045382
0.0646305627436771 -0.06686899421495407 0.08591196765353638
0.06452613710888778 -0.06635893566479749 0.08548999307085836
0.06453129420280293 -0.06633293358408193 0.08607421263722353
0.06433710722720146 -0.06550858214463921 0.08617676273964951
0.0640392645035049 -0.06453693219748778 0.08629194722263701
0.06382510059629116 -0.06360467594655538 0.08645101304476667
0.06370228530602948 -0.06312905478770725 0.08631135857877961
0.06291938555496952 -0.10836740284815949 0.08665353502707719
0.06281008579303411 -0.10772754035964623 0.08696729960576566
0.06285577925032884 -0.10698585427544346 0.08709135494349576
0.06288574651935518 -0.10643249421197308 0.0872143121177902
0.06320105951186927 -0.1056246080751979 0.08698361741619819
0.06319400364392595 -0.10494549388662903 0.08725972372968972
0.06355999064772191 -0.10331291557788798 0.08659625655763785
0.06334099843992994 -0.10409508652986814 0.08711645829015098
0.06316302605244443 -0.10334772407172442 0.08737474418609885
0.06347002449429641 -0.1025539355685457 0.08654071401162028
0.06321605738825978 -0.10180544449034494 0.08689948471135153
0.06353130331951447 -0.10091660006301893 0.08619461899739941
0.06341415040224171 -0.10013253792885733 0.08640881808848228
0.06333445069755554 -0.09943218840426382 0.08657562501491926
0.06326365674264095 -0.09894323218502059 0.08672249688480373
0.06344354253230676 -0.09819913427615164 0.08649427420910448
0.06352136756774152 -0.09739048849679324 0.08656925880080632
0.06372208491110426 -0.09656656853116974 0.08655636747673635
0.06402244138408973 -0.09567428686060521 0.08652276442084735
0.06430873296696438 -0.09474661725813643 0.08648367786568784
0.06453553433756441 -0.0938336452228877 0.08648341442884559
0.06468477137714285 -0.0929744375559693 0.08652185070783831
0.06485034262645964 -0.0921445997683692 0.0865278372350031
0.06501810112593225 -0.09132787469988904 0.08653923397466029
0.06518235480335492 -0.0905101639001552 0.08657521777834493
0.0653200249142384 -0.0897111477596519 0.08663491716886704
0.06543225414431643 -0.08890356568578198 0.08666577862175773
0.06551041388602341 -0.08808680969037043 0.08674094397019957
0.0654935224268051 -0.08740480040408388 0.08693335626036328
0.06531612028978467 -0.0861189459744514 0.0862072184938746
0.06538198120648209 -0.08659569967563344 0.08681127273448534
0.06522103933292721 -0.08581382171017621 0.08670729484408271
0.06511859055785331 -0.0853907171929567 0.08611626416107838
0.06486872625927129 -0.08443155838845563 0.08648360985841332
0.0647022681541226 -0.08363379913455816 0.08632929760344964
0.06454602659949664 -0.08288908569439203 0.08644691464384141
0.06438657057467972 -0.0819737437637572 0.08653775552221521
0.06426699221722165 -0.08105235960620988 0.08661155511383954
0.06418240953893453 -0.08012027710892362 0.08664495942886635
0.06415509798142238 -0.07916980326757965 0.08666400385534752
0.06416681876349499 -0.0782057163722117 0.08662087758294335
0.06416411162729696 -0.0772940689100227 0.08655579183956139
0.0641598073925489 -0.07647611832063121 0.08656396003741132
0.06415327421905795 -0.07583176482565236 0.0866881087602439
0.0641690540303613 -0.07513603700462965 0.08628329493036349
0.06414885599734299 -0.07463057808834393 0.08675258172375556
0.06419169423311624 -0.07370508308326913 0.08691167353878715
0.06424943413335892 -0.07291453242289377 0.0871061537849962
0.06438357918236896 -0.07213665268512334 0.08649374715161222
0.0644472497274288 -0.07148857717434111 0.08675480916372778
0.06454006870848153 -0.07068699804514059 0.0869949679754178
0.06463776956647281 -0.06993439629567588 0.0867565753726896
0.06466773345932485 -0.06946162672244727 0.08629259841046494
0.06467152371735807 -0.06938163629163668 0.08689114727828885
0.06469108196241047 -0.06860565978239506 0.08700763867378095
0.06466633116114257 -0.06783626786658577 0.08714045358855754
0.06464545033128306 -0.06708475120632214 0.08659933898617524
0.06449640671236577 -0.06644634415227879 0.0870123619676455
0.06421887837253068 -0.06542199297043834 0.08712575647386316
0.0639722312053452 -0.06445408980155559 0.08724467950301508
0.06382822022954401 -0.06368059173938827 0.08738739042619358
0.06374558405368937 -0.06325285761118864 0.0869106796353912
0.06258107745142946 -0.10811931042276843 0.0873207405903554
0.06238835334631359 -0.10755611355114036 0.08774761941907641
0.0625433359988387 -0.10695000837856143 0.0876656389020884
0.06214879432934274 -0.10716821777499103 0.08827330724630784
0.06256373410109412 -0.10643305098449161 0.08780467760674932
0.0626673061406634 -0.10570829084077576 0.08791781834357273
0.06278733283218957 -0.10491465309516677 0.08801785603941241
0.06281902626182762 -0.10412814710244377 0.08813170016032199
0.06265919020811857 -0.10342070512784271 0.08835889537864151
0.0629415983273479 -0.10263406305346792 0.08759604113967775
0.06270059196758816 -0.10193716845262195 0.08792497556373648
0.06305265528512286 -0.10104829751489668 0.0871901130345938
0.0628559900855276 -0.10022632594877459 0.08746794991017649
0.06300559121892245 -0.09945473129700867 0.08720272235798274
0.06262034360157154 -0.09964340263254666 0.08792121207807486
0.06298230728295395 -0.09890136842414136 0.08729690682852427
0.06303493523973688 -0.09813961393425848 0.0872863519017575
0.06314135049106052 -0.09734103880548109 0.08731573600896073
0.06331361735442781 -0.09650868775173238 0.0873735868956187
0.06353399636176027 -0.09561038293173901 0.08738236160304626
0.06377944320337081 -0.09470202502241541 0.08738018668061041
0.06398951706873855 -0.09382476496238491 0.08740750977440362
0.06420024750160637 -0.09296521290272228 0.08740804260947677
0.06441488088785847 -0.09211340364077089 0.08740392090408734
0.06463811940229466 -0.09127671434154466 0.08741249793671396
0.06485147466148646 -0.09043421203257188 0.08743623756594798
0.06506542927089172 -0.08957981701626525 0.08747641087758004
0.06525429282265514 -0.08870636358549819 0.08748711414221336
0.06536221737635114 -0.08788568413658954 0.08752390852303688
0.06535845699322507 -0.08713579940038231 0.08753917589429501
0.06525090953113619 -0.08653704042690624 0.08761225347005804
0.06501983706652453 -0.08515942069405821 0.0869612830321956
0.06510884318738724 -0.08584150560443564 0.08747206834728159
0.06479905530856664 -0.08450378762414637 0.08725286096525059
0.06481854879156113 -0.08501271344365004 0.08774218713927232
0.0645703036104055 -0.08423840354320654 0.08793275422769056
0.06461528157638036 -0.08369961065325483 0.08712594891999885
0.06438482340495368 -0.08274491042506524 0.08731859105237787
0.06421579272468471 -0.08185492682142918 0.08742888361556567
0.06409661435949307 -0.08095678997456604 0.0875063510095492
0.06404183096985432 -0.08002142898941673 0.08758573666241011
0.06405964732595039 -0.07901114240450033 0.08764862927953405
0.06410580190827385 -0.07798960571502132 0.08738367051970261
0.06412240100042899 -0.07713876950315408 0.08727563030442151
0.06411858408073291 -0.07641236363902525 0.08722972381234978
0.06411846049299526 -0.0758798062210908 0.0872417840488533
0.06414664636113031 -0.07539999615076674 0.08692860367108078
0.06407151800250963 -0.07551913217477672 0.08764400142979147
0.06406422848070503 -0.07458592568558009 0.0877477331397573
0.06408845702328717 -0.07370363737203639 0.08786782237376109
0.064158469616833 -0.07294349716847717 0.08795011651459657
0.06431823908432743 -0.07225595633054528 0.08736025418941401
0.06433736553684019 -0.07165841492619598 0.08781669171934717
0.06442006110275814 -0.07084998824029716 0.08807986323093606
0.06458042031096607 -0.07009208625864466 0.08746710572720237
0.06458489808013027 -0.06940380496360232 0.08776750654805418
0.06453187885787513 -0.06852851977655466 0.08802081059022757
0.06458406918462153 -0.06774382884739297 0.08776022070905974
0.06461946110424789 -0.06727541856434707 0.08727132952857337
0.06449410663316046 -0.06713140983790818 0.08787461869720548
0.06428360042637273 -0.06626298028108747 0.08797240830435664
0.06404151030288094 -0.06529778261728794 0.08810617109043226
0.06386319156172428 -0.06429632612366225 0.08819791462543577
0.0637803937762951 -0.06363414046573959 0.08800383833729154
0.06375173976124807 -0.063354990038536 0.08763500009239297
0.06372541025494696 -0.06351959107640649 0.08831741647490557
0.062011487718133196 -0.1075355044537586 0.08844309219314753
0.06187473447421188 -0.10727394333030735 0.08878923954552574
0.062052286027512844 -0.10663766082757335 0.08865579449488828
0.06223737382823413 -0.10575496120553737 0.08877705505113502
0.06233106385655402 -0.10494892498244579 0.08893096320714684
0.062314221743416276 -0.10420346487881896 0.08911534303456088
0.062155958460866176 -0.10349705253921399 0.08936678868210857
0.06242404201128967 -0.10274127857620623 0.08864546632693134
0.0621553288606308 -0.10206622047688346 0.08896609714582873
0.062453474415419256 -0.10122384249204869 0.08826185004141154
0.06218431701936723 -0.10048110365120892 0.08868125335384823
0.06225440871075477 -0.09970051418159674 0.08866118835907749
0.06255897780490907 -0.0988964714193559 0.08815454241724197
0.06273111120583948 -0.0980485703946294 0.08797193573365836
0.0627509630092438 -0.09738981317281324 0.08817095660289496
0.06286996544521072 -0.09652062493982186 0.08826538467168638
0.06305746595695605 -0.09561541532259836 0.08829178735456401
0.0632486738597871 -0.09473588536414893 0.0883153068435459
0.06344877452270277 -0.09386151952853236 0.08832901194937808
0.06369536506324323 -0.09299207455294238 0.08832743288703254
0.06393923718335111 -0.0921208386532418 0.08831105551935786
0.06420720261157403 -0.09125725919432971 0.08832714173648185
0.06447647813347851 -0.09037062214129814 0.08837840943699743
0.06478201484113126 -0.08942264434310061 0.08844752987372989
0.06508873364757674 -0.08845739382008325 0.08827793208511295
0.06514982674866482 -0.0875681679348657 0.08834403500715814
0.06518507646862376 -0.08686683321573116 0.08811667565384554
0.06504076949007202 -0.08627354742961191 0.0882092369846767
0.06479560556878186 -0.08555167595420671 0.08832199043279312
0.06450037728408604 -0.0847939535761346 0.08856259080518888
0.0642187197326774 -0.0840189371033398 0.08879936434654542
0.06433740019613779 -0.08342685254823141 0.08808161131909065
0.06412727580629438 -0.08258953337645272 0.08822498153582863
0.063984078470613 -0.0817517987247527 0.0883351354956217
0.06388529913444052 -0.08088795795193028 0.08845172267839206
0.06384409754570025 -0.07995130802623658 0.0886338366903755
0.06394452825318488 -0.07915630329912422 0.0885002701466437
0.064023050075562 -0.07850838325445325 0.08820013714857114
0.06390610400521018 -0.07884945812927642 0.08883301315178062
0.06404587203228382 -0.07772096596725662 0.08803668339493813
0.06391834121140734 -0.07826168329298548 0.08879014926400118
0.06404569182309551 -0.07690773052480517 0.08790093009562543
0.06392741574795849 -0.07746263232817925 0.08870160640951125
0.06406375146040627 -0.07623399051691446 0.08769882115492625
0.06395031791042405 -0.0764581980337271 0.0885021088411278
0.06391390272742589 -0.07546043244566213 0.08861231075890712
0.0639117412856064 -0.07451917750407581 0.08870570416653921
0.06394010496466777 -0.0735801554741409 0.08880028719472868
0.06408296843115267 -0.07283874686041479 0.08853065848713268
0.06421322813047865 -0.07239899695610083 0.08806332480880506
0.06412819568555027 -0.07231028335866184 0.08868543107704056
0.06419317403714156 -0.07159411921721359 0.08884901963968052
0.06426380786442458 -0.07085065642963893 0.08899308776911574
0.06444411406331998 -0.07017778295981046 0.08838030477570129
0.06433978036758461 -0.06952005435096903 0.0888712324343215
0.0642470025785929 -0.06863000281388629 0.0891524566582383
0.06440975592282873 -0.06783847274442203 0.08849830256002306
0.06421651849091566 -0.06704461099087639 0.08875858697219671
0.06402067014395008 -0.06614661497753849 0.08897593075179297
0.06382714886429801 -0.06511010222346271 0.08920164504551416
0.06373573646159032 -0.06427748251678123 0.0889592376826911
0.0637482061129875 -0.06383855037756687 0.08852060175749021
0.06368645444123068 -0.06393872605678438 0.08912577320134452
0.06176931792259394 -0.10701320334060162 0.08911918983287932
0.06186737618588802 -0.10641914571118379 0.08921372377918607
0.06195179553728769 -0.10560243812011023 0.08952393105333416
0.061947394089574906 -0.1049360425417511 0.08980356030955582
0.06189762815226218 -0.10422224221748985 0.0900314639769013
0.06171842055877133 -0.10350723890822998 0.09034888886084323
0.06191711925589647 -0.1028152156751005 0.08968882379511327
0.061666238384190386 -0.1021267448038367 0.08996772685275728
0.061880525422847575 -0.10139168869421683 0.08928779667641795
0.06168527053544779 -0.1008509051650018 0.08960425913935871
0.062135415283620876 -0.09928259808876365 0.0890161942169056
0.061814520151973695 -0.10008414520395921 0.08952756886180493
0.06175534530419072 -0.099268481374294 0.0898258026766951
0.06227446464635264 -0.0984068647682844 0.0889106054034523
0.06230793596797458 -0.09746032525996294 0.08912333183169532
0.062415658538104775 -0.09655891305778444 0.08920568433875535
0.06255971971229583 -0.09567949044791785 0.08923048982998519
0.06271191895898315 -0.09480530572010519 0.08925785010586211
0.06286427923258622 -0.09392455697938956 0.08925620330776965
0.0630741689276302 -0.09304224891701549 0.08925328629775536
0.06334334888413419 -0.09215274331952031 0.08925345657586127
0.06361774256796791 -0.09126994233677078 0.08931013042505488
0.06394220232681123 -0.09033685718734147 0.08944920296126094
0.06443322183260446 -0.08957252770066318 0.08926246204188126
0.06473911738870218 -0.08895518165912068 0.08901300589645254
0.0643890687652626 -0.0892851184689846 0.08959222819827264
0.06486198434371618 -0.0882358122507502 0.08901882367989819
0.06447355775666135 -0.0887553274236821 0.08966331018492779
0.06483748403156085 -0.08761131754188804 0.089129638038558
0.06445754531306996 -0.08805444008921098 0.08983516030519628
0.0645639097568349 -0.08737409669740237 0.08962662713134553
0.06482485430038777 -0.08684077615981453 0.08895877053343301
0.06471765726495857 -0.08603538015760004 0.08886402771840224
0.06439703556788466 -0.08539104670044409 0.08915447579974549
0.06402185534802701 -0.08460944318751394 0.08944375189989373
0.06372682538357752 -0.08382801548159387 0.08969696955847108
0.06396728567328884 -0.08323389967017773 0.08899497504068976
0.06379841748231467 -0.08244386234869167 0.08911271565255278
0.06368336037021878 -0.08167305379904549 0.08922676832972291
0.06358776294132891 -0.08090083526559996 0.08941743576628929
0.06353959249513032 -0.08018482795387456 0.08970346988823712
0.06377239456446188 -0.07943153836454783 0.08919385148511498
0.06374263352760363 -0.0788587974813306 0.08944648938494346
0.06373594763706904 -0.0781439693385399 0.08951809073949304
0.06374054116629838 -0.07727312717897762 0.08951010965549383
0.0637166980574633 -0.0763214174537368 0.08951295606615371
0.0636821512693364 -0.07536555326852637 0.08958470459819871
0.06367454628662635 -0.07444058758628039 0.08966379302469807
0.06370267841648956 -0.07365431897610641 0.08974501250946397
0.06393859384047484 -0.07298126373357869 0.08921123928911934
0.06389672224086423 -0.07240104365779218 0.08966912345081413
0.06395646238163648 -0.07147138849238101 0.08987107555895699
0.06413108173118856 -0.07071901490462142 0.08962734662730078
0.06427326553122178 -0.07028772674989399 0.08912797567943569
0.06411115237612204 -0.07015012277518698 0.08976980792314546
0.06404790525936924 -0.06939928732431858 0.08993070091483284
0.06391322279961077 -0.06859327512765101 0.09017042412550241
0.06408930973451796 -0.06783060361290215 0.08946068914597184
0.06390422341604869 -0.06700685848191398 0.08977713737256054
0.06376104628408935 -0.06611333626299822 0.09006871173543918
0.06363958760737794 -0.06526485401369211 0.09034443346716704
0.06368331086604966 -0.06450035227512065 0.08973092736971569
0.06367039268071895 -0.06421078984585672 0.09007830129383343
0.061757282281362014 -0.10530840106705297 0.09013402730303342
0.06171227899034673 -0.10477646786165239 0.090361975052738
0.06161590834882698 -0.10407148906416117 0.09065439787947036
0.0613645193286081 -0.10336071432854758 0.09118863014326051
0.061450583950928596 -0.10276081395835014 0.09077268420157075
0.06135592482723757 -0.10208732863684968 0.09075586304062275
0.06144810425854795 -0.10142628798741836 0.09031533871165917
0.06143177966745742 -0.10071090381728381 0.09025229752568224
0.06133192937787782 -0.10007630956870513 0.0905773896648173
0.06123940306785807 -0.0992231604234253 0.09082551237739012
0.06174876713447952 -0.09837133436063143 0.08999114710199968
0.06183152197482615 -0.09745601134857516 0.0900939308130431
0.061922152323075415 -0.09659625938645301 0.09012348387565
0.062011041186538864 -0.09576175269611893 0.09017437014088896
0.0620603539715575 -0.09489942707589973 0.0901992639097792
0.062138295307866125 -0.09401022968292985 0.09018895238462053
0.062313202064729366 -0.09311423247075701 0.09022766259049082
0.06255014998166555 -0.0922162963831892 0.09026576685824829
0.06282237137815734 -0.09134684543605931 0.09036816283803596
0.06302391903818301 -0.09057473697995273 0.09059384486948077
0.06390484001009344 -0.08983365420667115 0.08998028320482016
0.06392712388637402 -0.08929623791122289 0.09025241960821194
0.06395193630595847 -0.088703094133882 0.09044267614861035
0.063879834583373 -0.08818293856673746 0.09065196117731919
0.06433392931058429 -0.08690256058571652 0.08986784596688338
0.06400693562418877 -0.08749679408967503 0.09049257406296475
0.06377922670239375 -0.08669093241087159 0.09066553534997301
0.06422662977117218 -0.08613534424434303 0.08975685408355913
0.06380286352944486 -0.08524352172213248 0.09008162074621737
0.06338631650460833 -0.08441258224333127 0.09045435358795954
0.06324475543321324 -0.08367721634458052 0.09046170902910686
0.06344430607855032 -0.08303307100660527 0.08996162959339492
0.0634521264338516 -0.082275242758734 0.08983505086634817
0.06331728868210001 -0.08167031200195402 0.09010982573577578
0.06325071193653087 -0.08094893101879609 0.09035771191891438
0.06321827989131026 -0.08027189746153011 0.09060061975591056
0.06351037500320628 -0.07955613972656847 0.09002799436799536
0.0634649410258969 -0.07889725655503968 0.09027160056088587
0.0634517568488333 -0.07809239428211993 0.0904178009986157
0.06343874853531518 -0.07716585480884844 0.09046672321668696
0.06339748990894623 -0.07621471080048639 0.09049894043062895
0.06335374902200538 -0.07526496824180468 0.09056023334844893
0.06335558048488449 -0.07430384015335575 0.09064113418398821
0.06352712654092425 -0.07355669635688188 0.09034474798190419
0.06373823150507298 -0.07311772212806437 0.08988292368372072
0.06354322515211396 -0.07302809702890051 0.09051585416649346
0.06356672400218863 -0.07230166363893767 0.09071079477455123
0.06360004997671669 -0.07154443085595814 0.09096652604011386
0.0639043426657462 -0.07081594839938077 0.09036783295702407
0.06381238259462971 -0.07012379499498257 0.09068967100875944
0.06369986766498088 -0.06933737960881323 0.09094960062336967
0.06361771976725569 -0.06852323216570959 0.09111160346439619
0.06377823081692537 -0.0678264055498687 0.09044667920928856
0.06359509596269264 -0.06707738464032095 0.09095612645677555
0.06354976691316143 -0.06610689645108749 0.09110765953331967
0.06356545901131955 -0.06532946031100738 0.09118646606532309
0.06363238338472457 -0.06466060431844256 0.09059615673384154
0.0636534331159996 -0.06439869462849726 0.09072539408194728
0.06112546430004718 -0.10314013651554682 0.0918390763448051
0.06113916719446152 -0.10284247179777957 0.09171240454329112
0.0611798800293171 -0.10169588713214468 0.09115541129767318
0.06115322553343368 -0.1022461436614604 0.09147175040825858
0.06091231212358469 -0.10159846097078232 0.09186485720519448
0.06107282133435124 -0.10093836345507316 0.0911984408543403
0.060810731527440764 -0.09998438709883563 0.09168337308702983
0.060818536162446535 -0.0991334544780703 0.09166400285050079
0.06120437888549482 -0.09828874002895244 0.0910841750935229
0.06142289595666528 -0.09735240664093742 0.09086670275274375
0.06139062036297879 -0.09665956526375426 0.09101205641710262
0.06136508297174589 -0.09584507082055024 0.0910894675919697
0.06133168702909495 -0.09499303496744517 0.09115210622331879
0.061376439661256624 -0.09409330088211512 0.09119893909880102
0.061508870976185626 -0.09318096260806057 0.09123921941076701
0.06170878451479501 -0.09227658555489032 0.09129424862130633
0.0619189787364012 -0.09143202238242774 0.09143251559727521
0.0621162591769918 -0.0906362601066756 0.09163940543608705
0.06312033996444466 -0.08991497945096795 0.09087278750735997
0.06320214975362345 -0.08926404384852706 0.09109468941284367
0.06330588414497018 -0.08863663145108704 0.09125128516567352
0.06333950089569906 -0.08800787003504358 0.09136658006211457
0.06319075036495038 -0.08726643213421269 0.09164982220573947
0.06318057376335126 -0.0865228775599287 0.09151844515047038
0.06341962821268862 -0.08586006572955987 0.09092777857804492
0.06325942742826053 -0.0850794717106349 0.09090609776451741
0.0628760808936122 -0.08461993197734506 0.09133066562167663
0.06296187898958144 -0.08323620101768558 0.09081581394512152
0.06271800052894638 -0.08387403882881446 0.09132320831545247
0.0625088415755841 -0.08307177124962004 0.09157104978294908
0.06300549490891613 -0.0824782094018603 0.09071474884252491
0.06289036486265584 -0.08166052736502456 0.0910080122484646
0.06286558299119292 -0.08093984123197744 0.0911938252285573
0.06289548034564432 -0.08031356455690233 0.09135855632271102
0.06318554523057335 -0.07965903991405562 0.09087951010947527
0.0630249317456097 -0.07905771115847642 0.09133927837455082
0.06305485598956136 -0.07804349356984835 0.09142764584035812
0.06302636482960679 -0.07708093948880333 0.09145710439530894
0.06297021259201037 -0.0761250424762182 0.09149019086326399
0.0629205950038311 -0.07518983374287525 0.09155065752707751
0.06290841315220454 -0.07438305248157588 0.09163812999846264
0.06323622474023169 -0.07369323888863705 0.09106272397100532
0.06311543850247457 -0.07311181400772661 0.0915559526072329
0.06319513413861137 -0.07226131796390901 0.09176874088006469
0.06331487364527509 -0.07152906912372795 0.09189829284585871
0.06359717436991603 -0.07086228362343744 0.09129104038272583
0.06345903323107145 -0.07018637677980127 0.09181542540217866
0.0633858136311532 -0.06916597527898082 0.0920240443541764
0.06340432588921807 -0.0683521428849312 0.09178556459878986
0.06354172775615259 -0.06789260518063175 0.09126102103490964
0.06336146404141679 -0.06775834605607717 0.09191001749580459
0.06339824952562048 -0.06694930344651168 0.09192677736568523
0.06347076352736132 -0.06608312018246827 0.09179932425179536
0.0635500030599062 -0.06534327681793504 0.09154436911575489
0.06361154570036552 -0.0648372010172471 0.09114495709706462
0.06102306638965058 -0.10284443048140018 0.09209873795452382
0.06093657239596375 -0.10224594123500046 0.09210655421181864
0.06069129769832526 -0.10142200477262209 0.09241437379565452
0.060629557514424545 -0.10078090232348456 0.09228327602614679
0.060526071926554195 -0.10011702893198668 0.09244301995616803
0.0606993718648461 -0.09862321171572669 0.09200480783716043
0.06047553767163016 -0.09937032127570168 0.09253402085502659
0.06045048661825752 -0.09849129094016439 0.09256034827759123
0.06079782024408321 -0.09765946236197108 0.09189734494084677
0.06089307227556238 -0.09665347582603402 0.09178006208611357
0.060733261032128866 -0.09592885897659602 0.09197985387362764
0.06064826523862815 -0.09502201601715994 0.09209978197229035
0.060626694140071775 -0.09412235520819898 0.09217128166641175
0.06075370203363299 -0.0932141874795235 0.09224269925550999
0.06093303016927134 -0.09232415482622859 0.09234041241902304
0.061134371777709605 -0.0914700317364331 0.09250012099523566
0.061307983379667856 -0.09062039869815335 0.09277424778624208
0.062319669563130585 -0.08989789920465277 0.09182900112806125
0.06241834808180884 -0.0891657115669038 0.09209373197700609
0.06275405101237645 -0.08849549571969421 0.09199373062509016
0.06260930970434453 -0.0879856691287314 0.09233193363279442
0.0624356051431845 -0.0874562863891039 0.09269433120395398
0.06284203553061223 -0.08605924171124034 0.0919278535330593
0.06253858338789067 -0.08671313258569295 0.09258144986695446
0.06224193498617259 -0.0858858567060456 0.0928583096236275
0.06271980340581139 -0.0852876485354409 0.09188277737307342
0.06232964145059489 -0.08445988066220335 0.09218732090256469
0.06203201477345741 -0.08362458540948176 0.092473843072955
0.06203840218370622 -0.08284475449316321 0.09233339007766307
0.062446936331174686 -0.08231065499354834 0.09169609665502415
0.06244942445066261 -0.08156069697172111 0.0918552477996759
0.0625577304447807 -0.08086136646446569 0.09190368762452823
0.06264150164495504 -0.08031895760589587 0.09193427963489081
0.06286239367502869 -0.07985173445799941 0.09158675273695466
0.0624579655242195 -0.07993202188487711 0.09236973177810222
0.0625291777274632 -0.07894035695936127 0.09241529613120131
0.06253995004083693 -0.07795448643222817 0.0924494225043931
0.06249644617995428 -0.07699204405423048 0.09246708505287154
0.06245076175994276 -0.07603603668542801 0.0925242846846182
0.06243987922972898 -0.07507064405467453 0.09262216199030554
0.06261728143655981 -0.07428681211303477 0.09231266868148094
