# .PCD v.7 - Point Cloud Data file format
VERSION .7
FIELDS x y z
SIZE 4 4 4
TYPE f f f
COUNT 1 1 1
WIDTH 785
HEIGHT 1
VIEWPOINT 0 0 0 1 0 0 0
POINTS 785
DATA ascii
0.05599690244796283 -0.10170443984679468 0.06345249883710087
0.05608436083532162 -0.10071839294221586 0.06364316737358858
0.05614642200660932 -0.09980295217780989 0.06383352311210101
0.056301222614250815 -0.09883322132096876 0.06413967392096281
0.05618115963012678 -0.09798921982006811 0.06404251211067445
0.05573874026262574 -0.09735039048928848 0.06347081859614813
0.05558150639721298 -0.09653677942859153 0.06337181559954766
0.05576068195536386 -0.09581438416151293 0.06364850371508315
0.05598650827117348 -0.09499519557676563 0.06389654700402032
0.05619584791312353 -0.09404425525042943 0.06415838465901813
0.05631361248994295 -0.0931914954258079 0.06431389923551406
0.056412180097896905 -0.09255644037451484 0.06445892983370505
0.05705987597807944 -0.10872524750818889 0.06532652995309023
0.05715081050249652 -0.1080769588914016 0.06534389686030648
0.05728620324992195 -0.10690752350141111 0.06539481794042967
0.057185069401963676 -0.10600659072595817 0.06516718143239042
0.05693470167458856 -0.10525104860261023 0.06477815741812569
0.056733989586919116 -0.10448533474302926 0.06453744180622538
0.05682461988317685 -0.1037741871267231 0.06467504578731342
0.0569999425777855 -0.1027880398221208 0.06494312638959071
0.05696722491289833 -0.10192322285363836 0.0649134219512441
0.05661681307904131 -0.10126493845939875 0.0644148439743848
0.056547469152640986 -0.10038515057490152 0.06435963190848615
0.056775556151291026 -0.09962677734618715 0.06470668919545057
0.05699816225867605 -0.09887110747932282 0.06501422850055066
0.056339020330821075 -0.09741521880884293 0.06432767402274144
0.05687106544572795 -0.0979847303897023 0.06496758212787287
0.05677622718998447 -0.09708729579624938 0.06489299771232061
0.05621393017761424 -0.09657206471554473 0.06418673076405998
0.05651650646179442 -0.09545492447968928 0.06455827866535957
0.05642526397383628 -0.09453095326694862 0.06444809649130238
0.05660453838901595 -0.09374170927489758 0.06467181612782268
0.05665744319547913 -0.09286251589569271 0.06479217542567067
0.05678680758031601 -0.09210022457639284 0.06496752598816033
0.0569468372944577 -0.09120150120736076 0.06526452741242426
0.056913378459501576 -0.09030482800227954 0.06535806643255512
0.05682341209652922 -0.0894422450161475 0.06540276871979425
0.05682315734564622 -0.08880425651766956 0.06550172215214599
0.05676813838168587 -0.08330442568075706 0.06522826841070617
0.05674810932901715 -0.0828365955031026 0.06521505844855101
0.0572187802193703 -0.10900469845108116 0.0656808241641286
0.05728861079882308 -0.10860925203830302 0.06569712896094679
0.057448994538340875 -0.10780398753515202 0.0658076925730171
0.05767040668778107 -0.10706107392370136 0.06604304945137675
0.05735972712395713 -0.1054138665734722 0.0654007816700037
0.05774647131278921 -0.10606752296388951 0.06603361644298633
0.057747366337559364 -0.10511578117628279 0.0659863432524624
0.057330350360298446 -0.1044679688066611 0.06537510333404069
0.05732848609549541 -0.10350425511098622 0.06538963411778688
0.057593052138086985 -0.10286185123634319 0.06576437910918168
0.05721296080513292 -0.1013004753840525 0.06524816017533283
0.057635938680848806 -0.10190374336515248 0.0658224666215259
0.05768217208676583 -0.1009401881145807 0.06583378949315591
0.057188766676627645 -0.10043001211273299 0.06520766497856201
0.05756318086946048 -0.09933494879905941 0.06564435541268779
0.05746147918103117 -0.09851390811258591 0.0655712980380346
0.05761799276558402 -0.09792372060148842 0.06580821210374177
0.05700827148626999 -0.09628918179805618 0.06517763177955264
0.057500106793363835 -0.09709832053179598 0.06572347768022808
0.05720518870222644 -0.09549609675303027 0.06544087576720378
0.05777568194132364 -0.09601235498174164 0.06612416242117672
0.057646947332843396 -0.0951337188320106 0.06598616232996825
0.05705017923912676 -0.0945960907656181 0.06527265438764265
0.057303250756781096 -0.09348132418722437 0.06556723558854169
0.05714343240992997 -0.09256154282896002 0.06539772975900701
0.057268542192116814 -0.09183358080450309 0.06562825485188727
0.0572652138961278 -0.09094391207879216 0.06577640989100986
0.057193585738419934 -0.0900443700077485 0.06584621529682202
0.057130289895561154 -0.08917299319568024 0.06588392374567842
0.05715961897245195 -0.08837469968180439 0.06602616961691415
0.05723311462029077 -0.08738531237476968 0.06620799551225238
0.05727263580101561 -0.08638958606559544 0.0661686884812659
0.05727891334231345 -0.08535955126387738 0.06606311050542708
0.057134632444229005 -0.08416838961502063 0.06578452391975666
0.05702124338414455 -0.08325950902110524 0.06562602453415989
0.057097434969205475 -0.08250083988507756 0.06572418603037676
0.05722876370263834 -0.08158995367637226 0.06595248517998133
0.05724963382470583 -0.08074041764881205 0.06603640957052644
0.05734075387753606 -0.08014149476194592 0.06616696095916438
0.057731825773228766 -0.10897247978058841 0.06650456236683464
0.057706372539516056 -0.10831386480686504 0.06631405215548448
0.05791903188613703 -0.10760667595302548 0.06652278115803496
0.05812004255672339 -0.10678265204025954 0.06666923401425227
0.05835350099956586 -0.10604017860827936 0.0669187888468087
0.05795600014529366 -0.10447631152110678 0.06629346318138783
0.05838591774677216 -0.10509153327929396 0.06690336056323576
0.05839054973075862 -0.10415402550036247 0.0668896009686498
0.05798377643964895 -0.1035213995620158 0.06631151258691867
0.0580458420977911 -0.10255421262266987 0.06636676038563408
0.05832700819716909 -0.10190402143838477 0.06672344926525489
0.057963963949348433 -0.10012672134763292 0.0661634456908815
0.058339230300593146 -0.10096573851847536 0.06669874668391347
0.05822241257288442 -0.09933991673599836 0.06645119498877375
0.058704966980113175 -0.09983453743760924 0.06710450027873976
0.05864218338486207 -0.09900740006208766 0.06698695118584484
0.0581595315282966 -0.09845283180233065 0.06640018584758821
0.05809399053541644 -0.09756413750410328 0.0663524041299131
0.058269640543271224 -0.09681520559252961 0.0666382721498644
0.05847059303717124 -0.09607762505935927 0.06694075486742462
0.057823406197904714 -0.09437789471494824 0.06620042912626944
0.05832686231390595 -0.09520937708943934 0.06682750828401655
0.0579958869623138 -0.09363792699679063 0.06646494227191238
0.058462090895606666 -0.09426027226711152 0.06705187323974918
0.05848377583767067 -0.09340095411962893 0.06717002153317951
0.05779935890085305 -0.0927258022801378 0.06627755785250129
0.05785979558715827 -0.09173109620336654 0.06648063528028716
0.05783987413717218 -0.09082100157848107 0.06659715353434395
0.05775608786747264 -0.08992101709631499 0.06665171929566924
0.05770364844602913 -0.08902103576055445 0.0666863513052891
0.05764977482444139 -0.08809174978391479 0.06673381552008595
0.05763551125749646 -0.08711690792130336 0.06670372758157302
0.05763303204476353 -0.08612747901563747 0.06664588501108684
0.057613242747358774 -0.08511351321594243 0.06656079374853834
0.05759318512867109 -0.08412132051631502 0.06645153069350185
0.0575878320762421 -0.08319567280868856 0.06640346758198915
0.057601259709219595 -0.08228301782832755 0.06643495061155841
0.05759475955439238 -0.08136879319525113 0.06648857531059098
0.057617070807071076 -0.08051603761248081 0.06653020994012351
0.05772025408041049 -0.07976935417834083 0.06667805283293039
0.05780633527320319 -0.07894040573215946 0.06680600244385171
0.057806310673378866 -0.07841112880754128 0.06681770192047881
0.05813891976651766 -0.1094626104221574 0.06721794349738613
0.05828997129200513 -0.10913455538039142 0.06731820937791788
0.05879036470474563 -0.10954684731649086 0.06806808037609817
0.058755586068224286 -0.10876821580094495 0.06784398775817116
0.0583530616747625 -0.10821237450182479 0.06720615515936751
0.058413731937036785 -0.10727725614749394 0.0671586049111161
0.058661913706693374 -0.10652883839501194 0.06740124210316857
0.05882633603241354 -0.10571247143115396 0.06757147467725612
0.058977907481713214 -0.1050177109132467 0.06779931143262534
0.05863889057677167 -0.1035194841920973 0.06722160828321562
0.05893099651304733 -0.10419238022140374 0.0677108731845293
0.05914008389510612 -0.10318331027435897 0.06798734484855826
0.05862748690776085 -0.10261990578334099 0.06719648464502709
0.05886080635500358 -0.10158027384496647 0.06749451461833261
0.0590573882565599 -0.10063178928667217 0.0677117789704573
0.05926563539447565 -0.0998819646639348 0.06797736835655244
0.058832308666328326 -0.09843226606437823 0.06725865836807246
0.059186883207737205 -0.0990672224554106 0.06781373193273263
0.05928980918107946 -0.09814862866664947 0.06799861180187991
0.058725240012453765 -0.09759877789002847 0.06717731631508479
0.05889879594127981 -0.09663987067310258 0.0674758238585916
0.05895997962119721 -0.09578973222740228 0.0676342889653583
0.05897927312382791 -0.09492949029902992 0.06776374635256904
0.058999847992846216 -0.09407822486246312 0.0679151793967056
0.05899857286507527 -0.0932471262221051 0.0680610260289932
0.058467282097783416 -0.09251777989127317 0.0672601859420668
0.05845854162982541 -0.09162811751890945 0.06740292839752891
0.058398316425535036 -0.09074821827172987 0.06750544231316326
0.058368715542975395 -0.0898547134726686 0.06755754668689821
0.05833519106490956 -0.08893836268566041 0.0675958378267498
0.0582831361011388 -0.0879939641424485 0.06757171134080325
0.05825502158296228 -0.0870302547362154 0.06754452230448509
0.05823959813925242 -0.08605383104210469 0.06751387381613864
0.058260675755831805 -0.08507677306334753 0.0674301766842816
0.058265406050228424 -0.08411727369774122 0.06736475837526745
0.05828789740014661 -0.08317791605103078 0.06734424818937992
0.05827357175728547 -0.08223836070200427 0.06732609585246668
0.05825991809997994 -0.08130473280019607 0.06732511260469437
0.05821434815703536 -0.0803950581996235 0.06729778562754322
0.0582112036984078 -0.07949281038091278 0.06730292293442572
0.058017558719351665 -0.0786504413442695 0.06711033536041783
0.05801491335243937 -0.07818832710181821 0.06711894336354787
0.05840091341089329 -0.0778422044862041 0.06761969663271385
0.058474830216396725 -0.07693622337737506 0.06780262102024454
0.05846629627229098 -0.07626632023526086 0.06793688935524864
0.058916435729633586 -0.11127407240787071 0.06859754713500796
0.05907950706496797 -0.11153241159631759 0.068882746842561
0.058985156054436945 -0.11055357826758619 0.06850797973009722
0.05918418331980726 -0.11111392368772091 0.06888734342342338
0.059097649784827226 -0.11002582553403968 0.0685278664922077
0.059399260144420325 -0.11026873712042015 0.06898775312911848
0.05899957878296067 -0.10808639434148085 0.06807278184180343
0.059380388127585906 -0.10859813374775765 0.0686688667539173
0.05937356669801597 -0.10951334870371328 0.06877792690921407
0.05938434972027814 -0.10768932412855121 0.06859826986149511
0.05902486314316459 -0.10714925358725037 0.0680382327649096
0.05911101417729295 -0.10619106305333309 0.0680593837598235
0.059275426889669705 -0.10547712923809627 0.06830912553526979
0.059375107070832406 -0.10467604822202403 0.06846480115496015
0.05948797175025245 -0.10381064293061204 0.06866574054572787
0.05961617853124712 -0.10289352718522386 0.06890300656879911
0.05926838207397352 -0.10222878359747098 0.068195230986475
0.05940585231323412 -0.10129649921278532 0.06841377187218806
0.05953294549723496 -0.10043384673740546 0.06859890578658154
0.05961389048089667 -0.09961333633835182 0.06869477640982506
0.05966574757690811 -0.09877556761116882 0.06876671352464517
0.0597361957912864 -0.09793080865289822 0.06890419607197998
0.05934548860128366 -0.09728157160537027 0.06814546047223301
0.059404273026074594 -0.09642341973003207 0.06834584518853898
0.05943997606213782 -0.09559029558842898 0.06850869968882299
0.05944093325445184 -0.09476539815797314 0.06867022657109435
0.05943609822979961 -0.09395851013302413 0.0688194190127397
0.05941493933760546 -0.09317329761198193 0.06898762601981656
0.058985679615258635 -0.09241534771079228 0.06820968462457022
0.05894241110844786 -0.09157427635992296 0.068368414130605
0.05892541024196624 -0.09070817424808061 0.06845307985024561
0.058917455286485225 -0.0898150676954851 0.06850033824013402
0.05888393859632598 -0.0888961216714576 0.06852306897832676
0.058873167212804785 -0.08795620274908456 0.06850684688788058
0.05888686652779463 -0.08700135495223019 0.06849377773127188
0.05890248702943615 -0.08603750638197019 0.06845333181591083
0.058908421719457246 -0.08507603809844706 0.06839026393823014
0.058930103692589976 -0.08412567405170053 0.06835008560222593
0.0589371408178621 -0.08318777740143939 0.06831776434878929
0.05896354856735154 -0.08223550549068762 0.06831224606022017
0.05898845314002661 -0.08124075051634214 0.06830400460453485
0.0588007862352216 -0.08029652900812606 0.06798808096334802
0.058806519851436444 -0.07971647485700407 0.06796135944183279
0.058557347197021006 -0.07905233451005712 0.06771514306092777
0.059178496364514284 -0.07958282808520213 0.06842792804205552
0.05830075379697955 -0.07839979232162826 0.06747808604455438
0.05895397243525877 -0.07862965079472584 0.0682017290447112
0.05890261586267903 -0.0776310587399989 0.06824681496126679
0.058790757247566765 -0.07667852918613283 0.0682787865298098
0.05869741881004556 -0.07584654027997081 0.06842539873305667
0.05868822157051355 -0.07492739549185566 0.0686525430674279
0.05870089960976399 -0.07411758834712684 0.0687521103764829
0.05883770711547058 -0.07339400491177966 0.0688794803561673
0.05956064969750503 -0.1114597321141197 0.0695349748593237
0.059588383498081994 -0.11081646658197546 0.06938680610728055
0.05981665238652729 -0.11023673285998736 0.06962456390202665
0.05969863838684514 -0.10901065048451465 0.06913371448644713
0.05986704630641373 -0.1094735621396004 0.06951311085796211
0.0595820857554099 -0.10705577599210678 0.06886686407855576
0.05987839033623577 -0.10756436076821621 0.06936784276127675
0.0600614717920009 -0.10847374952344299 0.06967481052216973
0.05992395079462969 -0.10674154539397696 0.06943712597342964
0.05960978791062749 -0.10615030840752725 0.06892038145583228
0.05963824045852281 -0.10519707071637797 0.0689766601847936
0.05977404533062448 -0.1044623880922528 0.06930690190176712
0.05989525276659838 -0.10358521935128545 0.06958640453634947
0.05997798449141136 -0.10270559424679335 0.06984007402572148
0.05972345491652406 -0.10198328185280518 0.06913025572305465
0.05982128686480069 -0.10110906875161736 0.06932370726187477
0.05989328737629057 -0.10026632578423357 0.06947245658464227
0.059960111781504066 -0.0994405016556063 0.06958155035659305
0.060038406721726896 -0.09861918602331142 0.06969123399977616
0.060105497414917455 -0.09781629057953528 0.06984052047928963
0.0598001361048139 -0.09710285959874082 0.06908081595367885
0.059826847989473485 -0.09628839955500847 0.06927084719453058
0.059844084854002624 -0.09547128266918155 0.06944673718553833
0.05982521454449379 -0.09466403549804339 0.06959643860530307
0.05978733847585479 -0.09389055736521593 0.06974263185829131
0.05976037114930564 -0.09317011607034974 0.06990958907159522
0.05940671606812917 -0.09239393094183175 0.06919460735452702
0.0593967819626697 -0.0915639597343466 0.06935553892669852
0.059407338223755976 -0.09068432771156043 0.06942347916912463
0.05940894671556498 -0.08978464839074228 0.06948191273476303
0.05941218890967867 -0.08886604509595288 0.0694850833066344
0.05942619603800214 -0.08793487619057432 0.06947324699325884
0.0594330924232365 -0.08698553172684742 0.06946639500385071
0.05943774143549342 -0.08603085280461423 0.06941516160607633
0.05946335109677745 -0.0850798728463209 0.06936426601102966
0.059492595482013265 -0.08414592063056905 0.06933685799809311
0.05954578416353836 -0.08321675170763612 0.0693398406873081
0.05967385652842598 -0.08223903432363676 0.06939814154373394
0.05961642172352272 -0.08142686415748827 0.0691198503125292
0.059384460706761136 -0.08077873202197099 0.06871988727601894
0.059835419366655734 -0.08109616229855435 0.06936010860071118
0.05918673384114888 -0.08016421760335822 0.06844351991842591
0.059728614550044044 -0.0803825366998071 0.0691446675691001
0.059751061091157374 -0.07950596707048688 0.06914025766730793
0.05967793644592232 -0.07854276229321366 0.06910363706760904
0.0595358378042785 -0.07751866120268287 0.0690444262389147
0.05926520873122764 -0.07651177352351987 0.06899351054233455
0.05904065459263864 -0.0755554589411744 0.06901041664234357
0.058945754691459525 -0.0746689046760691 0.06905030144179188
0.05893396952187029 -0.07388185906370205 0.06908972281958446
0.05904437098642522 -0.07324408361267 0.06920088784723341
0.05922693321901927 -0.07278186334695672 0.06925705147611917
0.05983011527235901 -0.11189025360075153 0.07014006057070156
0.05994996051499917 -0.11159291104224507 0.07025452667278917
0.060160566780837664 -0.1119274312132364 0.07084467370228065
0.060325356292700145 -0.11125735915068707 0.07088447301686172
0.060008871338087855 -0.11081204224415904 0.07010641531699861
0.060242576998882275 -0.10985794783583214 0.0702303019782127
0.06041322137754541 -0.10900448273865547 0.07033879339176691
0.06061374016720454 -0.10815467780509733 0.07063441587194744
0.06034861281535573 -0.10764923762060855 0.0701624096289612
0.060087946271532904 -0.10616625805976704 0.06981474125554145
0.06033609085805835 -0.10681786289057793 0.0702246481575029
0.06041881695213909 -0.10588560782414348 0.0706124865572486
0.06002782933650253 -0.1052988875954736 0.06983642090889752
0.06015054887351949 -0.10430930355404557 0.0702385561143413
0.060220772999107795 -0.10343007761030104 0.0705322974238081
0.06028602224679633 -0.1025928993051378 0.07077003665259551
0.06006240696404883 -0.10184334422621681 0.07005710029111387
0.06015898963673508 -0.10099392439987544 0.0702360417105243
0.06021282657585176 -0.10016470404963337 0.07038029989085962
0.06027741544208781 -0.0993402963276603 0.0705009082698926
0.060343874656187096 -0.09853839026375735 0.07061393138256028
0.06040348789618549 -0.09779320454644046 0.0707656724163311
0.060152333873002096 -0.09703726329686858 0.07005365194567933
0.060184335869417245 -0.09622910058521696 0.07025259826237083
0.06018021878657398 -0.09539663058801955 0.07039926858332285
0.06014182230944229 -0.09458396521652482 0.07052646070661384
0.06007271417713005 -0.09383310658023461 0.070581495727565
0.06002611549368781 -0.0932582411575093 0.07063533904321642
0.05982177818885946 -0.09248295112350653 0.07028013564033295
0.059796267710844356 -0.09154144290809688 0.07034414165010165
0.05980755964424062 -0.09065793836449153 0.070405470358252
0.059816106920118864 -0.0897611965247656 0.07044816578430795
0.05984165296498212 -0.08884718504400003 0.07044437709188822
0.05987004609112601 -0.0879179917509897 0.07043403247713517
0.05988104611060746 -0.08697368354144287 0.07041479502046055
0.05989718211750663 -0.08602466048004648 0.07037220084048987
0.059924751754724496 -0.08508896271803755 0.07034349141693028
0.05996350625166776 -0.08417875780725786 0.07033930887866592
0.06007736943571537 -0.08329159402356703 0.07037544424849362
0.060261169397191595 -0.08251472369469827 0.07051675214737178
0.060038103522506346 -0.08171421149566799 0.06983969614336241
0.060208367529039755 -0.08109562604101175 0.06997513084919493
0.06032898396527059 -0.08033430635059936 0.06999590930755692
0.060416977549290526 -0.07945685814259333 0.0700459029002119
0.06047449808373385 -0.07844620946002655 0.07006637152562394
0.060139934747380365 -0.07733949455681666 0.06979187897202173
0.05980190548525897 -0.07635298374839485 0.06969985442676593
0.05954663526944183 -0.07539932240756658 0.06965712517882815
0.059400237042696515 -0.07451176409332927 0.06962137011850002
0.05933031608004207 -0.07374918896916952 0.06958779543648014
0.059338958313682945 -0.07321589576675745 0.06958324851183528
0.0592514234217972 -0.07293890048365338 0.06940473885048143
0.059746494987256 -0.07285724371106654 0.06993416659258858
0.05975750659393445 -0.07213935786232771 0.06972998777836731
0.06016916583975619 -0.07141713611144458 0.07006462387285049
0.060482271026529845 -0.07076483133595621 0.07040987597836239
0.06037878118692426 -0.11226004653176103 0.07154333919909679
0.06056173439659214 -0.11176330953053452 0.07167216680569594
0.06069272607258476 -0.11093977975498423 0.07154391432634857
0.060587816140865475 -0.11027673131080282 0.07102995068488757
0.06065059626488314 -0.10943569874698239 0.07090609294526158
0.06086222440153526 -0.10871802434991726 0.07121569226206599
0.06100353400718345 -0.10786157770429455 0.07156338762138721
0.060715648947031894 -0.10731095661610444 0.07095678771397003
0.060747352514811115 -0.10645995488959502 0.07126342137074956
0.06073740756534095 -0.1056045570716237 0.07159529589242686
0.06043588092883808 -0.10499701976141838 0.07091119363224108
0.06047184765073013 -0.10412394606488129 0.0712164827070094
0.06051135606291472 -0.10330918195827118 0.07146458176744655
0.06058796116339825 -0.10250926759011234 0.07169794248637455
0.06037373516172241 -0.10176074423309679 0.07098266248147046
0.06044140012375525 -0.10092930382059727 0.07116752743929189
0.060497569432916155 -0.10009427173615063 0.0713235743345898
0.0605434840682954 -0.09925414256899695 0.07144183594875095
0.06059466744774168 -0.09846851928963886 0.07146702336418068
0.060611722718526405 -0.09786441446991063 0.07150701986123982
0.06049427039531026 -0.09709102643010024 0.07114375981199623
0.06047764351176695 -0.0961702547340946 0.07124044735250303
0.06045058452532101 -0.09532276570574207 0.07136471291042085
0.06040575194573587 -0.0944294002457561 0.07149360746812007
0.06023461282642977 -0.0936832333285375 0.07116677501237871
0.060462851781935015 -0.09376566993352178 0.07188935104110486
0.060189105288083466 -0.09310372119651482 0.07122341069969529
0.06013261692901677 -0.0923280013521235 0.07124922694944072
0.06012967698963244 -0.09148598718621191 0.07131083994939436
0.06013612655802955 -0.09062636798576308 0.07137214532699086
0.06016327428630307 -0.08973814332331434 0.0714035723440999
0.060203475522692236 -0.0888291899284221 0.0714032509590704
0.06022330217636232 -0.08789967732161705 0.07140069124879833
0.06023674622311399 -0.08696016436104327 0.07136610669251789
0.060269982058521035 -0.08601967161549577 0.0713285590564504
0.06030693329280409 -0.08510291297318025 0.0713093842133892
0.060383758935267436 -0.08421359643647346 0.07131536300541813
0.06050187434937856 -0.08337895776407665 0.07137439237350182
0.060689076378704604 -0.08260541131420256 0.07146884173426997
0.060492421660449616 -0.08182860753161977 0.07069262958595797
0.06070179654119145 -0.08110857220937541 0.070808600504024
0.06090253410130987 -0.08031837150001533 0.07091899792840706
0.06114007601528697 -0.0794165470215158 0.07108086546330879
0.06114590759119837 -0.07865464158627476 0.07089977818983674
0.06089433377035844 -0.07797200342148412 0.07058180662751912
0.06136819422940976 -0.07834170062718578 0.07119742348998563
0.06063539512155906 -0.07710587569526439 0.07043588266139686
0.06128332029184064 -0.07771825614971212 0.07113574091826438
0.060330027601477494 -0.07617445034792486 0.07036347492406818
0.061098127187265205 -0.07688981952134981 0.07107098694135335
0.06009778877004671 -0.07522517308476175 0.07028746638559545
0.060885320957113416 -0.07597437504838248 0.0709957043897309
0.0599022757582979 -0.07430561013294137 0.07019218182462297
0.06068272948999491 -0.07500416124159218 0.07092470008004963
0.05971010388242711 -0.0735684288059125 0.06999619154759135
0.06043226957626823 -0.07387911597479668 0.07076988897715956
0.06057514729431491 -0.07286206040028324 0.0709575316232781
0.06020581740988858 -0.07201469064908451 0.07030556887113955
0.060484597217668495 -0.07126754979665936 0.07056980858084483
0.06067050958038963 -0.07069930109989485 0.07083727028497208
0.06071604085272545 -0.07028033158632771 0.07092264799314468
0.06064444699178842 -0.11418388337972268 0.07332260798331691
0.06062917174331783 -0.11245460867208285 0.07230270993216759
0.0608162918413693 -0.11191802394656868 0.07245699812897194
0.060938846881238865 -0.1103403374920959 0.07185456927261019
0.06098150064769657 -0.11106534744735526 0.0723616219027456
0.06123330853555277 -0.11007018571999805 0.07262261045285262
0.06102141978401227 -0.109466423230849 0.07179650448525844
0.06122764626646693 -0.10847381393100981 0.0721876375170113
0.06132852307599674 -0.10759420701092655 0.07252295666741562
0.06105532580254684 -0.10701792471037232 0.07191737550544083
0.0610560889299395 -0.10617139089888276 0.07224812402043625
0.06101819190680563 -0.10536112578286777 0.07253337814625961
0.06074015514627995 -0.10476831331582469 0.07190501584935348
0.060736283663322205 -0.10396328867723047 0.07214890832604116
0.060771713197733015 -0.10321165911526388 0.07236291772127919
0.060823470767674574 -0.1024481284215659 0.07263231215305008
0.0606414460785049 -0.10169630894536592 0.07192774539432889
0.06069646932818403 -0.1008730348100256 0.07212430586921009
0.06074059073898835 -0.10001993455857205 0.07229579994316881
0.06079838524048724 -0.09907827211098236 0.0724247355420142
0.0607372224675621 -0.09829201355996064 0.07206812255274042
0.060897176401936405 -0.09835363013304313 0.0728072177883481
0.06073887174513456 -0.09768815307109403 0.07209689562020029
0.060733199251200326 -0.09691052314394002 0.07210071222419724
0.06073096848725114 -0.09608320898274783 0.07219147855254716
0.06072382620436541 -0.09527255952616942 0.07234246666560916
0.06072409549322342 -0.09450234930055357 0.0725647373553954
0.06072995219843933 -0.09375880375675462 0.07280137144549984
0.06044704732139775 -0.0930449860874913 0.07206344966346925
0.06043078888356647 -0.09225625018134043 0.07216855623634463
0.0604228528083068 -0.09143180678245527 0.07224364459699824
0.06044550497742219 -0.09058953556016865 0.07230056951142971
0.06048636439531687 -0.08971472392012352 0.07234369398584264
0.06051828236467995 -0.088809061393389 0.07235143513667924
0.060544030846636974 -0.08788312740753974 0.07233516542998172
0.06057536357635404 -0.08694609833523473 0.07229803284161365
0.06060177436403179 -0.08601848683927288 0.07226942573680234
0.06065160015667181 -0.08511171154763167 0.0722475938104486
0.06074099469087285 -0.08424049755878787 0.07225458997956549
0.060871577023962384 -0.08340968364293885 0.07230291075066063
0.06105425352305012 -0.08261782180196107 0.07238391850880103
0.060904471317175204 -0.08186123843430085 0.07159418362714262
0.06114577531295905 -0.08110365264036781 0.07172534204390096
0.061405131984024516 -0.0803203535266528 0.0719039550055047
0.06170766875501753 -0.07957133376927483 0.07217668399417386
0.061555200613163163 -0.07889189106675924 0.07159032074400047
0.06170722876278794 -0.0782660486457329 0.07178081475754375
0.061674340812285566 -0.07750232763136564 0.07176739807386896
0.06152859481655766 -0.07667160440574258 0.0716983090227803
0.06137182546170302 -0.07578677344303958 0.07167851224465428
0.06120238559506616 -0.07481981567732905 0.07169100203903368
0.06110853076758812 -0.07379611754429222 0.0717669909160363
0.06109875560242246 -0.07273364709218266 0.07196225805179372
0.06069781400169738 -0.07195413598826182 0.07111215624466269
0.06077927917350413 -0.07117900118691511 0.07126352798358634
0.06086874674254444 -0.07043572548690945 0.07146624471440417
0.06086694508870774 -0.06983391386182915 0.0715438000634988
0.061001063050663926 -0.06854314981007967 0.07217469722572967
0.06070976458720985 -0.11463952280032905 0.0737738259484369
0.06069740668802096 -0.11414039710494256 0.07357474006390036
0.060734161603625686 -0.1133181663439939 0.0731914963049845
0.060849803437148124 -0.11243760066667591 0.07293255341007629
0.06107069130446427 -0.1117239164658935 0.07313945885655454
0.06134093504863281 -0.11076669925442076 0.07334888134705524
0.06154930947578995 -0.10980799553458787 0.07356978498555701
0.06141287741718699 -0.10912171699931764 0.07287546057324998
0.06157278580510142 -0.10817384202043998 0.07324459524226946
0.06156157697827836 -0.10739939906667123 0.07329804896697154
0.0613771419859419 -0.10674950264645577 0.07296321856379534
0.06130303131782296 -0.10586126945698594 0.07316969782582321
0.06123421158450963 -0.105193900960432 0.07329196335428367
0.06103273199036783 -0.1045473313091518 0.07291555974915978
0.060945781064241686 -0.1037837922594411 0.07291038633120056
0.06100348363450579 -0.10316171731392812 0.07326431927603301
0.06102646495444916 -0.10238078072644169 0.07358142141292026
0.06086217268722299 -0.1016475331070862 0.07288278564285859
0.060916985628323025 -0.10081629875035059 0.07310440367378644
0.06096816827312079 -0.09996079839557197 0.07330518609356017
0.061060665415520354 -0.09911223793514157 0.0735393429488664
0.061122296780891136 -0.09828730827511606 0.07372024130410587
0.06094699526753491 -0.09759336023283814 0.07293610136943303
0.06097113159745354 -0.09678753118581893 0.07299512832595598
0.060972905475545056 -0.09600463590762906 0.07309952683182823
0.06100427397914996 -0.09524806433434108 0.07329574123237333
0.061027979704491586 -0.09447103915172314 0.07352545522154837
0.06100830659716272 -0.09368397037196576 0.07371498721464614
0.060714484744497796 -0.09298058166075651 0.07297574645283503
0.06068949321181647 -0.09217378315333383 0.07305999700711999
0.060694935309113886 -0.09137467077607976 0.07311848896905197
0.06072821884222581 -0.09055765046553611 0.07320728401617634
0.06077051302028514 -0.08968764067472704 0.07326126060989313
0.060821769525642444 -0.08878733404505859 0.07327279137531166
0.06085835706762911 -0.08786247940933442 0.07325574846578665
0.06089276958819133 -0.08693448148791713 0.07322152591369407
0.060926169714033404 -0.08601627429615206 0.07317736387107657
0.060979057312404446 -0.08511491818700942 0.07315582233843511
0.06105224968977581 -0.08424220494742478 0.07316712952438123
0.061179303231693814 -0.08339906604999096 0.07320913403348615
0.061365233873706425 -0.08258014762062575 0.07328776715474994
0.061281480313155806 -0.08183909016966745 0.07250310307257672
0.061536604065853984 -0.08106283731558306 0.07266197147975045
0.06180502528801001 -0.0802813901182412 0.07288530934791553
0.06207849893162231 -0.07945009498234491 0.07320148126835616
0.061942178499618174 -0.07885405276022012 0.07241192642161084
0.06205443748590735 -0.07803462351826886 0.07257591136313109
0.061938764187571306 -0.0772283374322704 0.07233114144325783
0.06186876490796165 -0.07651025239316116 0.07239327060479844
0.06173300781566997 -0.07563883216667786 0.07243094545128893
0.06160701654224121 -0.07470407927639094 0.07253225725180915
0.061497124210765176 -0.07374432626199708 0.07266050564470954
0.061436261428866094 -0.07297982381969823 0.07284955451101988
0.060990208234119464 -0.07179108033435083 0.07178086567757583
0.061258427646651174 -0.07202491150671143 0.07264041566467296
0.061035030254794426 -0.07112545310240147 0.07200968648984934
0.061218532348588685 -0.0709814172293968 0.07290148337221082
0.06103516713309951 -0.07046141718322496 0.0721571532043455
0.06095277784715921 -0.06991370305990596 0.0719464443686627
0.060988883033846766 -0.06911358951127504 0.07228330509743089
0.06099464710168127 -0.0681877348605552 0.07257736397394002
0.06081824671310865 -0.11507008026499752 0.07446476829073233
0.06084471483041245 -0.11362679214671116 0.07382688927977511
0.060832049273870106 -0.11440649872185008 0.07430920364835408
0.061022844572446736 -0.11345222950038443 0.07454875195850172
0.06102602512139781 -0.11264596697403217 0.07375370128443212
0.06135989448243075 -0.11157411537925623 0.07405846155892817
0.06164433532610504 -0.1105370804408116 0.07439790484267603
0.06176053478508674 -0.10962762225781493 0.074345916280158
0.06171018469005371 -0.10889438071090932 0.07390273389938676
0.06178262451859117 -0.10823227791484777 0.07395725279684431
0.061653115230392914 -0.10695614169496771 0.07372321827627937
0.06180650382322443 -0.10759289249085106 0.0740534599777004
0.061848764100412845 -0.10679094930855998 0.07447207350390371
0.06160483688322071 -0.10628628375812826 0.07386125404518094
0.0613046054482664 -0.10475223258768765 0.07372060910033496
0.0615209905240675 -0.1054048616514653 0.07406338311890634
0.06151076438510679 -0.10457228218786072 0.0744976783496646
0.06120114767494992 -0.10397022253283904 0.07378181153632828
0.06122727183740124 -0.1030923489746075 0.07421429644864952
0.0612514790779284 -0.10226239487026592 0.07452937369442066
0.06107819989970724 -0.10156771959320168 0.07384606282858457
0.06113192075677173 -0.10072994171883967 0.07407919008850641
0.06121612832411825 -0.0998963278575694 0.07429792917348477
0.06134307021339785 -0.09898797074804293 0.07459578631236531
0.06134624973377175 -0.09815260804975756 0.07447435490159808
0.06121077909304315 -0.09743202102646312 0.07389059818547122
0.06117201427688173 -0.09661705059778633 0.07372407336596917
0.06124869037829299 -0.09596885138361458 0.07399386353800877
0.061302925274781 -0.09518039900165892 0.07421479521232736
0.0613435410191364 -0.0943531418523586 0.07450497325318835
0.06124056246243638 -0.09357809163706993 0.07446069935252675
0.06100483914230799 -0.09284932169795626 0.07394703534388711
0.060907000463175945 -0.09202375332614213 0.07378280927270482
0.06096028296742004 -0.0913604412325535 0.07399033594485693
0.06100298593837911 -0.09052097313071106 0.074099388666924
0.061054701206571416 -0.0896503106129452 0.07415558479965763
0.06110258891265423 -0.08875980128506447 0.07417279233270473
0.061151671655469295 -0.08784454401757451 0.07415326350885118
0.06119295401318038 -0.08692529234878513 0.07411170290817877
0.06122220533399339 -0.08600913427670868 0.07407711244267834
0.06125680977457087 -0.08510633691930307 0.07406590331130126
0.06134176257855507 -0.08422268684658768 0.07406435887164793
0.061471623959749526 -0.08336157862351258 0.07410366920104396
0.06163940918806043 -0.08249582454854698 0.07421289872415475
0.06159191664474893 -0.08176593021561318 0.07341241673303375
0.06182491025042934 -0.08095785631793347 0.07359504891804214
0.06205333087975877 -0.08018956348387227 0.07378866769479214
0.0622146514807061 -0.0795888921249024 0.07402989260777489
0.062195438769795046 -0.07869160340790929 0.07311747643469192
0.06231450171601794 -0.07878102210015604 0.07399651638203444
0.06228860519426384 -0.07817614543893993 0.07336978052452339
0.06221888159699819 -0.07728450578875018 0.07320665820069897
0.062055672192506225 -0.07631548078988411 0.0730307730114937
0.06196894190624664 -0.0755507939195895 0.07322994384669451
0.06184065601749172 -0.07460283650243202 0.07337870809319767
0.06169008231124263 -0.07365989807885757 0.07351219800792076
0.06153242236763033 -0.07274310671201718 0.07352947058527064
0.06140979906862551 -0.07186576324023475 0.07355705261625509
0.06135759832443524 -0.07117932045151763 0.07377396210048408
0.06106118601783354 -0.06997352215350222 0.07263557170484233
0.061235222594180745 -0.07026839195883255 0.07365022037835797
0.06106000661542648 -0.06925021573468726 0.07314896522788972
0.06098950041568358 -0.06852575052782255 0.07286896081932429
0.061054795106381385 -0.0684291741268066 0.07365312868763094
0.06099179930891223 -0.06795275278626367 0.07311497815924557
0.06100322395789944 -0.06739614797891653 0.0733164025108967
0.060875419721667774 -0.11542053356081994 0.07501838568339322
0.060899846482181184 -0.1150582421960112 0.07508365887552539
0.06096030242707343 -0.1142702070822366 0.0752565826812456
0.061155722986983484 -0.1133248078563458 0.07548196377369276
0.06128058483254422 -0.11245398115160594 0.07475500195634036
0.061557531717337646 -0.11151403542021456 0.07501922278001104
0.06176921581888657 -0.11079138875937108 0.0753140610168067
0.06188724626609937 -0.1091238942903051 0.07471196232240873
0.0619050083887861 -0.10989773443581301 0.07520488324089726
0.06208445745220296 -0.10899130660854067 0.07547595627676859
0.06195711140986456 -0.10831624751825965 0.07468578324017323
0.06205663570285666 -0.10741243494038964 0.07506425710744459
0.06208157142543864 -0.10657375663626469 0.07539369997763237
0.06184150551549855 -0.10598121508760776 0.07478285686981542
0.0617947795534765 -0.10514136075096506 0.07510426785527484
0.06176094297433601 -0.10432752348273139 0.07542913633083811
0.06147894894621552 -0.10374143398915939 0.07484615595036251
0.06148687717930896 -0.10288392737291578 0.07518942698399737
0.061495987403059456 -0.1020363443159001 0.07545608076426366
0.061300863726239406 -0.10142212653610379 0.07480155821186982
0.06135933811428847 -0.10060006011360717 0.07499661589813558
0.06145400334355722 -0.09983459746720572 0.07518157461678528
0.06157902052147307 -0.09921419526532044 0.07544896687784118
0.061464101783453094 -0.09764572463919356 0.07473393845217047
0.06164832534713315 -0.09831403748008849 0.07537800412286343
0.061689642373751616 -0.09741404447621187 0.07527706441993336
0.06145890879618417 -0.09681733591042412 0.07460457067763168
0.06161009471060429 -0.09586196086137533 0.07498880253287359
0.06157643944626512 -0.09505377470695138 0.07495809250975398
0.06166800435552471 -0.09456748940607522 0.0753148464250358
0.0613131220727984 -0.09309933247060263 0.0747962191626724
0.061559053371151445 -0.09378639003314031 0.07528555520829132
0.06154052375395386 -0.09291328477856771 0.07553725862404517
0.06121682299464487 -0.09224854377375924 0.07468544119736471
0.06123996251039045 -0.09130897967666776 0.07487460813071534
0.06126110458754266 -0.09045974845691515 0.07495906227753754
0.06130671816469544 -0.08961126798014359 0.07503646128206302
0.061365156469519025 -0.08872672906139993 0.07505546026230372
0.06141489352587328 -0.08782550601861949 0.07503621078475077
0.06144409691104144 -0.08690839080741132 0.07500793643513193
0.061462180369156245 -0.08599420857186375 0.07498615209348863
0.06151187107887172 -0.08508633094035341 0.0749584014059085
0.061591938893298843 -0.08419905108837056 0.07495928145347429
0.061692690984727766 -0.08331248488749882 0.07504029918262173
0.06182732382384326 -0.08234315595967728 0.07525964221011112
0.06181805922703966 -0.08162725323625315 0.07433438437467257
0.062024563819625705 -0.08074750880410905 0.07456350680354099
0.062179205744459176 -0.08001226665053578 0.07447399955912008
0.062295407643614756 -0.07942810004114877 0.07466763375626019
0.062370165847227634 -0.07882397585366537 0.07484929568093977
0.062375180379638503 -0.07794002287927786 0.07389784671846784
0.06242362966180175 -0.07797811128766018 0.07476089207815123
0.06238726961779211 -0.07736885499919127 0.074082969283629
0.06225718073255963 -0.0764889883461427 0.07387002032603318
0.062109309117465594 -0.07545978416149933 0.07408670121953544
0.06195118516769027 -0.0744694897435132 0.07425572738096149
0.061759396073253786 -0.0734218340256071 0.07444429567097673
0.06158465197586621 -0.07249117379664231 0.07420236688200998
0.06151905734124249 -0.07180798270825516 0.07436260607626854
0.06142400010327266 -0.07101396242135488 0.07446781144213778
0.06136724659094531 -0.070194035138441 0.07467775771640257
0.06117477248735283 -0.06935369344434558 0.07407570178350549
0.06114842459900106 -0.06868490440318717 0.07446420425369837
0.06101904552753152 -0.0676656911483436 0.07362998836177112
0.06107949480610526 -0.06775780599239295 0.07449307185093454
0.061023406131124995 -0.06718993897776614 0.07391886710973161
0.061032451220568704 -0.06680284760449672 0.07404277533171641
0.060921830033941006 -0.115429292253488 0.07565055100249574
0.06094922204582478 -0.11498614965673318 0.07594456525658443
0.06102707240646299 -0.1141977207485021 0.07619771925573862
0.061197128553267185 -0.1133016262347923 0.07643025924093641
0.0613998513795174 -0.11239369112959319 0.07570613320008864
0.06165390940535001 -0.11151384607508555 0.07592550817590982
0.06188955078295999 -0.11064758137782088 0.07607006821417454
0.062096875738967536 -0.10975311922567331 0.07620727085856846
0.06225244892470679 -0.10888612445233996 0.0764206886013151
0.06220595785588265 -0.10811922587920479 0.07572831522457868
0.062286445830274956 -0.10720061332674784 0.07613437725646888
0.06226216119771118 -0.10638736434479419 0.07617187722243939
0.06210895827348204 -0.10571039722337586 0.07581970094177116
0.062031898249906285 -0.1048094459234053 0.076026865888345
0.06198720098840745 -0.1041241620493176 0.07618329327172878
0.06178799998224764 -0.10347674249716805 0.07589169387248071
0.06174862959040314 -0.10252749717411198 0.0761128287142053
0.06171866087874167 -0.101809663105269 0.07620319091972343
0.061574423301056 -0.10116769817965997 0.07577258173490913
0.06157955620381807 -0.10038507059679438 0.07570491246455803
0.06168518385753341 -0.09977230294561117 0.07592864196521351
0.06182562869273285 -0.09905389543879153 0.07605476500339754
0.061985791696592255 -0.09838552247964472 0.07623900544405035
0.061827375107407 -0.09669665613254501 0.07553600715442126
0.06202288975491177 -0.09751580513894023 0.07610569417162563
0.06196026125780148 -0.09600641028418244 0.07583283649410444
0.06219128602999948 -0.0965285447689242 0.0763745110191987
0.062258740834562024 -0.09569178661151978 0.07650292841004794
0.0619044217594639 -0.09521255870289565 0.07576362417375944
0.06191281899967347 -0.0943538764922627 0.07602111849688609
0.06188371742459403 -0.09349909809560292 0.07629549683286403
0.06176141108114276 -0.09271215593217869 0.07627810645024177
0.06153732919593069 -0.09200005875153255 0.07575243129342574
0.06144751851824221 -0.09112423706757623 0.07561338779778565
0.06150686737711311 -0.09042440213939167 0.07581231444793526
0.06154569179979595 -0.08956245803340393 0.07590053764951131
0.0615831537027026 -0.08868524176640609 0.0759257524137283
0.06162286131012697 -0.08779650434582574 0.0759150557573871
0.06164216594198178 -0.08688919313452753 0.0758993105223959
0.06166745324297181 -0.08597763330847752 0.07587547582409963
0.06170962870323628 -0.08507668225266563 0.07585398431700233
0.06176946775452519 -0.08419094391605311 0.07587510510005677
0.061839897001313204 -0.08332283263044381 0.07598070928557212
0.06191036934110778 -0.08262196902657894 0.07618981896541677
0.061941056440969165 -0.08145030881751893 0.07510609507484804
0.061995530100461285 -0.08164225685513227 0.07607502084939179
0.0620519721967587 -0.08091500459196911 0.07539801982535024
0.0621970061196092 -0.0800587556609122 0.07533907057968481
0.06232548933655386 -0.07924355921879014 0.07530378174178959
0.062390703530147855 -0.07862493125228734 0.07547215230594649
0.062431756869342166 -0.07798119679755174 0.07561850279413052
0.06240359664602983 -0.0770644099993858 0.07460596202249402
0.06241501636355863 -0.07714421643388795 0.07545105569438884
0.062313682095405824 -0.07626925180799077 0.0747842291885078
0.06231337063539638 -0.07611758408812845 0.07566895367129509
0.062166877849374545 -0.07530789971994944 0.07496715365299265
0.062175511542025344 -0.07517402641828072 0.07585532227136274
0.06198876442199509 -0.07436573963827854 0.07515476281011861
0.06201434016287676 -0.07423139458145486 0.07608432535419866
0.06185552502970242 -0.07360595219076631 0.07534530545900593
0.06170524202111376 -0.07264031517938051 0.07516705227285217
0.06158612125258203 -0.07167935790322959 0.07505979474647324
0.061558357215227386 -0.07100246555171834 0.07534210349178015
0.06151046933194932 -0.07018706550167522 0.07561090223891881
0.06131310776325758 -0.0693863039361815 0.0749707541104536
0.06123919845732005 -0.06859413078314741 0.07520913582082396
0.061186645363788775 -0.0679056536154118 0.07546473696135395
0.06105059362945514 -0.06694247811131085 0.07448202259977048
0.0611209184780657 -0.06702928879976959 0.07536545215477378
0.061054870396050454 -0.06656485756899372 0.07485087906962662
0.06092907669366638 -0.11538425440285324 0.07648345024034266
0.06094110358538207 -0.11494380522372019 0.07683938070040212
0.06101627005825859 -0.11418839463215859 0.07713714403472549
0.06118344956750734 -0.11333938928266063 0.07738158101353482
0.061442604320981475 -0.11240157359053857 0.0766478416705289
0.06172176798831422 -0.11149631122008251 0.07683842658208934
0.06197825907632409 -0.11058885609335688 0.07699981799837805
0.06220821741926535 -0.10968702388499074 0.07716560766340792
0.062361137664634254 -0.10882760373123788 0.07736684332930152
0.06237637667345875 -0.10805663359004848 0.07669120205907197
0.06246154542223253 -0.10739159132064759 0.077021153131993
0.06234393676248784 -0.10591448739576892 0.0765960214227165
0.06245466893041083 -0.10658505452886752 0.07698917424584327
0.06252663636692772 -0.10572486827596547 0.07734616784790431
0.06230710197442637 -0.10521623526889273 0.076717230382128
0.06207451929109136 -0.10365573616830502 0.07663830140550178
0.062261382348245374 -0.10429484086876889 0.07693358689184493
0.0622852177686401 -0.10342695360875123 0.07736231826127171
0.06203025362524743 -0.10293482734292869 0.07679933901930779
0.06183054601902975 -0.10129636403879506 0.07654314970890688
0.06203914304435589 -0.10189552626330052 0.07702626104269601
0.06202901603391112 -0.10105571738086591 0.07707680322896833
0.06186136975336724 -0.10044740087805319 0.0765378002557499
0.06193113866233304 -0.09959223689740805 0.07651813603343512
0.06212956643998723 -0.09892578031116875 0.07674519600621793
0.06229205694452525 -0.09807035241550861 0.07688128554226097
0.06247273787764853 -0.09712482768268785 0.07702077634130636
0.06261157338949683 -0.09612634753856494 0.07722348899132905
0.06254361846608716 -0.09539672295908927 0.07712973303249018
0.06228086203962716 -0.09484384639687135 0.07671444135805988
0.06215335499702168 -0.09411429135200829 0.07671232732418007
0.06219409873424256 -0.09362091055891368 0.07706804182118664
0.0618190579503873 -0.09219044263251158 0.07662090341110009
0.062056301927565456 -0.09285189387907641 0.07708779889954218
0.06202922710301361 -0.0919516207077702 0.07736015266666059
0.061728260808913 -0.09131460276039284 0.07651587817548133
0.06174327144354653 -0.09033988886630803 0.07668856087383655
0.06175771888932316 -0.08947752598306061 0.07673048703530955
0.061780260689265044 -0.088631085014989 0.07676779796404554
0.061796618293353006 -0.08776069419240566 0.07677868618724243
0.06181137109629708 -0.08686648620089275 0.07677430327962137
0.06182786758143899 -0.08596641654491087 0.07676313686341178
0.061865283680467315 -0.0850735313174122 0.07674649697952238
0.06190985448749674 -0.08419525944263427 0.07676704448823483
0.06194915303926547 -0.08335102122140042 0.07683839465519858
0.06199482202577009 -0.08252743635189796 0.07689737921261271
0.06204760524008278 -0.0818241384475801 0.07704828384941848
0.062116187822626893 -0.08071331325337977 0.07597506443471623
0.062126387031748935 -0.08085407971264519 0.07692004294489306
0.062198186522157535 -0.08015065660321859 0.07623184538736742
0.06230468707498364 -0.07927742554261118 0.07615809037068365
0.06239292141967335 -0.07842064252156324 0.07609842844456827
0.06240638312642491 -0.07773220499628201 0.07627581553824517
0.062377994610602935 -0.07684777884380466 0.07638635026117574
0.062289346474059294 -0.07595102787921242 0.07654321740155726
0.062176847910873786 -0.07510713598300603 0.07672170117387492
0.06208531549384465 -0.07444883638770704 0.07693715375085756
0.06186520295667324 -0.07337582509869191 0.07588308459521795
0.06197563748899161 -0.07360413706661442 0.07673719896854195
0.061834071215618 -0.0728463914671125 0.07612287570868381
0.061737847456341324 -0.07195419837417617 0.07598293955230363
0.06171408047226675 -0.0710213509472016 0.07630077656275583
0.06167583954933361 -0.07016790008036848 0.07655336669306946
0.061467186154061916 -0.06937310506940021 0.07586524303572612
0.06136641924558554 -0.06854892936258239 0.07608082399025755
0.061286550530094255 -0.06768288205229386 0.07624399509047215
0.061195007488626614 -0.06668519261006885 0.0765014423651353
0.06105432432362221 -0.06620000184931359 0.07579674936804533
0.06104402198357954 -0.06564316993888182 0.07625842512898344
0.06091106750645565 -0.11529636032011599 0.07715068208191429
0.06090860668799452 -0.11481971818297051 0.07767960559802166
0.06096382840514716 -0.11418895839592363 0.07806917601604522
0.061130262376431224 -0.11340905875413661 0.07831069849235739
0.06143312344139445 -0.11245818358280922 0.07761785104457566
0.06172424822189225 -0.11152172490426716 0.07781916168938363
