# .PCD v.7 - Point Cloud Data file format
VERSION .7
FIELDS x y z
SIZE 4 4 4
TYPE f f f
COUNT 1 1 1
WIDTH 785
HEIGHT 1
VIEWPOINT 0 0 0 1 0 0 0
POINTS 785
DATA ascii
0.05899446255606654 -0.10127457462380406 0.07018610670056255
0.05901800087084385 -0.1004280824247838 0.07032900563904561
0.05905112327575284 -0.0995834705390112 0.07044845239318467
0.05908696305268282 -0.09875916717344795 0.07055952543279821
0.059118450867742305 -0.09799318833702382 0.07071061212149629
0.05888783646738815 -0.09719753819493925 0.0699705160317479
0.0588946781935569 -0.09636389115092504 0.07016728801959618
0.05887008761998642 -0.09550325753990214 0.07030945601091856
0.058816529353537095 -0.09466260666049937 0.07043114382072668
0.05873887590044333 -0.09388597799111453 0.07047936832409842
0.05868524406549157 -0.09329173927096433 0.07052969793386137
0.05849804944673477 -0.09248806534867 0.07015902316332112
0.058463820116614135 -0.09151658389420418 0.07022208067768057
0.05847003104987859 -0.09060208819531258 0.07028139708654689
0.05848101533337363 -0.08967446213429517 0.07031951222190291
0.0585116556557657 -0.08872788560708919 0.07031200991556909
0.05855200058823701 -0.08776264693045237 0.07029346254677976
0.05857952085862469 -0.08678448969531939 0.07026407298491351
0.058609861715898576 -0.08580616834570191 0.07021493024228762
0.058652839864211305 -0.08484184936832473 0.07018008484363233
0.05870922009400344 -0.08390277604685382 0.07017067927447052
0.05883252588451304 -0.0829922439411117 0.07020831462040983
0.059020285122911464 -0.08219526352004891 0.07035535244770272
0.05885691339757123 -0.08136614881340427 0.06964864987388249
0.0590357608469411 -0.08073022650985835 0.06978786220018268
0.05917823449025173 -0.07994569170807529 0.06981079289452756
0.05930102200713687 -0.07904009644677755 0.06985859329075299
0.05939932020492818 -0.07799907632400319 0.0698781642639349
0.059143900899105414 -0.07686360079966464 0.0695841620229439
0.05887896031778646 -0.07585637780871853 0.06948188385213386
0.0586831537414264 -0.07489122958182187 0.06943662885557643
0.058585886107408884 -0.0739958354233472 0.06940446050882011
0.058555120813558105 -0.07322944169184224 0.0693751150719823
0.058591564161754116 -0.07269489330753162 0.06937758709745906
0.05852843541097996 -0.07241913273682715 0.06919696245305546
0.05898616801952295 -0.0723307856198947 0.06975597525455966
0.05903952373844077 -0.07161541471248241 0.06955565010765256
0.05945885566530049 -0.07088866821991448 0.06992310140908674
0.05978036595203285 -0.07022993045604692 0.07029693071181202
0.05965157105590997 -0.11273295633859833 0.07160935900746956
0.059796274278136094 -0.11224042404604169 0.07174277025597225
0.05987764046375852 -0.11141144878095272 0.07161074881527629
0.05974669135473783 -0.11073061601566424 0.07108112559761352
0.05976098472561949 -0.10987904701543333 0.0709544451182323
0.05991515241246049 -0.10915866634121318 0.07127167203552648
0.060000767153489204 -0.10829810160463132 0.07162081700418695
0.059711634894471254 -0.10772385362163432 0.07099083334100162
0.05970045666121209 -0.10686614430569175 0.07129540220543465
0.05965390226785321 -0.10600452139992148 0.07162492176197933
0.05936013765766091 -0.10537173995826721 0.07091722490176987
0.05935775160910835 -0.10449269466702671 0.07122353924354416
0.05936030512856531 -0.10366859287505768 0.07147357827088821
0.05939862887438155 -0.10285588552271484 0.07170715947592464
0.059195800453355624 -0.1020734241720312 0.07096135425266023
0.05923014167012997 -0.10122734945397759 0.07114518793439589
0.05925523684495178 -0.10037441332033144 0.07129962023961704
0.059271764542445086 -0.09951331732180545 0.07141547683588662
0.05929485872958725 -0.09870403986171455 0.0714376464248161
0.059294252336514426 -0.09808139014256968 0.0714741372135674
0.059176997415789495 -0.0972736875901154 0.07109307310650251
0.05913956201463192 -0.09631921766970575 0.07118241686501336
0.05909481516373845 -0.09544191701677365 0.07130105788363304
0.05903345875812285 -0.09451553623958932 0.07142402365939614
0.05886974983666535 -0.09373845298706292 0.07108083805713727
0.05906412697611673 -0.09383203002737818 0.07182692609289278
0.05881876532840514 -0.09313890703075882 0.07113416266083109
0.05875766160866883 -0.09233887099809947 0.07115682615128496
0.0587461529146383 -0.09146861111032244 0.07121859299294965
0.05875039751737653 -0.09057790531809025 0.07127677230096285
0.05877812095572862 -0.0896591132704206 0.07130573143438364
0.05882378458222413 -0.0887156132501271 0.07130141796880593
0.05885829951996898 -0.0877499096766711 0.07128929772653496
0.05888648818283939 -0.08677704491679589 0.0712471811650045
0.05893253846693059 -0.08580673987048666 0.07120476721723772
0.058985351950457815 -0.08485966006149026 0.07118052651385211
0.059073716105175526 -0.08394483725961122 0.07118595327572813
0.05920181920036453 -0.0830875498906146 0.07124676210757995
0.05939316128211664 -0.0822939206668753 0.07134976531108911
0.059253305666894934 -0.08149039064352978 0.07053995954909609
0.05947232213444963 -0.08074942216197024 0.07066336809391385
0.05969158301858773 -0.07993323002647977 0.07077959489011663
0.05995139309887775 -0.07900160307367446 0.07094918186268945
0.05999624989605255 -0.07821416740000184 0.07075545919548301
0.059799866471659274 -0.07751105567355775 0.07041808367083072
0.060211052928830375 -0.07789242562738566 0.07106888491377215
0.05960173428825633 -0.07662229998886767 0.07026114048056606
0.060160367834694625 -0.07725083182298756 0.07100393780143317
0.059362601923466984 -0.07567294478393247 0.0701800502173593
0.06002631003583338 -0.07640171881513669 0.07093309676035726
0.059188131908996765 -0.07471168034119097 0.0701038019429248
0.05986943449057914 -0.07546834268287719 0.07085710132269483
0.05905047094758521 -0.07378327753578938 0.07000827494582859
0.05972813963184276 -0.07448170292324592 0.07078565366802544
0.05891067681052215 -0.0730436448105946 0.0698085365738532
0.05955517794182357 -0.07334553860276877 0.07062631786018139
0.05973895645790424 -0.07231916215075615 0.07083441640052213
0.059453740095200935 -0.0714816668366567 0.07016277046391148
0.05975164925809227 -0.07072972561675403 0.070453725788766
0.05995024709918932 -0.07015638569366495 0.07074253460390445
0.060012975314141404 -0.06973510004009434 0.07084055881559717
0.05998974991649441 -0.11469726432058473 0.07345576845940019
0.05989274680660905 -0.1129494682755178 0.07239502134065018
0.06003930926686974 -0.11241912537550286 0.0725549368655979
0.06007320325739766 -0.11081781757054181 0.07193270696179344
0.060148611699959297 -0.11156067307241484 0.07245615626905874
0.060329919576816216 -0.11056689877163517 0.07272548737401982
0.06010272484661889 -0.10993344072891276 0.07187147073362228
0.06023798966524151 -0.10893766011861446 0.07227015335769736
0.06028385988387128 -0.10805258226170215 0.07260641551602273
0.06000575325286664 -0.10744971851096607 0.07197527340390361
0.05996500274318317 -0.10659646816310088 0.07230451085682456
0.059891748136988 -0.10577943627789613 0.07258913317038267
0.05961910318194777 -0.10516205603567458 0.07193560618871499
0.059580619817153554 -0.10434965377790287 0.07218093358000494
0.05957928534708405 -0.1035883001904695 0.07239816101642013
0.05959670415693694 -0.10281429388848225 0.07266878339821187
0.05941958760077601 -0.10203028543575642 0.07193548776981686
0.05944148817667538 -0.10119115396877192 0.07213165079206321
0.0594552572042443 -0.1003180928222138 0.07230058928389313
0.059479401915121806 -0.09934954414779198 0.07242572206823317
0.05940943857727875 -0.0985335362510001 0.07205346227904977
0.05954375230435847 -0.09861040324895688 0.07281436455513657
0.05939488513891486 -0.09791016603951998 0.07207898606448476
0.0593710327204362 -0.09710229540593258 0.07207557388407353
0.05934966172133053 -0.09624514918950412 0.07216051953158142
0.059324181165585174 -0.09540335514740853 0.07230648232872851
0.05930396206134405 -0.09460536866674464 0.0725291116617488
0.05929138586538857 -0.09383423125453874 0.07276767042731946
0.0590357137824677 -0.09308801869119168 0.07200172097508889
0.05901005261464307 -0.09227274957481463 0.07210702514534739
0.05899599696226053 -0.09142126060315378 0.07218197981928334
0.05901491459622474 -0.09054894954011074 0.07223855582365804
0.059057103407156454 -0.08964118640504533 0.07227920620000979
0.059096145878547925 -0.08870083879426065 0.07228240546929103
0.059133844768533124 -0.08773936778429384 0.07225994407011324
0.05917695374735549 -0.08676963518877369 0.07221823905684768
0.05921920769918071 -0.0858097649201275 0.07218382281330911
0.0592826397170908 -0.0848741148119983 0.07216008934982467
0.059383065625566535 -0.08397714233834029 0.07216853484200529
0.05952233357050987 -0.08312423576152907 0.07222137564101955
0.059712553078242164 -0.08231031914236489 0.07231158792564539
0.059615871839087266 -0.08152884953997663 0.07148358165277187
0.05986610542417792 -0.08074839907242076 0.07162629916188243
0.06013809529266495 -0.07993940189338249 0.07181720328477643
0.06044827242527058 -0.07916572202012466 0.07210901474572648
0.060351110746931676 -0.07846104965846297 0.07148692616645654
0.060515972845783556 -0.07781585822293094 0.07168905903261005
0.0605163684376421 -0.0770316506974574 0.07167564133745151
0.0604193912364797 -0.07617930986865823 0.07160442493326227
0.06031754363282655 -0.07527217896401302 0.0715847306935632
0.060211239378032556 -0.0742847909267247 0.07159481802856826
0.06017215506053838 -0.07324941666745383 0.0716766685502108
0.06021488583948378 -0.07217767647562885 0.07188999117596498
0.05989960194036633 -0.07140751573472703 0.07100828918086148
0.060015845113892755 -0.07062967695409034 0.07117773723594961
0.06013321593942223 -0.069881810743486 0.07140223678402063
0.06016456592554433 -0.06927633917887975 0.0714932706971591
0.06034796519748056 -0.0679679559913507 0.07216362953857694
0.060070827368182714 -0.11516132241515742 0.0739283244077981
0.0600372977208163 -0.11466091577767454 0.07371833319759169
0.06003163834605258 -0.11383387795339102 0.07331651065485104
0.06009529157026509 -0.11295175760206536 0.07304718005953428
0.06026362395548622 -0.11224446588860722 0.07326222594417137
0.060463509129786756 -0.11128988434637578 0.07347949326704818
0.060605673251143806 -0.11032951713301016 0.07370649928091866
0.06044420436681413 -0.10961479750817704 0.07298331791136646
0.06053773016989829 -0.10866068045742891 0.07335808943169835
0.06048650905326405 -0.1078739932650053 0.07340412702184913
0.06028423963701029 -0.10720290775420338 0.07305024164502513
0.06017165816864481 -0.1063023824760312 0.0732514779752487
0.06007545520930801 -0.10562540949239071 0.07337034632742581
0.05986596976223567 -0.10495970581511724 0.07297564304792724
0.05975423541862552 -0.1041831794202387 0.0729652258753954
0.059778818642246004 -0.10355607458899248 0.07332565403167303
0.05976855983448427 -0.10276552309572232 0.07364574185261907
0.05960291820537951 -0.10200038298080627 0.07291915898210721
0.05962466102703694 -0.1011518372768384 0.07313964016199093
0.05964401902487133 -0.10027649928661772 0.07333936335994466
0.0597011692672277 -0.09940656362513349 0.07357471527127415
0.05973333105041701 -0.09855983257350923 0.07375578847440278
0.05956644700792631 -0.09782570358005517 0.07294268771526682
0.059569436117810216 -0.09698908119263239 0.07299513085847294
0.05955354547438886 -0.09617783687285766 0.07309435177950287
0.059561853833088145 -0.09539058892720828 0.0732905273314079
0.05956370755169037 -0.09458226982383543 0.07352210143721045
0.05952871825294573 -0.09376596273311992 0.07371355044022375
0.05926285045456783 -0.09302920928639814 0.07294416143310416
0.0592301940571843 -0.0921945711178784 0.07302878134513907
0.05922959754983673 -0.09136858077157622 0.073088979464071
0.05925912091483086 -0.09052299501580573 0.073179129137676
0.05930264186321289 -0.08962001066041587 0.07323214390626445
0.0593589422916467 -0.0886839823264403 0.07324225625082907
0.05940437359005932 -0.08772552014852464 0.073222466306194
0.05945116893198679 -0.08676334704288584 0.07318523786138365
0.0594979968024074 -0.08581267650112273 0.07313895914065179
0.05956459820693428 -0.08488239910110712 0.0731165484554955
0.059651425404922874 -0.08398374652797785 0.07312767318542035
0.059789062446286574 -0.08311691486063236 0.07317595357999443
0.05998480742590669 -0.0822730248665586 0.07326721932893768
0.05994726399250627 -0.08150954092093964 0.0724431577286578
0.060212444922794914 -0.08070872039816067 0.07261722074995076
0.060491838280972536 -0.07990319378618857 0.0728573254148483
0.06077848215455521 -0.07904451661711566 0.07319506681464936
0.060693968908096654 -0.07842582986669062 0.0723586714797394
0.06083097458637883 -0.07758014420236425 0.07253242783130494
0.06076262268981332 -0.0767504441499238 0.07227507409987637
0.06073277450505008 -0.07601025821830835 0.07234151959392127
0.06065305995614135 -0.07511358482701987 0.07237759423921508
0.06057861216851618 -0.07416194386884936 0.07248161972586746
0.06052082021126242 -0.07319002400162113 0.07261969426894412
0.060502033250981094 -0.07241509784936132 0.07282272926779418
0.06016559880781949 -0.07123449125691839 0.07171078103488246
0.060388677829620895 -0.07145666547946206 0.07260915224607312
0.0602382323495821 -0.07056387802178783 0.07195922567806426
0.060402439353931664 -0.07040485698167201 0.07289050008834075
0.060271622088116726 -0.06989535864136884 0.07212199830957372
0.06023098085891077 -0.06934931445568326 0.07191062538613953
0.060304086876358305 -0.06854003816076655 0.07226907366661613
0.060355722405333365 -0.06760618455980624 0.07258101980294719
0.06019181460230733 -0.11560524899982776 0.07465033281766578
0.06014753668182821 -0.11415863196743928 0.0739795878159925
0.060173696776762174 -0.11494432556249677 0.07448514881745665
0.06030367569518089 -0.11400551821483933 0.07473214252803105
0.06026697230643759 -0.11318313423300494 0.07390197528519209
0.06051976022991428 -0.11212022923611656 0.07421824185145443
0.060728462122600635 -0.11108634972744232 0.07456893665026043
0.06078971405762444 -0.11016710940492744 0.07451076710694934
0.060705259908306025 -0.10941212924214075 0.07404624761320372
0.06073290708380037 -0.10873994781817108 0.07409894979193346
0.060545498363385256 -0.10743392894952833 0.0738416420870397
0.06071970869653192 -0.10809135218288508 0.07419248015871065
0.06071517719052075 -0.1072843158067353 0.07461873252042288
0.06046602832710848 -0.10675304228832146 0.07397598903993771
0.06011587469757197 -0.10518388919391583 0.07380951700568317
0.060343391310013324 -0.10585773309813126 0.0741744061580501
0.06029234279416481 -0.10501701175352178 0.07461468151572234
0.059987511187766025 -0.10438938604006272 0.07386577717511913
0.0599716772273772 -0.10350366789577632 0.07430639701820568
0.0599591906941059 -0.10266278956601228 0.07462586879021446
0.059784217764938856 -0.10193785990737453 0.07391210560910187
0.05980507543019323 -0.10108363177121649 0.07414493983975767
0.05985360600997629 -0.1002304343722289 0.07436536075316383
0.05994245331147738 -0.09930117454526176 0.07466705202738265
0.05992412391589661 -0.0984347570425644 0.07453540337674636
0.059789704828561815 -0.09767520708983565 0.07392544531684443
0.05973841973596076 -0.09682449040107052 0.07374469221086616
0.05979043662340167 -0.09615330628239098 0.07401838185345777
0.05981860656431802 -0.09533004235910154 0.07424137347214024
0.059835294080681146 -0.09446855780346802 0.07453667846061311
0.059727975311924995 -0.09366167552022445 0.07448692573786934
0.05951181192960959 -0.09290033002311808 0.07395017749201581
0.059416964577839876 -0.0920442258211845 0.07377864014332682
0.05946143505990835 -0.09135817046097554 0.07399321994426183
0.05949901768013439 -0.09049047039976335 0.07410729919451245
0.059550369847637244 -0.0895876699222053 0.07416642764352777
0.05960248828720235 -0.08866195581565811 0.07418441024277303
0.05965825526145708 -0.08771274798216368 0.07416650323268015
0.059709844954222054 -0.08675923142623805 0.07412545219076312
0.05975412465661114 -0.08581064480360104 0.07408877849538893
0.05980561088912314 -0.08487829723722927 0.0740743844472963
0.05990175130284456 -0.0839686601953683 0.07407763077081517
0.06004439442422334 -0.08307972227905579 0.07412741743104032
0.06022872443365295 -0.08218593112398723 0.07425076661758877
0.060221632568585835 -0.08143460680669967 0.07340801747602882
0.06046906112142763 -0.0806019764170918 0.0736062408429948
0.06071263518314149 -0.07981051320200903 0.07381569813411751
0.06088553148943405 -0.0791906861799037 0.07407110131907761
0.060923271561102325 -0.07825967111134063 0.0731076807023174
0.06101608937584549 -0.07835334239170848 0.0740344825897991
0.06102887010109765 -0.07772672684651458 0.07337346286531368
0.061008243286505164 -0.07680595465406191 0.07320042760388933
0.060909343816066275 -0.07580645192198937 0.07301233248061702
0.06086447149159977 -0.07502153791823128 0.07321802498843226
0.06078754096420238 -0.07405562832388377 0.0733748446575295
0.06069427086975195 -0.07309731964238692 0.07351635883399935
0.06059608321507409 -0.07216881713385748 0.07353507747846097
0.060525718541337314 -0.0712847510480997 0.07356676992267684
0.060510210380781915 -0.07059225071245834 0.07379608397381905
0.060317975785210656 -0.06939778196698082 0.0726247042671116
0.0604491245795202 -0.06967966563784572 0.07367341709419079
0.06035037146418232 -0.0686652077819228 0.07316117190421349
0.060329012660849904 -0.06794192435216234 0.07287799601328392
0.06038432540533541 -0.06783562808914184 0.07368674904775314
0.060357716362420426 -0.06736439598335758 0.07313525742465991
0.06039505177114014 -0.0668045338244377 0.0733463455912491
0.060264488343834695 -0.11596597169321199 0.07522750157143497
0.06026908814702277 -0.11560969936775056 0.0752951747998865
0.06028963152543595 -0.11483405993348329 0.07547254399889589
0.06042262041647475 -0.11390186558044173 0.07570402372708476
0.06049091724501768 -0.11301730046976767 0.07494404927494268
0.060696967929300655 -0.11208245051757008 0.0752167413949985
0.06085450478185686 -0.11136394234228596 0.07552284679561988
0.06087944288882132 -0.10966613027010955 0.0748894660469427
0.060933708751549014 -0.11046088069690858 0.0754071729650409
0.061048883197016374 -0.1095497524563436 0.07568745425130352
0.060897599716637406 -0.10884452338950194 0.07485799220217619
0.06093833865647696 -0.10793328854218612 0.07524424363639012
0.06091568067269715 -0.1070841784549587 0.07557754551483874
0.06066518365343699 -0.10646232707406862 0.07493002196694856
0.060579173054667604 -0.10561130480945476 0.0752534633796202
0.06050753420491053 -0.10478739301254518 0.0755824177855444
0.06022532556316022 -0.10417785129154335 0.07496812452356132
0.06019474765192835 -0.10330995863959543 0.07531676012428333
0.06017038532620573 -0.10245042381592431 0.07558523350114285
0.059973932451496216 -0.1018077724935998 0.07489887608707106
0.05999932728996953 -0.10096845243509703 0.07509368704705105
0.06006056588746732 -0.10018575721087228 0.0752810836229796
0.06015619962457565 -0.09955141200849593 0.07555412774193959
0.06001635430405453 -0.09791221319899555 0.07479986188186329
0.06019651171984014 -0.0986188807426466 0.0754760062276834
0.06021222540354683 -0.09768116095873967 0.0753632249393417
0.05999499453126088 -0.09704740182257553 0.0746573900204151
0.06010642411489856 -0.09605540429608138 0.07505057775111267
0.06005632483443039 -0.09520638348416775 0.07501318542862673
0.06012767130886611 -0.09470120280584983 0.07537989403981941
0.059783939496156756 -0.0931662268988455 0.07483495189698047
0.06001407150575778 -0.09388579428529734 0.07534615166115463
0.05998447398698442 -0.09297733204730887 0.07560437286203317
0.0596902214483578 -0.09228175853497958 0.07471863972044053
0.059706740245353815 -0.09130899659503976 0.07491490268452734
0.05972640708937995 -0.09043016300424185 0.07500362869575111
0.05977189722865204 -0.08955133343009629 0.07508662076352159
0.059832737019240134 -0.08863255058063195 0.07511197866265724
0.05988904383829666 -0.08769617896135758 0.07509700559307078
0.05993009735973742 -0.08674678897350412 0.07506953658067772
0.0599651739215861 -0.0858003004017669 0.0750448753176063
0.060026328132713885 -0.0848642969959152 0.07501952331231428
0.060120865334460746 -0.08394651349059726 0.07502753338460846
0.0602428440063056 -0.08302813014479996 0.07511804647499831
0.06040077848978526 -0.0820281232155031 0.07535200188702966
0.06042570430286007 -0.08129120034862755 0.07438410910871164
0.06065179107192029 -0.08038560614910749 0.07463109180691495
0.06082768692079162 -0.07962804471064044 0.07453995815288214
0.060959164885365236 -0.07902419365662429 0.07474442413509744
0.061055025618710956 -0.07839750259633713 0.07493376548413826
0.0611118009383874 -0.07748310507340268 0.07393016943696885
0.06114443452050518 -0.07752304014613674 0.0748407068792483
0.061147505538349536 -0.0768927843164278 0.07412537905423688
0.06107474113557835 -0.07598499018566622 0.07389870586611177
0.06098700770494983 -0.07492735209789374 0.07412221353148275
0.0608856150427123 -0.07391682420397062 0.07429739685287474
0.060762338794640026 -0.07284971541366463 0.07449283860531236
0.06064959754104692 -0.071908964085513 0.07423886154087164
0.060621108975012175 -0.07121899502179187 0.07440671553776122
0.0605746894106911 -0.07041965853368087 0.07451653061385013
0.060564783309950715 -0.06959526437685536 0.0747356686041018
0.06043983927444829 -0.0687578009837785 0.07411776663469478
0.06044822345196557 -0.06808425081294613 0.07452073357160176
0.06039168398542954 -0.06707136705173161 0.0736681814745934
0.06043457358623931 -0.06715682419126098 0.07455464378405453
0.06041760492032163 -0.06659277926431509 0.0739679941084344
0.06044315644599389 -0.06620572699922442 0.07409569578099716
0.06031110766823623 -0.11598929978482382 0.07588526195437435
0.06031695350169265 -0.11555793051122881 0.07619061900881101
0.060351780785698216 -0.11478232263354936 0.07645173993929354
0.06046379063157453 -0.11389769731605565 0.07669166615077415
0.060599203073131255 -0.11297873532681421 0.07593544604445669
0.06078695639730273 -0.11210366392236272 0.07616297461309404
0.060957205351848266 -0.11123644133888907 0.0763125076397305
0.06109981029209626 -0.11033751503455733 0.07645372362083355
0.0611955263072414 -0.10946356815896116 0.07667249320896216
0.06111212165840034 -0.10866863744965333 0.07594401279299925
0.0611374974790372 -0.10774196304381237 0.07635867976582562
0.061072578624998757 -0.10691192078376766 0.07638814556006629
0.06089652994632885 -0.10621025471985297 0.07600986478426824
0.0607797588767658 -0.10529411932505123 0.07621533389739783
0.06070494204544232 -0.10459727584729576 0.07637076205193752
0.06049381193309783 -0.1039301163113362 0.07605741114143531
0.060419633462639136 -0.10296524992153672 0.07627644929536022
0.06036432976317262 -0.10223464610708088 0.07636401452659981
0.06021072329557775 -0.10156824415165688 0.07590755695714019
0.060189535765757037 -0.10076465373830339 0.0758310241600733
0.06026724575196896 -0.10013960190613899 0.07606012264567194
0.06037367307487358 -0.0993994355064233 0.07618881515231592
0.06050342556132443 -0.09871233875055013 0.07637880965253531
0.060321206122167424 -0.09693881827212172 0.07562669931806605
0.06051696146894113 -0.09780255157575289 0.07623006907216968
0.060424755742728806 -0.09622041858646298 0.07593131373200318
0.06064837081052822 -0.09677711172429743 0.07650230799521293
0.060688676784775394 -0.09589955393418012 0.07663220703384409
0.060355139808257054 -0.09538279493545784 0.07585291876716362
0.06034289432115142 -0.09448571695757936 0.07611530231194011
0.06029984227266291 -0.09359498995185113 0.07639797297726098
0.06017846046552246 -0.09277407273729456 0.07637693056007212
0.05997260041882835 -0.09202876820084897 0.07582938733854529
0.05989032144706419 -0.09112021698265 0.07568392880039178
0.059944200233106634 -0.09039536895914826 0.07589509265477676
0.05998336439605419 -0.08950230960134162 0.07599190337065458
0.060025981968631195 -0.0885915399479191 0.07602353278529782
0.060073454099410034 -0.08766929038053908 0.076019008192246
0.060106171565743036 -0.0867302700881622 0.07600452534170635
0.0601456959392601 -0.08578794433604085 0.07598189084889666
0.060202655193876846 -0.08485538495170251 0.07596419426929094
0.06028244187468525 -0.08393648291598932 0.07599225262683709
0.06037465160320369 -0.08303903025317429 0.07610638548337209
0.060461815317506364 -0.08231500353742956 0.076328527631403
0.06054101251464476 -0.08110805981292038 0.07519707385253896
0.06057717257314291 -0.08130452789241063 0.07621434860317146
0.06066257052753942 -0.08055707824125427 0.07550678028761883
0.060832706631717505 -0.07967490529614027 0.0754489993991781
0.06098825218601776 -0.078833202913368 0.0754121194776276
0.061076937124243745 -0.07819171878587829 0.07559002022555432
0.061143436172372764 -0.07752668351923855 0.07574503705397172
0.06117212670894832 -0.07657794561668525 0.07467650600232353
0.0611698098780855 -0.07666230825501841 0.07556683435058976
0.06112537279964077 -0.07575974918436403 0.07486081382938573
0.06112548631832086 -0.07560424794668101 0.07579119467946244
0.06103535466197939 -0.07477289514263384 0.07504881423531687
0.06104313414555989 -0.0746363802645347 0.07597953642529606
0.06091942971185805 -0.07380800375874656 0.07524020998401124
0.06094338545522581 -0.07367130677776475 0.07621056286150239
0.06083503638108342 -0.07303201720316563 0.07543418784212298
0.060745522247522936 -0.07205518230333179 0.07524387383149843
0.06068435088253049 -0.07108549373517031 0.07512966819082788
0.06069336873947794 -0.07040339509965127 0.07542267720956088
0.06069387938188368 -0.06958236032769494 0.07570065743215419
0.06055788078572396 -0.06878291648412461 0.0750412091741051
0.060532836803790145 -0.0679876779656001 0.0752887297046531
0.060521238011817594 -0.0672974450856274 0.07555340164699785
0.06044833440092124 -0.06634282323834619 0.0745462621720003
0.06050371750738176 -0.0664257435172979 0.07545307903276294
0.06046902253797659 -0.06596494476828078 0.0749259925256638
0.06032202230610522 -0.11596243468270712 0.07675060741377789
0.060313172131597356 -0.11553284962627386 0.07711890696868884
0.06034554925983631 -0.1147894581973457 0.07742617734857604
0.06045584831543233 -0.11395113522491922 0.07767835019972184
0.0606416473026117 -0.11300529112307281 0.07691666756206242
0.06084982556998118 -0.1121050683914654 0.07711586266618006
0.06103703076642338 -0.11119664300563806 0.07728246854064945
0.06119944036731828 -0.11029000931828821 0.07745254152658192
0.06129504248049331 -0.10942334005313141 0.07765778298187327
0.061264248860191904 -0.1086251741858649 0.07694750854220445
0.06130886520038952 -0.1079546416326657 0.0772849231471424
0.06112358977297203 -0.10643709792449334 0.0768258493992912
0.0612605802418083 -0.10713171925480586 0.07724592201217545
0.06128260437864307 -0.10625965329819058 0.07761285947246467
0.06105444807015579 -0.10572525990534182 0.07694454758309499
0.06076597799167959 -0.1041292913255306 0.0768422206117511
0.06096766709815224 -0.10478806982346332 0.07716160179535124
0.06095319767173057 -0.10391099897571034 0.07760232378350188
0.06069575645830267 -0.1033971988836024 0.07700394900658192
0.060448735587675585 -0.10171799309734844 0.07671777938607281
0.060664632533662534 -0.10234128086444806 0.07723361189278435
0.06062498029417403 -0.10148458086972906 0.07727960617988246
0.06045011142136981 -0.10084636033572908 0.07670313680905337
0.06048669685872209 -0.09996563469903257 0.07667660138580024
0.060649990485303104 -0.09928139608061068 0.07691246043066825
0.060778510212101185 -0.098398314768686 0.0770505537396932
0.060919655370353196 -0.09741326516641123 0.07719155048069441
0.06102271219357384 -0.09637270161585527 0.07739866123108534
0.06094116215900458 -0.09560021962825602 0.07729217540004059
0.06068808909076789 -0.09500960268308545 0.07684734971331571
0.060554640728975845 -0.09424436024916896 0.07683858292535319
0.060582049265002075 -0.09373137080486747 0.07720848201440456
0.06022574547525757 -0.09223162668172873 0.07673528944742794
0.0604465901447243 -0.09292708975961252 0.0772257397881767
0.060415122116144804 -0.0919862030416444 0.07751122861834298
0.060141571079624284 -0.09131948616875916 0.07662785025269701
0.06015627918048984 -0.09030765879191258 0.07681191950405408
0.060173540255112394 -0.08941389882728984 0.0768628363766256
0.06020292254937483 -0.0885365801642304 0.07690810272221975
0.06023104167311718 -0.08763330157767114 0.07692331929139012
0.060258580369939876 -0.08670913626612899 0.07692218940761777
0.06029131471580287 -0.08577727731280596 0.07691321012127007
0.060345351282034713 -0.08485150906504946 0.07690355701938308
0.06041033938634954 -0.08394065767154174 0.07693176818487985
0.06047196510482775 -0.08306789704667371 0.07700980846591657
0.06054186128710546 -0.08221657747512748 0.07707615602628477
0.0606176613416254 -0.08148940923290644 0.07723921274651306
0.06072588899511889 -0.08034810816449031 0.07611570187386696
0.06072731555224699 -0.08049165563196818 0.07710768595625374
0.06082296567191596 -0.07976926282921745 0.07638688079826055
0.060962499204403435 -0.07886710706925239 0.07631176938686779
0.06108609120557213 -0.07798041805318728 0.07625129914514649
0.061130950895362524 -0.07726906897868799 0.07643643783856122
0.06114585559771023 -0.07635780157372304 0.07654851051782142
0.061107372269284393 -0.07543512539060257 0.0767056286025222
0.061045446131725724 -0.07456947250474698 0.0768839178687521
0.06099708508603985 -0.07389460040418351 0.07710169240253335
0.060850585645110845 -0.07279916660447767 0.07599390145741303
0.06093793413087293 -0.07303417261675842 0.07688535919224034
0.060848082714574966 -0.07226290519604588 0.07624086636281333
0.060806618503978116 -0.0713611775532214 0.07608968475257191
0.06083441284599815 -0.0704199992253387 0.07641549639898458
0.06084607775297742 -0.06956126351281801 0.07667489874978207
0.060698221602290284 -0.06876424637113238 0.07596368434365874
0.0606505373247044 -0.06793828262532975 0.07618659306478516
0.06062183041135792 -0.06707328849872797 0.076355648536249
0.060588379387458674 -0.0660802607248833 0.07661959570630955
0.060486344953772926 -0.06559815200745177 0.07589700093544956
0.06050598729318016 -0.06504184624833197 0.07637017617992792
0.060304971697975766 -0.11588784870419867 0.07744259468551379
0.06028066483429624 -0.11542420421736357 0.07798918882183507
0.06030071752721483 -0.11480495775837987 0.07839115999502339
0.060414550457481564 -0.114036913402467 0.07864187083117165
0.06063879834502338 -0.11307919710246331 0.07792487605342997
0.06085726177720969 -0.11214761942554168 0.07813410468215513
0.06108036621383018 -0.11118652360087854 0.0782860543900904
0.061255860337247864 -0.11026785973779593 0.07844804043116395
0.061378394755658 -0.10938834298825653 0.07863126093725739
0.061373136467059296 -0.10860236875799578 0.07788641023958812
0.06141992226092407 -0.10777773011624245 0.07807832757429504
0.06144126689773536 -0.106912096034293 0.07829808615229694
0.0614523997012094 -0.10602736309236808 0.07855925890705609
0.06124609699681759 -0.10539023687330515 0.07790502617413048
0.06122489070655189 -0.1044478635377409 0.07829123976549925
0.06112634022998237 -0.10366409166532373 0.0783414545369756
0.060945534706452004 -0.103021674673327 0.07796086719032244
0.06091520363800572 -0.10230881770267289 0.07802501669293159
0.060731300140097186 -0.1009173152331078 0.07753439090268814
0.060918767157070605 -0.10152584215627164 0.07811176835409549
0.06094616276253548 -0.100595146863456 0.07806268942624668
0.06075793029108643 -0.1000779703037738 0.07742470788876257
0.06095785960857165 -0.09908016395148361 0.07768486830219179
0.061140634180755424 -0.09809482537376261 0.07787586353159609
0.06132520619614144 -0.09702528868218539 0.0781361381003368
0.061307283949203435 -0.09628722173282367 0.07808955373524537
0.06099069158767234 -0.09507410624585205 0.07760089784612297
0.061233319079917796 -0.09563310145776371 0.07803484596901987
0.06118084992291037 -0.09478412935622087 0.07825330192241477
0.06084268956604372 -0.09433535298433454 0.07760722152492375
0.06077273966941837 -0.0934758835522533 0.07793184063123744
0.06071586158519527 -0.0925752216994467 0.07828843621209354
0.060601622452758706 -0.09173215163160242 0.07829909469524877
0.060397949388253214 -0.09099158556937079 0.07774558216573701
0.06032515473192503 -0.09007197798630003 0.07757021688070434
0.06034874445051 -0.08933166993703988 0.07771533226256074
0.060357889679804044 -0.08846656222576448 0.07776020353924121
0.06038036647515827 -0.08759247733984678 0.0778006186952542
0.06040169559131907 -0.08668690909623265 0.07781840012867988
0.0604333979012819 -0.08576836190734918 0.07782402522896029
0.060473130647158466 -0.08485028029151817 0.07782529559832566
0.0605138295867403 -0.08394050282087193 0.07784743298669032
0.06055820102342619 -0.08304556854968591 0.07788433937952696
0.06061076938242228 -0.08218955293004461 0.07793802438219019
0.06066984806121866 -0.08134370350455418 0.07799325678937864
0.06073947786588135 -0.08061453555444745 0.07814188625346233
0.0608527910938462 -0.07953746877509607 0.07699463794759745
0.06083338496816869 -0.07969986489044566 0.077931132236429
0.06092923955423603 -0.07895565177680278 0.07728843311000641
0.061038034143989936 -0.07805924477005484 0.07714271442198407
0.06109999121417174 -0.0770416507937525 0.07732179343291509
0.061118057707628466 -0.07615738568475998 0.07742930571514195
0.06109808920281321 -0.07532301820199505 0.07758926805409372
0.061058290610383543 -0.07451630297618557 0.07773319755996716
0.06102470205056386 -0.07371282304780102 0.07780467390630902
0.06101144353980077 -0.07286491863139409 0.07786769942712914
0.06092309042677761 -0.0721203650504442 0.07704256536502357
0.060942942430018576 -0.07123422311519119 0.0771913116171649
0.06098346361388827 -0.0703684842782167 0.0774253062437496
0.06100013256757001 -0.06951855868577213 0.07766293597030563
0.06084425284935678 -0.06872055894583969 0.07691149215628146
0.06078786984634121 -0.06785059838811441 0.07711123969628474
0.060754299529537883 -0.06698652137886406 0.07731484154164105
0.06073462709848877 -0.0662739226899385 0.0775676096474026
0.06052807577802518 -0.06527196759926855 0.07659172716088826
0.0606450050932792 -0.0654384169095143 0.07746825554202359
0.06056725519344678 -0.0649394057696834 0.07701161100060795
0.0602347783855394 -0.11523254276204037 0.0789966362623819
0.06025326415883258 -0.11478087899268993 0.07927012224641768
0.060325875107126836 -0.114194069980487 0.07940960874408741
0.0605577499881481 -0.11324687820197107 0.07905808951227757
0.06084973767990749 -0.11214749086567037 0.07916032779507651
0.061094919929549525 -0.11116511913493222 0.07928651794508268
0.06130147002110981 -0.11023977305159782 0.07943792192783626
0.061438771167570475 -0.10932637735597332 0.07960943838762742
0.06147339331158395 -0.10851288518119998 0.07882607094609966
0.06153420177140438 -0.10762723918642975 0.07904239012833823
0.061590649822846184 -0.10669858915768567 0.07935921927475698
0.06157021642295723 -0.10584732044400112 0.079338345036424
0.06144415592214542 -0.10514687370861034 0.07893267252853142
0.061392834855665844 -0.10447700971354741 0.07902049705847801
0.06117306239056012 -0.10314785224858919 0.07872934007884594
0.06133070239561391 -0.10380952939834548 0.07912134223335553
0.06133847441345606 -0.10291480452216002 0.07947068333563392
0.061123524452108315 -0.10234666821980339 0.07873343094904997
0.0611826106841003 -0.10153257762469407 0.07902599171395377
0.061090156504889186 -0.09980201202918534 0.07829525487824203
0.06119527247225186 -0.10065590261133468 0.07887912668646231
0.06129767608442563 -0.09883357613215654 0.07851235899542501
0.06138867313687318 -0.09961558813212158 0.07915659714181092
0.06148467688898713 -0.09785856403917807 0.07872414014417498
0.06159489167241349 -0.09863138702674744 0.07937148397352699
0.06163464221687794 -0.09706939109816583 0.07893048002703232
0.061798154648578095 -0.09761742730937836 0.07962133533623704
0.06181242374785835 -0.09675989349220032 0.07945999375622485
0.06158897525603969 -0.09618211452074583 0.07884899423590569
0.06148088258960473 -0.09517538351948393 0.07887759871038041
0.06136418774075062 -0.09451149535670493 0.07889973530705081
0.061110098698633514 -0.09396941310038262 0.07857261001073258
0.060959665584292666 -0.09322890170539704 0.07865919724750514
0.06098314453187715 -0.09271369588941838 0.07908342423335324
0.06063181065868936 -0.09115697256788359 0.07863865319232607
0.06086127008128691 -0.0918295520867474 0.07922105152055173
0.060762456862733925 -0.09092212932691894 0.07924924922529653
0.06054869434845069 -0.09018398342477534 0.07857578344986585
0.06048946509987961 -0.08916562026258969 0.07845121072020159
0.06051035756616553 -0.08841165788256072 0.07860371953642857
0.060517472478664916 -0.08753993546989933 0.07865101831682395
0.06053499587101677 -0.08666405972896547 0.0786963093112394
0.06055493369701395 -0.08575985746845567 0.07872303794956544
0.06057972966711164 -0.08484522095481353 0.07874081301811418
0.06060205179149088 -0.08392961579960125 0.07875611947609092
0.06062989783773532 -0.08302606555672983 0.07877640856636196
0.060664945643131775 -0.08213623778365751 0.07881103746342685
0.06071283058746211 -0.0812752443711337 0.07886885558214629
0.06077893543130694 -0.08038988686721847 0.07892418478178675
0.060864845262012954 -0.07937801453813795 0.0790826023704365
0.060947475081365374 -0.07868347113849149 0.07809624086061222
0.0610340186520865 -0.07767433749115356 0.07825694285511224
0.06109036894513951 -0.07676869980187821 0.07807543666603294
0.06110384472382503 -0.07606388804765449 0.078306813098803
0.06110331931272589 -0.07523872667418802 0.0784635642832955
0.06109557605196489 -0.07442238174322603 0.07857795811954084
0.06109391697590014 -0.07360612345964697 0.07868973203707667
0.06110598931544432 -0.0727804245419583 0.07882557798541918
0.06103313848816954 -0.07201001892011698 0.07801334684280542
0.06107368771719917 -0.07116538265369078 0.07820458096128029
0.06113402270484444 -0.07032408462303469 0.07843242328150153
0.06116941184857354 -0.06946921804510481 0.07867279589389602
0.061002914681762964 -0.06866221402368769 0.07788341259007846
0.060958233263990795 -0.06778289275648029 0.07807870225187315
0.060910743060638255 -0.0669342796288969 0.07822146687788926
0.06086765828457628 -0.06611823141813543 0.0783194739870082
0.060870076088984426 -0.06532805923175757 0.07853916691417999
0.06072711442756082 -0.06474470057732168 0.07798441831585534
0.06086249778270375 -0.06425398874443579 0.07855794869838066
0.060207059808868174 -0.11502742313625693 0.0798290249236076
0.06022465044299446 -0.11463277806051372 0.07989515641350349
0.06024671393591128 -0.11452783062174947 0.08053352999473663
0.060337792680883885 -0.1139934795617197 0.08001686786243191
0.06057282707157353 -0.11306468232730825 0.08005805096955479
0.06083605024646632 -0.11209085948598048 0.08014288865464651
0.06112283161615063 -0.1111299921487556 0.08026339904771813
0.061341996665344636 -0.11018559592892056 0.08043097320323538
0.06150703001028291 -0.10923733940746116 0.08057893762832695
0.06155620803437839 -0.10841947290240549 0.07979736874601337
0.061630933201905096 -0.10754795136164869 0.07997839234185719
0.061675747081244583 -0.10689507309807628 0.08022475547040529
0.06158713722239098 -0.10535668033551195 0.0797337818681615
0.06167395725335225 -0.10608528757218622 0.08017788944373737
0.06165770310671749 -0.10522556468983298 0.08051642756525208
0.06151574570636234 -0.10455870828236082 0.07976082813821242
0.06150106540401218 -0.1035639122583524 0.0802361342208493
0.06145525422202888 -0.10270113153595745 0.08023354157139283
0.061349760794107214 -0.10200050779085577 0.07974837208350327
0.06133702451600684 -0.1011675931839772 0.07960678639842451
0.0614547312929792 -0.10040207040009783 0.07983314289778519
0.061625109378168175 -0.0994621792622126 0.08005061416048935
0.06182183538940132 -0.0985427698009591 0.08023763166060766
0.06196987286933818 -0.09779958491085061 0.08046284664200118
0.061886158910188144 -0.09621466141005755 0.0797056722783477
0.06202072321871212 -0.09684966810812243 0.08035492775519544
0.062030584176687525 -0.09597742681403419 0.08027416324589141
0.061819438484603945 -0.09542473689899157 0.07976475729498832
0.061381896961483294 -0.09405311241649236 0.07928736970461016
0.06160443335187574 -0.09458638932936135 0.07956881363869805
0.06155362852999009 -0.09386122838596564 0.08001557508260373
0.06122514445646563 -0.09334502959411407 0.07940707564596994
0.06114848000179253 -0.0925259481351389 0.07979796683866358
0.06110322775628205 -0.09188490914507158 0.08010645243320272
0.060778449243720695 -0.09032153820045152 0.07954326285464823
0.06099071056181656 -0.09100472562198814 0.08017458633085574
0.060889056090432034 -0.09006747793362822 0.08016197995576767
0.06069321350409817 -0.08931133914934217 0.07945878857040392
0.060633324087044124 -0.08826316067726345 0.07933810272864834
0.06065044136778955 -0.08750870749185909 0.07949262354006717
0.06065326551817387 -0.08663402867210283 0.07955320829530892
0.06065820135083364 -0.08574970727790265 0.07962358210322185
0.06065975084635149 -0.08483302332016668 0.07965999765210985
0.060667559109304096 -0.0839158260827704 0.07967349202656321
0.060679119105116544 -0.0830019536150485 0.079689325862091
0.06070405599093304 -0.0820965439948659 0.07971695114914512
0.06073933230669848 -0.08120059938825132 0.07977023354454735
0.0607904486780499 -0.08031667589081286 0.07987456862745952
0.06084252704149939 -0.0795966251497034 0.08008120222270823
0.060954943184876445 -0.07843633505923261 0.07889923694179023
0.06092570459736375 -0.0786711675526965 0.07987223183366303
0.061001434323856636 -0.07786974163709824 0.0792139538715719
0.061070466965314305 -0.07695671968921013 0.0790405014316023
0.06111453322490376 -0.07598279048041863 0.07921667748534993
0.061137398179482084 -0.07515688751815805 0.07932412982759598
0.06115086124687415 -0.07437094926404478 0.07947629775357494
0.061177561692561756 -0.07356350332989407 0.0796319867766874
0.06122025984317261 -0.07274369779173152 0.07979348693891777
0.06115525507726549 -0.07195271146253598 0.07899709339664122
0.061215572472232326 -0.07113175233201435 0.07920407113586284
0.0612845201443736 -0.07030349046706827 0.0794490403355652
0.061337984454982945 -0.06941062627532653 0.07976218534454954
0.061167837117781995 -0.06859794727691552 0.07886307924626773
0.06112941223056512 -0.06769652776896375 0.07910514306602236
0.06104468468371954 -0.0668090055700318 0.07896951135349592
0.061067417348812415 -0.06615217303505995 0.07926340267563364
0.06112673862078396 -0.06535605051903755 0.07955440164072553
0.06095000224271491 -0.06459913102318265 0.07888310126963745
0.06106943913641223 -0.06416675322518599 0.07929818106001245
0.06031428715155028 -0.11423981363515742 0.08148005057043056
0.06037086083348971 -0.11384558270108154 0.0808869789056796
0.06061018572218929 -0.11295067303210228 0.08098866731868044
0.060893554723635356 -0.1120159345577924 0.08106221978483577
0.061162167611741244 -0.11107886600691713 0.08122400796282644
0.06140791714310011 -0.11007459280214912 0.08148480334989727
0.061563537981259686 -0.10911822168364135 0.08136379227636165
0.06163637477422099 -0.10827783426405609 0.08081105067136635
0.0616835280696317 -0.10741573281339406 0.08070598652691258
0.06171725234153606 -0.1067748026120292 0.08095966839018859
0.06173437729308188 -0.10594291238101168 0.08119084814901399
0.0617056358230955 -0.10511244889128163 0.08146920023522157
0.06162810907952267 -0.10440273344125137 0.08081159835098944
0.06160070462688735 -0.10373628633338133 0.08116646539870744
0.06148789028486396 -0.10217504317682523 0.0805961783980346
0.06154441142927921 -0.10291734078009813 0.0810951618754327
0.06154317204833968 -0.10203216128302339 0.08136855141038678
0.06148813394868216 -0.10130977253676503 0.08050779745562617
0.06161462874455464 -0.10031786846505747 0.08078468959508704
0.06178549916257565 -0.09938822954593991 0.08095810439421637
0.061954262584783724 -0.09849641301877492 0.08108530859741198
0.06207173156930251 -0.09764441321706177 0.08116284969865036
0.06216394291796597 -0.09693851798660995 0.0813016913876123
0.06205512775019553 -0.09542545185813545 0.08061102883316348
0.06218135552056562 -0.0961017574792797 0.0811230247090611
0.06218559768162325 -0.09520756182795231 0.08139499960661009
0.061901842327439976 -0.09453197978946716 0.08066425955391315
0.06171456450709202 -0.09364358866259263 0.08078310694112635
0.0614474886251546 -0.09302492598757439 0.08042248187583069
0.06128568225029975 -0.09230599080822394 0.08048369874732676
0.061245346795321016 -0.09169642008171218 0.08079582426990002
0.06119668633126434 -0.09104136683182244 0.08110337820298615
0.06088831869051937 -0.08945181789047729 0.0804459562907254
0.06107821497769966 -0.09014410857283445 0.08110195383519798
0.06097651472823936 -0.08920702037926975 0.08105875079862636
0.06080877719907644 -0.08843831196962923 0.08034573416580006
0.060752729565212486 -0.08738569092034472 0.08022975899889122
0.060756953128123146 -0.08662801777084714 0.08044165064320555
0.06074276170733545 -0.08571893392553778 0.08053217158640305
0.06072679366342712 -0.08480719101065387 0.08057100146563803
0.06071786617190445 -0.08389607166776954 0.08059298904346834
0.0607229884887388 -0.08298389207821376 0.08060728706546551
0.060734903798096394 -0.08206821095508635 0.08064023854462843
0.06075812493978075 -0.08116504710155373 0.08069896988846638
0.06079747171099398 -0.08029813184974773 0.08079263570918152
0.06085853464598263 -0.07942167528159687 0.08086413883029937
0.060944600415451425 -0.07844159949889547 0.08100982024018494
0.061010161654263824 -0.07768307930158141 0.0800171968753269
0.061088617123818856 -0.07671855850920498 0.08016601772939952
0.06113965696966159 -0.07582136013105002 0.0799802214191239
0.061178373979562856 -0.07517031144534628 0.08023101918865319
0.06121755008974198 -0.07436746675824342 0.08042382907524115
0.06126180191837114 -0.07354968246064844 0.0805951955931039
0.06131954252360336 -0.07274069956153466 0.08076758545174546
0.061276563980556975 -0.07193414625183425 0.07997936651547075
0.061347309607250156 -0.07113470837269222 0.08019469623731466
0.06142766887103115 -0.07034793294233743 0.08043240756488317
0.061507382742042975 -0.06972632928530444 0.08070422529906102
0.061311933056247235 -0.06853527141636369 0.0796586372810208
0.06150174319133368 -0.06888872155114587 0.08054217383850619
0.06136149080883239 -0.0680678940772042 0.07999942316036426
0.06130032289862383 -0.06719106859665458 0.07993612704288595
0.06135562938362187 -0.06628456248730959 0.08029685169468777
0.061429950913481926 -0.06543990124910921 0.08055351198947283
0.0612174839399679 -0.06461883586687987 0.07986534339816898
0.061389743440035976 -0.06410010017644152 0.08033521083194486
0.06160055779896136 -0.06374618262904246 0.08089981832740556
0.06037270099428755 -0.11408819516781538 0.08214051209930845
0.06046796184297856 -0.1136260889463266 0.08187625269239024
0.06071185819886857 -0.11274691348198662 0.08174711052860519
0.06093921670367618 -0.11197755975487661 0.08194581771918931
0.061195631006177864 -0.1111003188035039 0.08213260020459114
0.06138447500920871 -0.11038268442827553 0.08240312747396175
0.06165328197759809 -0.10858745305484468 0.08169856862372966
0.06156429950269573 -0.10942404100892208 0.08225406147344534
0.06170041392495586 -0.1084463940199337 0.08247366421058361
0.061715209680104764 -0.10766534126551534 0.08159695608447222
0.06175445840474266 -0.10671366353385463 0.08190312548457884
0.06175433161503992 -0.10585648603771966 0.08216034328304066
0.06171171212840028 -0.10503904185837817 0.08241689446741828
0.0616651557371712 -0.10433250704260146 0.08174381027690333
0.061607339476904624 -0.10355622956359077 0.08194061651160367
0.061558476458665974 -0.10275910202189484 0.08209710102426285
0.061556739803120916 -0.10198772690492454 0.0823002007128109
0.06158111328119367 -0.10118229692338529 0.08157651964307983
0.061695295109352816 -0.10027447732328595 0.08177399117741767
0.06184376697675203 -0.09933977685394145 0.08187966876433707
0.062002406253133614 -0.09843184118472827 0.08194623923127275
0.06213760895614101 -0.0975600564836161 0.0820036199016903
