# .PCD v.7 - Point Cloud Data file format
VERSION .7
FIELDS x y z
SIZE 4 4 4
TYPE f f f
COUNT 1 1 1
WIDTH 791
HEIGHT 1
VIEWPOINT 0 0 0 1 0 0 0
POINTS 791
DATA ascii
0.08229633560797671 -0.17210076858234027 0.09053637264284219
0.08236401399834001 -0.17176986787436518 0.09003603714412413
0.0826232743269408 -0.1709395873392849 0.09043985985737724
0.08280743849408463 -0.1702451068086248 0.09048486962953114
0.08297479309724759 -0.16897329369738892 0.09018564577910516
0.08299826871761948 -0.16957657256436465 0.09056101713821042
0.08318215636739161 -0.16873160739372198 0.09093623495370354
0.08287485849278835 -0.16823060112217347 0.09022875878593752
0.08205387696275046 -0.16686708401941916 0.09012512993569245
0.08238537207944154 -0.16705540358051346 0.09033272805916032
0.08260478448988828 -0.1674839012467261 0.09025782829696327
0.0822577025825207 -0.1660160996326012 0.09112952505712107
0.08159361870048995 -0.1656348233041772 0.09080429957443477
0.08243991391344732 -0.16662973819834503 0.0908262840422192
0.08038344627997566 -0.16458787703974248 0.09060857002998957
0.08085805069020144 -0.1645821063860272 0.09107051617159682
0.08107831686225334 -0.1650735283779213 0.0908486267047588
0.07964684430289369 -0.16338137027810287 0.09073092345332635
0.08015451082214282 -0.16365284889517648 0.09108002185084171
0.08049517156464514 -0.1642012032566485 0.09100573990254772
0.07991863362831082 -0.16305156393140985 0.09128269073480597
0.07949580795636381 -0.16277860813108289 0.09094211769045078
0.07890009175042483 -0.16179216700646668 0.09067272370727304
0.07918022437145053 -0.16217627888680006 0.09087225678238868
0.07923057490624373 -0.16144623437961814 0.09138032616846369
0.07880500327388293 -0.16116059313317138 0.09085192304053116
0.07839293688136693 -0.15978209254602266 0.0908150407317136
0.07867023303990578 -0.16027655418780568 0.09109131370468465
0.07864721242035022 -0.15945244724625424 0.0914973044320819
0.07830528938133996 -0.15913869302748576 0.09094196229437287
0.0778654057091539 -0.15775223992250886 0.09083122938811217
0.0781399772523621 -0.15829099183292336 0.09111995663515084
0.07803060194568627 -0.1575335435639082 0.0915304392112914
0.07771077733193685 -0.15712517359010492 0.09098397837941613
0.0772071197602043 -0.15565669308174027 0.09097267781641662
0.07749103204157644 -0.15628918803262556 0.09123282669117655
0.07737302863619559 -0.1555612343657753 0.09171475748715222
0.07700917825062388 -0.1548837663106365 0.0912134051129939
0.0767959217742274 -0.15411655382370065 0.09146211552416503
0.07651398466025303 -0.1534813660240542 0.09121213142540129
0.07626393469400482 -0.15269397673776128 0.09146956779173612
0.07604907138451686 -0.1520985229524816 0.0916399823619585
0.07574446256113486 -0.15149856372366602 0.09136909213568277
0.07549114927576413 -0.15070768806480261 0.09160184293847368
0.07530238175704573 -0.1501002061283046 0.0917559498729396
0.07502927320314082 -0.14948459314643772 0.09146418803515553
0.07486393065388883 -0.1489116499404376 0.09159083240964631
0.07443431785279321 -0.14762740251194534 0.09136482091966605
0.07470305831033903 -0.14830212115877223 0.09171986632932705
0.074533339792894 -0.14749190655536076 0.092134703191557
0.074209235045152 -0.14682446730605314 0.09144559326072961
0.07403142279391205 -0.1459060144502024 0.09197174638345672
0.07382336852251815 -0.14514037268141045 0.0920394949338376
0.073581280071055 -0.14444203133966588 0.09167674900149257
0.07341378921274523 -0.14365719588767398 0.09174628563132099
0.07339185515397886 -0.1431547286410508 0.09217664681771855
0.07300899363460872 -0.14155322329366665 0.09177360775466202
0.07325079851531616 -0.14223788192573283 0.09230692380497205
0.07311147272442833 -0.14132712415041704 0.09237048192156051
0.07287223407231092 -0.14065208544650368 0.09181728324578654
0.0727411971477946 -0.1397666773810862 0.09186745268324868
0.07270832097848116 -0.13909240073977827 0.09213728930709929
0.07267667109798093 -0.13839510715277373 0.09242924847662
0.07225245320962911 -0.13684235058224192 0.09201974348358627
0.07254226811872706 -0.1374529868466507 0.09254294231987692
0.07237680044290522 -0.1365173127567544 0.0926335330740036
0.07207533785818081 -0.1359292437973627 0.09212777837899784
0.07189230024050078 -0.1350281596919736 0.09223857194773269
0.07185560226530457 -0.13441680898189498 0.09258786405569115
0.07141850079322459 -0.1328001169058031 0.09207060776981425
0.07167897893795792 -0.13348676141433566 0.09265258824756
0.07151901315704011 -0.1325213367812483 0.09268021409687856
0.07129750745331044 -0.13176124112329468 0.09202434528649484
0.07120758655621157 -0.13068455495559123 0.0919820274058911
0.07120926069362099 -0.12989639661105581 0.09224376269527954
0.07117960830182948 -0.12894407160303317 0.0923683423502707
0.07114624529971927 -0.12803746158349455 0.09244541787707418
0.07111768412351867 -0.12715532301702298 0.09256725798394594
0.0710715163151034 -0.12625244086190085 0.09267558985949317
0.07100326164163615 -0.12537363432189405 0.09278741404336477
0.0708998289785238 -0.12448817352350706 0.09290189707064817
0.07075131941250311 -0.12347147923571071 0.0931615680726772
0.07053767427869262 -0.12255896032774986 0.09310888538236847
0.07025788703965556 -0.12186897402915826 0.0926250823278609
0.06998053268693062 -0.12105038116282792 0.0926075389546814
0.06977016813433905 -0.1202985590517606 0.09302773437390752
0.06947486606234064 -0.11952861628889601 0.0931044758660622
0.06914195918140875 -0.11889164279046287 0.09271500844668944
0.06885045667263708 -0.11810888976423252 0.0927909728180634
0.06873036963099075 -0.11758651524475922 0.0931977960007682
0.0681486263356694 -0.11601980100905712 0.09277641385071925
0.06844863638936032 -0.11671257428363867 0.093335007191608
0.06818013540457948 -0.11579115034990664 0.09342361504480591
0.0679008173517317 -0.115031327515228 0.09277949342891985
0.06767299676764071 -0.11399374687121035 0.092743248062504
0.06755217845757726 -0.11322282204645569 0.09297773527536618
0.06740990651604885 -0.11232836593301608 0.09311331970271831
0.0672721600210055 -0.11143110638339866 0.09325185825450238
0.06712383478273957 -0.11049798298873001 0.09336761010895549
0.06695361112753082 -0.10954551234925625 0.09346298518492459
0.06676691867191129 -0.10859280674341996 0.09353759551178033
0.06656953406208779 -0.10764112276428463 0.09359778509463447
0.066334038305301 -0.10666461341336188 0.09365948139184149
0.0660507672232643 -0.1056888816678922 0.09372504950681587
0.0657490036249824 -0.10472732631859116 0.0937827697463838
0.0654093342951823 -0.10375886847236224 0.09384126027082726
0.06495437019967652 -0.10279324578726806 0.09390502546304713
0.06437697663804143 -0.10179513636889961 0.0939596998672325
0.06373217773937703 -0.10078144350106799 0.09401597429414889
0.06311125173226113 -0.09975089413743643 0.09407898222044143
0.06263516747606761 -0.09882418157877855 0.0941646600028792
0.06244995971252564 -0.09833973399446233 0.09440203874771132
0.08245416370837949 -0.171670932511966 0.09092252774611805
0.08231945357770867 -0.17201512490133217 0.09149998690625602
0.0826694127948082 -0.17106432318534356 0.09125323896492825
0.0825206383192561 -0.17154861346060735 0.09180623993689781
0.08276804442423126 -0.17081601777233693 0.09195064540787
0.08290494089376153 -0.17026326248362136 0.0912083438266508
0.08325998263562036 -0.16928098915861772 0.09165231211842603
0.08342828340527764 -0.16851741629845007 0.0916965614616361
0.08331436136968295 -0.1680345507040295 0.0913358574278645
0.0827228956446039 -0.1670777106748825 0.09079576349694903
0.08304460707805517 -0.16748455972479878 0.09103537613865059
0.0821867477976737 -0.16563250154457676 0.0913747767398616
0.08261105728836313 -0.1656065986137936 0.09188692942103761
0.08289205849460014 -0.16616490883666685 0.09181469563984393
0.08302488970988854 -0.16685932940122014 0.09151396501652145
0.08125475456133664 -0.16475591558405436 0.09129169400223627
0.08172146819673311 -0.16489789791621054 0.09160142535762102
0.08217139089845454 -0.16529089440681943 0.09168920172151394
0.08063137621779551 -0.16382272824531122 0.09143030477942712
0.08111770284814479 -0.16395490389828682 0.09181356070458561
0.08139804256382001 -0.164448453695431 0.0916734677769942
0.07993314553841661 -0.16256132461515704 0.09165957266490055
0.0804125155382715 -0.1628301375111941 0.09201404277502727
0.08073981067571027 -0.16343115946240216 0.0918689374484608
0.0801630484261605 -0.16225441132713042 0.09214811609229631
0.0797718491713349 -0.1618557525096727 0.09191829864768294
0.07953767418653875 -0.16105497527311696 0.09214041614391252
0.07917790808036872 -0.16057821975413836 0.09184838204726306
0.0789945101758494 -0.15973545262889993 0.09204833627567109
0.07885281627408271 -0.15912247980294705 0.0921819209666077
0.07856125356933988 -0.15863823563168233 0.09189444004983713
0.07831815300359633 -0.15792755743354683 0.09196542643780338
0.07820574384549628 -0.15730069854536394 0.09237075060075828
0.07786493097598621 -0.1568081631742038 0.09187285185637344
0.07768302331512249 -0.1560832374685127 0.09220480438489444
0.07752496389469826 -0.15543911753435757 0.09255380957827378
0.07726871806116999 -0.15500080231251642 0.09212821978073507
0.07674801756809982 -0.15372318812346308 0.09194540931421252
0.0770283553163869 -0.1543122822582281 0.09223690654514026
0.0768551575705057 -0.1535882949127085 0.09269692006828371
0.07656335236648598 -0.15311987043008146 0.09211938543570354
0.07598308703724051 -0.15173921915313615 0.0920898297337195
0.07628938691071599 -0.15232656074346054 0.09236863801793532
0.0760782394148135 -0.15160156831859042 0.0928325018588716
0.0757783794387167 -0.15113505134661098 0.09225266348125924
0.07524919312802851 -0.14971009372916497 0.09218603454409417
0.07553461092172382 -0.15032757462650892 0.09248151911039337
0.07536130309250158 -0.14956380769427413 0.09292341585065379
0.07503309225683592 -0.1490001152387869 0.09228433110666442
0.07485603568765642 -0.14809693437831373 0.09281203635692403
0.07463597342720008 -0.1473242913905523 0.09290767010448105
0.07436070566379947 -0.14665159335484682 0.0925591304010416
0.0741925172157781 -0.14600168348547277 0.09269864557284226
0.07378357405328341 -0.14466950679156443 0.09246083138955742
0.07403576720495976 -0.14533702900472345 0.09282617043830269
0.07389560023963974 -0.14445848407311596 0.09323173389979512
0.07361598033520884 -0.14386745500988274 0.09254179850056739
0.07351469570391848 -0.14300318834031767 0.09290628242882691
0.07345718270719986 -0.14232490877150777 0.09318980831041697
0.07309772557492507 -0.14073658400213152 0.09268935299510381
0.07333678987627959 -0.14140423603224042 0.09325373767159342
0.07321083283653478 -0.14046195119059615 0.093282763950375
0.07297207086361217 -0.13980467511269937 0.09271306410102996
0.0728556049495886 -0.13888245539957844 0.09279059497601065
0.07284161003206999 -0.13816231155424383 0.09312473660697594
0.07280704780970329 -0.13739838011486716 0.09343323077497646
0.07234959016635605 -0.1358933907258565 0.09298419582233534
0.0726482463619624 -0.1364658281620421 0.09349469073755447
0.07247321060986045 -0.1355540793858071 0.0935830728918988
0.07216274940647568 -0.13500053853491684 0.09308071149922313
0.0719698029965437 -0.13410675555058713 0.09317521621342112
0.07193582584737736 -0.13350232565589576 0.09350054323624642
0.0715035604118903 -0.13189291705656322 0.09295770175075284
0.07176391705702179 -0.1325702252011412 0.09354511875775398
0.0716067044998843 -0.13158009587681246 0.09353897286448751
0.07138594141065203 -0.13092646452461854 0.0928531936724409
0.07136426236395911 -0.12976205201454472 0.0932121145530911
0.0712714986127455 -0.12875463350546 0.09305654684296771
0.07126447695773735 -0.12799456501613263 0.09326803550428804
0.07123306507195273 -0.12704989231578862 0.0934275800444938
0.07117256430768655 -0.12609759160087838 0.09350464996167612
0.07109255959532008 -0.12521029119480342 0.0935933283164526
0.07100049694735698 -0.12435304676514945 0.0937814863628903
0.07091507048614301 -0.12363157305287541 0.09405528694710773
0.07044104524767313 -0.12199827373278808 0.09346860476977416
0.07070778423719834 -0.12269541056800518 0.09404623959347867
0.07047231102311675 -0.12180094159765682 0.09406971366618058
0.07017142998172361 -0.12113649523008117 0.09354846595752078
0.06993554717188798 -0.12038767544205375 0.09374716585361786
0.06934988094087315 -0.11903008474380708 0.09350869581378958
0.06968264571528411 -0.1196495941397122 0.09397028967292016
0.0693841458983614 -0.11883121458553095 0.0941135994312264
0.06905516464146844 -0.11821586790614451 0.09366011855530944
0.06876573650846846 -0.11738601364761245 0.09381317976017106
0.06864561966631624 -0.11683328062543646 0.09423732758993672
0.06806291191775957 -0.11518191646046895 0.09377550465350419
0.06835895386269356 -0.1158827463758094 0.0943807729049448
0.06809110264020583 -0.11491361845858716 0.09443580335212788
0.06781663335854779 -0.11414518789623233 0.0937677632752474
0.06758276052918617 -0.11307526543944399 0.09374458866971527
0.06745653856864528 -0.11230231507279782 0.09398091273869458
0.06730626607274348 -0.11139527384858933 0.09413400294793091
0.06713485318757549 -0.1104756416037338 0.09428937412855437
0.06694757559176324 -0.1095320792754775 0.09439828306699334
0.06674925292075341 -0.10859525983362478 0.09448622984212446
0.06653553410862832 -0.10765163795398429 0.09456415957538858
0.06627793268154723 -0.10667951148850997 0.09464225227020294
0.06597905796114484 -0.10571729351189753 0.09471722126609157
0.0656961077634219 -0.10476021348178012 0.09477558658371973
0.06536122074785071 -0.10379092590970826 0.09483557195322584
0.06490286306766577 -0.10282196062616247 0.09489686805888728
0.06430116775736354 -0.10183498205293873 0.09496353872980601
0.0636561057494194 -0.10084400045716505 0.09503197612355996
0.06307962528797367 -0.09982619445197888 0.09509884748141917
0.06266363181784426 -0.09895688969184248 0.09516166785407418
0.06251305172995263 -0.09855340994163711 0.09519211195053817
0.08233450894862993 -0.17193866888984582 0.0927310479838955
0.0826083778289429 -0.1713283025710169 0.09252396415147483
0.08283918268763127 -0.1706945653357881 0.0927869469095612
0.08306985259818693 -0.1700420494695661 0.09218729936447936
0.08335010629488605 -0.16939754335331852 0.09252845501333394
0.08355317763212877 -0.16806344864020129 0.09208545801136522
0.08353287335369732 -0.168662617026987 0.09250976816673322
0.08364950882172538 -0.16789995298501187 0.0928599593060142
0.08342873737574916 -0.16739971746859156 0.09207519091608068
0.08296950775986356 -0.16574658491187982 0.09221937718427935
0.0832327021781715 -0.1658516073477821 0.09263822212337214
0.08340284148567045 -0.1665392474827492 0.09257811906072594
0.08219339088999873 -0.16496532441849304 0.09201730542081618
0.08262479602950513 -0.16504360028746004 0.09244730611092257
0.08298786452884464 -0.16543697514890252 0.09257914455747945
0.08157967132606006 -0.16412023142715243 0.09212443455478571
0.08186122132158438 -0.16434468337963856 0.09221532520216338
0.082235652398119 -0.16465682291659184 0.09233702012454226
0.08085399524730005 -0.16302076569207147 0.09235699621284998
0.08124338953298896 -0.16324130363885017 0.09259444036327302
0.08188919211388336 -0.16372255196076463 0.09284516650410578
0.08017955697297313 -0.16193325670537034 0.09240581050654882
0.0805305226481785 -0.1620507341774144 0.09278447535866154
0.08104145575469753 -0.1625549693598629 0.09299307198224167
0.07957530672849694 -0.16050912825626915 0.09258708738931014
0.07996663475403937 -0.1608806575293205 0.09295283019041556
0.08023273824618321 -0.1615425321805093 0.09280601144601026
0.07975772818714041 -0.16019635839786994 0.09315007230180652
0.07942110975764251 -0.1598354747807965 0.09284482586763396
0.07886222463254094 -0.15864560050462054 0.09263558865189322
0.07912476785738615 -0.15913256593844152 0.09282767770193535
0.07906170794945627 -0.15845226143022006 0.09337320919044308
0.07861652498698178 -0.15787857557358054 0.09288335095376352
0.07834808743102775 -0.15711327770335873 0.09309556657328022
0.07803356378393661 -0.15653748855302305 0.09285413201061019
0.07778942904193487 -0.155860212567733 0.0929746122708669
0.07766250912997122 -0.15530685512330086 0.09338255832448251
0.07735851889703815 -0.1547976940422762 0.09290871883597991
0.07716113008530776 -0.15409127399316708 0.0932471354262909
0.07696294108049695 -0.15338093650334578 0.09358954011558081
0.07664710089181921 -0.15287188001258353 0.09303497234220012
0.07641093126087578 -0.152115155919744 0.09339021612627371
0.07618895506597173 -0.15137653436046042 0.09373079742438323
0.07587015430482515 -0.15087029346610167 0.09316010113642495
0.07566988869276464 -0.15009139169925265 0.0934940469777672
0.07548120134444379 -0.14932779967407767 0.09381619805293503
0.07518241263194339 -0.14880389692196447 0.09328872981690485
0.0750602874560107 -0.1481657684991773 0.09366605171647256
0.07457173231267322 -0.1468263573024711 0.09334032447924566
0.07484615492903789 -0.1474373833977207 0.09369937939245744
0.07468067225240922 -0.1465805108791151 0.09410748951092926
0.07436170497807826 -0.146033487381333 0.0934296304552014
0.07420001591320202 -0.14501121924058286 0.09393689381725476
0.07401153577212853 -0.14420479030805888 0.09399642617902819
0.07377796515287295 -0.14355873209013273 0.09358536335428311
0.07362961873396967 -0.14278174079321654 0.09359681709761863
0.0735823986143102 -0.1421318479389791 0.09384962363388921
0.07355769082056601 -0.14145527863214452 0.09411361810788821
0.07320705097618276 -0.1398478617807526 0.09357530338907709
0.07345039736251158 -0.14049626858635292 0.09415669611217971
0.07332257240143313 -0.13950611589887785 0.09415077239057755
0.07308162817099051 -0.13896800765990627 0.09354857917610652
0.07306349544127463 -0.13789231795985074 0.09401277357759352
0.07292748413609973 -0.13704781007950134 0.09400683682583322
0.07292497695930558 -0.13641895657857603 0.09436206325346534
0.07243854697586116 -0.13494454970909306 0.09391469251108717
0.07274871363492191 -0.1354825789732299 0.09442741464526809
0.07255497245907717 -0.13461653243179922 0.09447183394460336
0.07224279493144649 -0.13408495672910484 0.09397950650265817
0.07205504911727041 -0.13320737123438978 0.09406130682251197
0.07203479811644066 -0.13258173772069698 0.09441007439584154
0.07157852038483914 -0.13075291710219555 0.09382651024391352
0.07185000587909054 -0.13165499359231414 0.09436815890279386
0.07154862440890199 -0.1299500668719838 0.09408054857836029
0.07177756521690137 -0.1305301704187051 0.09473454587992554
0.07163425547257055 -0.129613271463398 0.09460926138238736
0.07143432289655266 -0.12899085420643291 0.09390107106363237
0.07140552015965933 -0.12793264057883144 0.09414686321128105
0.07136183170073764 -0.12684872487131957 0.09437847106591718
0.07124553438220424 -0.12586969402247258 0.09419388441821133
0.07119325918317554 -0.1251143145374405 0.09444006629900727
0.07109649300181092 -0.12424410385151467 0.09461172996694481
0.07097037329352644 -0.12344418928740195 0.09473499674172825
0.07085733001099113 -0.12278971811076478 0.09496113329796858
0.07035813386313193 -0.12127530221769767 0.09443506732428306
0.0706317195268967 -0.12195911067022544 0.09490186415861566
0.07039030081505795 -0.12103938936032471 0.09522298321767089
0.0700842545401292 -0.12047466723172813 0.09447840626295666
0.06986242195580727 -0.11971358758627007 0.09490091466882873
0.06925101025398299 -0.1183058910433662 0.09452827048118483
0.06956042017371217 -0.11892359029960847 0.09492525403507562
0.06927875059286491 -0.1180239923292147 0.09533788267117113
0.06895728171116644 -0.11750409528112997 0.094620135765193
0.06870181871451367 -0.11659676675563169 0.09501806998928447
0.0685187634449128 -0.11589281984504803 0.09533491993700663
0.06797130036424422 -0.11427584461264921 0.09477207413435773
0.06825315610700115 -0.11496676329920529 0.09539994523584348
0.06798218418122874 -0.11400352113106835 0.09541902211958911
0.06771687515841325 -0.11324205433905017 0.09474755466238131
0.0674868666364426 -0.11216772732980929 0.09473522819395216
0.06734174987579163 -0.11137040588592276 0.09503798711962909
0.06713532899496219 -0.11041467839758878 0.09519776780335452
0.06694250425573148 -0.10948358114769934 0.09529407072123651
0.06672624634834978 -0.10856315168971366 0.09542076235987071
0.06647646506519847 -0.10762288642451372 0.09551658007423341
0.06619043077854385 -0.106680221707264 0.09560629225164227
0.06590164595095784 -0.10573988591449425 0.09568623432595037
0.06562395379870065 -0.10478601848584175 0.09574597034438688
0.06528376985011532 -0.10381647223924163 0.09580373476780994
0.06483105279017941 -0.10284718423877667 0.09586379083973583
0.06422573301592394 -0.10186148445366217 0.09593961030372619
0.06360789126707413 -0.10086740644386061 0.09601426914627925
0.06306465356813487 -0.09991559891260962 0.09606328266177881
0.06275837703252647 -0.09921149694018731 0.09592162204655873
0.08208560264385802 -0.17235203865609497 0.09359926054159631
0.08202289935779879 -0.1724700734941664 0.09406079141292678
0.08209231084525118 -0.17232002215740377 0.09398164134623768
0.08222666397571964 -0.17208409128435076 0.09356270494681332
0.08251795646432603 -0.17144386182281976 0.09337912950240719
0.08282646072320227 -0.17062298481986443 0.09367341274902423
0.08317550754823144 -0.16994822120180142 0.09306011746396312
0.08343467283373016 -0.16921996678728074 0.09329288700106139
0.08362528019784884 -0.1684942851204138 0.0935293566712957
0.08371613918833547 -0.16776484218173918 0.09384103634072809
0.08366314157037757 -0.1671694878567445 0.09318717065515283
0.08368288380920666 -0.16648405269255664 0.09364113942193607
0.08351165821282237 -0.16599831219156522 0.09326149049697598
0.08300080735555061 -0.16514787339212575 0.09291371213073922
0.08333705553270089 -0.16536207382813814 0.09341832324647988
0.08228835755051188 -0.16422498007271624 0.09278992926482714
0.08266258948945196 -0.1645047529968616 0.09300253653434896
0.08300924590883324 -0.16484472665745942 0.09324017935365325
0.08238416640443967 -0.16322628438770528 0.09399144534021765
0.08180607839071888 -0.16275960233240608 0.09372508480381886
0.0826497552377436 -0.1639275876542843 0.09361977405386039
0.0814320978482237 -0.16215770247138217 0.09386106913232747
0.08102888295232434 -0.16181910865869686 0.09366846144930188
0.08032075895112582 -0.16112744120450734 0.09329531813256356
0.08061734386257437 -0.16138618594538634 0.09350847269707853
0.07973007909141797 -0.15971334234799325 0.09354177247457593
0.08004731599815709 -0.1600551334933927 0.09382057740052534
0.08047249658484457 -0.1606963805106332 0.09393455282603273
0.07986347893199551 -0.15948647787647474 0.09401877802842204
0.07953593900806769 -0.15901485305979735 0.09386287530399232
0.07923566333157984 -0.15825709730119777 0.09409910414691303
0.07892348379446716 -0.15777262017458818 0.09392032208746304
0.07828096728688745 -0.15665415621467035 0.09358564204310717
0.07858060242045589 -0.15717038339660505 0.09377510672746557
0.07843537165119968 -0.1565136029057631 0.09432768483836917
0.07803078773086893 -0.15590721720360934 0.09386046092230829
0.07776955507159035 -0.15518014422085816 0.09409794770838249
0.07748580242122032 -0.15460368822259923 0.09388047860958779
0.0772487558109535 -0.15381635032526136 0.09415239938416432
0.0770521394747041 -0.15320790856617275 0.09433889789158564
0.07676033795394793 -0.1526335802095602 0.09406434944974898
0.07648928643899522 -0.15180520873736916 0.09432586959627133
0.0762839313260124 -0.1511781550339022 0.09449646330357402
0.07600358563324498 -0.150598953790531 0.09419741068174016
0.07576402235372348 -0.14973815774198215 0.09441680585198069
0.07557737488855215 -0.1490945285494358 0.09454089353941833
0.07532327309096791 -0.1485469843536285 0.09424389214562186
0.07511460931829567 -0.14783465934806947 0.09430278782283591
0.07499841671185938 -0.14707843510976726 0.0947519152898619
0.07479420568050243 -0.14630825727887076 0.09486816783190366
0.07453013195217105 -0.1456796805862792 0.09453623462322958
0.07438040504821916 -0.14498743474965153 0.0946839406078618
0.07398241676264827 -0.14366550458579483 0.09435174973823147
0.07424336582129072 -0.14424650994998334 0.09482541927544377
0.07407920252449973 -0.14341671869971154 0.09490018404901276
0.07384029445726262 -0.14281526062246439 0.09440398012180275
0.07372021528553369 -0.14195021667285695 0.09447731833538378
0.07371125139065438 -0.14125648204626493 0.09477218833537199
0.07370420392466108 -0.140478083596195 0.09507455547487749
0.07331298818494819 -0.1387011889731368 0.09446790162231217
0.07356555557654618 -0.1395311537663748 0.09497669496595414
0.07329735369781948 -0.13792528445101823 0.09476729446560825
0.0735350256382745 -0.1384145548001682 0.09533316897951184
0.07340931035628231 -0.13756880788343734 0.0952857969597015
0.07316585365411346 -0.13709446711080595 0.09473868258552125
0.07311217196415906 -0.13604846826613065 0.09515095672751886
0.07297202014779051 -0.13531521241200806 0.09518027684606215
0.0725122719614165 -0.13403455265006994 0.09476527624088162
0.07281689094469403 -0.13455166631068105 0.09525847206664219
0.07261867042819874 -0.13368278785856144 0.09531000700806472
0.07231769066044935 -0.13324359967949767 0.09478241095185978
0.07221579688752093 -0.13217347673350985 0.09519892635175042
0.07202323674014435 -0.13127767009669364 0.09517123862532621
0.0720148871586011 -0.13062155845700474 0.09552924378407676
0.07160189907253035 -0.12880056278091626 0.09481008250884378
0.07184375062179177 -0.12968858676352585 0.09541792749999327
0.07155780821137424 -0.12783087944624114 0.09503625706616128
0.07176496225560697 -0.12863865096277807 0.09564793764968064
0.07151790699521075 -0.1270358957661303 0.0952441280375775
0.07170471020687133 -0.12763913438278723 0.0959288105444605
0.07157380192921654 -0.12671982170685792 0.09578152392514395
0.07139001239162121 -0.1260731658574994 0.09506775492545581
0.07130169510050224 -0.12494458318561548 0.09541969117377631
0.07114658273265137 -0.12401278975197065 0.09529005132628891
0.07104605882956859 -0.1233354866940781 0.09550475389546273
0.07088664253823797 -0.12253850689556395 0.09567605411227081
0.07067298990254957 -0.12161590230343026 0.09600142516609234
0.0704134089178216 -0.12078840909439313 0.0959999428041118
0.07012828371933613 -0.12015298407196214 0.09557496243697994
0.06983253324043977 -0.11936215051001249 0.09558279825246688
0.0695955448154033 -0.11855737168860739 0.09607412160854738
0.06929716714534585 -0.11771823655483873 0.09616046424768054
0.06899971331769929 -0.11708750692888728 0.09573676803778564
0.06872762388165399 -0.11630603780264277 0.0957714833697646
0.0685598866008646 -0.11563920360651775 0.09605571056812587
0.06839208560636313 -0.1149588372790578 0.09633708253125904
0.06786007272594813 -0.1133732994617844 0.09572375058603942
0.06812461469310577 -0.11404941340872579 0.09636691888248236
0.06785344695429402 -0.11306369884937534 0.09635378452366966
0.0676136436988892 -0.11240594643037405 0.09564718300756656
0.06736071413066845 -0.11124653636878323 0.09608449171094748
0.06711692084479243 -0.11023498947954982 0.09595324631229545
0.06693421456347814 -0.10944447336497083 0.09620887277880714
0.06667219275288863 -0.10849624663233032 0.09633836863057124
0.06640484929593712 -0.10759055232536585 0.09641809756734744
0.06613070155792566 -0.10668864756371473 0.09653602533208926
0.06584168787802788 -0.10574668987518482 0.09662859647303138
0.06554845343387734 -0.10478801045256773 0.09669199369245562
0.06518011430567393 -0.10381871980585355 0.09674863176381888
0.06471308343612978 -0.10283878173120144 0.09681227442475804
0.06412368075290015 -0.10185683202581357 0.09689243374718452
0.06358230455719285 -0.10089762159051258 0.09696064774716885
0.0631751021729496 -0.10015892266266484 0.09698900218932796
0.08211008328751696 -0.17224683546769673 0.0944630599631208
0.08228602295712546 -0.17191567751703202 0.09410128843894434
0.08251526662680596 -0.17127234038449768 0.09430230012017184
0.08276008151462463 -0.17056611719358247 0.09459977626300158
0.08315498236785847 -0.1698790582414254 0.09395338690850179
0.08343941997334518 -0.1691517247228001 0.09422387987778545
0.08363324631999346 -0.16840709733572862 0.09450913603219369
0.08372770381523893 -0.16768430463975442 0.09482784618216618
0.08377140697671175 -0.16706955949391347 0.09420394317359508
0.08382914322377753 -0.16642040668906555 0.09459947277891666
0.08369120877457875 -0.16586216318787786 0.09408694115953523
0.0836688152181361 -0.16521663890743976 0.09460356218046853
0.08298964215498038 -0.16440348605473856 0.09365795992065133
0.08332768342457514 -0.16472401254578845 0.09406726577718842
0.08228715508115295 -0.1628015406672187 0.09428894206919695
0.08262654413526174 -0.1628240221793274 0.09482098578660386
0.08291572671021274 -0.16340719072677645 0.09470018685850626
0.0831648539519357 -0.16410179080769435 0.09443437134881513
0.08139680141366787 -0.1616935847364206 0.09430663206460665
0.08184008899126059 -0.16196831668935643 0.09467174861231625
0.08224097749409497 -0.1624508068903863 0.09464950653268207
0.08153973969712626 -0.1614568329441769 0.0948019477862111
0.08111417240375007 -0.16108103818971062 0.09458303187597976
0.08076308378307737 -0.16038950647887126 0.09477853375968438
0.08041628828535234 -0.15995851188621707 0.09463658089549899
0.07986805118948746 -0.15919626868811987 0.09433806228874521
0.08009646005287556 -0.15946173284729584 0.09453712511719434
0.0791682419616857 -0.15778868573192198 0.09457398065971247
0.07949491369839572 -0.15824674028933802 0.0947582607119039
0.07990683015065507 -0.15882553821349238 0.09492908476205922
0.07931924161161746 -0.15757190882377295 0.09528926007748768
0.07886719970501357 -0.15706679275555235 0.09480638023871694
0.07857142178866619 -0.15635463337502653 0.09505029130985627
0.07828497161838775 -0.15586117979295214 0.0948880191021207
0.07770961188536617 -0.15477430872630282 0.09457359758581058
0.07796935307063661 -0.15525703908575586 0.09475821063926071
0.07783213448167661 -0.1546021268908953 0.09529834207946933
0.07753294513019991 -0.154173977805264 0.09479744479431065
0.07698547420666169 -0.15279325651327397 0.09480218169038786
0.07727398929068077 -0.1533435992554012 0.09507005554209583
0.07707213304423159 -0.15256364377203668 0.0955220924064282
0.07677723120028959 -0.1521559647562183 0.09499352204399973
0.07623538312284714 -0.15075781615184616 0.09493289698329475
0.07652071026436798 -0.1512754528646584 0.09530499181197583
0.07632117482793986 -0.15057768922695586 0.0955072284188825
0.0760621758563324 -0.15006389520242097 0.09518433719182812
0.07552477930842084 -0.14861713976961044 0.0949547311288641
0.07578389210384186 -0.14912051178295654 0.09529659573189618
0.0756075890045176 -0.14837988371221203 0.09555145748721161
0.07533640196807112 -0.14782351329332427 0.09517049423557601
0.07518628198885563 -0.14708141874777453 0.09544627985218707
0.0747544873137826 -0.1457717192056138 0.09527141984957173
0.075032620455936 -0.14632946150560106 0.09567907664887547
0.07485635069672976 -0.14551180874221908 0.0958453122168121
0.07458134611166599 -0.1449442753028619 0.09541163029439047
0.07444349483461805 -0.14418888716435488 0.09556693343923865
0.07405904409522607 -0.14286193631521021 0.09518743199123234
0.07431433538143918 -0.1434153534532743 0.09568583220297114
0.07416735393015221 -0.14254604218397116 0.09572059344229761
0.07393359779670594 -0.14205147380695154 0.0951748166537851
0.07391638779987514 -0.1410779408239712 0.09555383724228303
0.07388531481395649 -0.14002823984425958 0.09585644897381383
0.07374870647272763 -0.1391104003066632 0.09575944007072262
0.07376053361217069 -0.13847953559545784 0.09605210953626864
0.07338672540459282 -0.13681917292085732 0.09558381756928101
0.07363789879621756 -0.13762121429816798 0.09602249693564444
0.07335412763286381 -0.1360628107661847 0.0958938587097538
0.07359900554745655 -0.13655318010498324 0.09645640798887813
0.0734473997163162 -0.13572921819431796 0.09641735739512675
0.07317963386733319 -0.13520016233537213 0.09589324989110336
0.07303360449531861 -0.13443924056571924 0.09596385709876305
0.07254761856103761 -0.13291868782795926 0.09565207219289701
0.07287909121646781 -0.1336768344267359 0.0960704578724984
0.07247337762472421 -0.13215310943766023 0.09597245502979183
0.07275930606743483 -0.1325655519790229 0.09654417771442339
0.07255440135204104 -0.13176054066549056 0.09650538019200156
0.07227565761272027 -0.13132242721113976 0.09593851587581026
0.07216612059469629 -0.13020494332527072 0.0963081099647052
0.07197648483705592 -0.12926987523335362 0.09619178718112859
0.07192210969411234 -0.12848903440681975 0.09644754597633742
0.07186658420172476 -0.12777980909243303 0.09668710337224674
0.07151794096638796 -0.12592012219421236 0.09603206885093218
0.07172899530114464 -0.1268743111795986 0.09661032181417221
0.07145043802449616 -0.12511515139820475 0.09631134094287301
0.07163714292891855 -0.12575517405713368 0.09699689022352875
0.07148605336101221 -0.12482572861365702 0.09689066025317382
0.07127748877398629 -0.1241143445294368 0.09621738815933212
0.0710874966788392 -0.12314113665722166 0.0961941075727691
0.07096075014891938 -0.12241886084070949 0.09655569773248812
0.07080782452628077 -0.12169970803240635 0.09688688949840582
0.07027942606890669 -0.12025409478239427 0.09640961856531127
0.07054967122671962 -0.12089104860816885 0.0968377475293952
0.07027430520536769 -0.11999481648080901 0.09720034930274517
0.06998516715895596 -0.11944178276664356 0.09648104747920767
0.0697438000019452 -0.11864607044901443 0.09697042179675158
0.06915078749303734 -0.11714310692390727 0.09657702336876617
0.06943174123834749 -0.11774832392443096 0.09709269071444783
0.06913916859943678 -0.11686910566010592 0.09721670664324818
0.06886093852457571 -0.11626710527430152 0.09667712894793262
0.06859159604001956 -0.11539352688609787 0.09676283444738598
0.06841618480729804 -0.11471690043760663 0.09703781273260845
0.06824095306190614 -0.11403618095067444 0.09728936844980103
0.06766140193338269 -0.11225191807171539 0.09669634688086269
0.06797618389275514 -0.11316712216538181 0.09725424281547307
0.06747589649603287 -0.11144959591444567 0.09701696629774603
0.06770537762671212 -0.11205871271369021 0.09772034153805015
0.06743586895507124 -0.11112125026267969 0.09762496361522567
0.06720505663857755 -0.11046471094730026 0.09688513947781584
0.06689387078856944 -0.10932984269371718 0.09724730059950039
0.06660030694311973 -0.10834405287679766 0.09707948117751818
0.06638447773312676 -0.10761128829422881 0.09729390701002935
0.0661001713081291 -0.10668337806786922 0.09744381117232863
0.06576975814664782 -0.10572371807551757 0.09755040415944578
0.065439921475759 -0.10475787185513386 0.0976180299047024
0.0650486378836385 -0.10377627156585836 0.09767736580587137
0.06458938418330604 -0.10278711506353463 0.09774261785715298
0.06404193807103581 -0.10181751730899853 0.09781558315145429
0.06357752953233028 -0.1009491937840504 0.09785411844882556
0.06334995505406078 -0.10052848354216622 0.09786564317024415
0.08212505137898529 -0.1720926385803763 0.09505455386469676
0.0822562277805578 -0.17182778385390296 0.09482890022357231
0.0824536041707449 -0.17123864322125779 0.0951888665235114
0.08268232069072086 -0.17057205674267178 0.09554913442636116
0.08306686609974287 -0.16985924151364232 0.0949035972565084
0.08336442973318124 -0.1691282158259702 0.09519680359947391
0.08358602957210554 -0.16837725068060033 0.09549339348525328
0.08371514221338401 -0.16762902865795412 0.09578597416793103
0.08381770368070178 -0.1670051172323626 0.09518074919327181
0.08389931228330061 -0.16638728730709168 0.09546184446533702
0.0838769205595953 -0.16580982321987633 0.09505048995349138
0.08387830010960518 -0.1653447098682308 0.09526280044439714
0.08381629992165139 -0.16501239234344803 0.09529428643045934
0.08394409062159112 -0.1652143851587698 0.09569001157885025
0.08388006130875197 -0.16485014478953328 0.09583135192411912
0.0836034122597311 -0.16454478066287392 0.09511075900459641
0.08291852333461752 -0.16300076977978636 0.09514908151596427
0.0831004277911995 -0.1631580543270395 0.09545248302014163
0.08338209787445401 -0.16374086448753375 0.09553032021441997
0.08222099029089396 -0.16211396803919137 0.09507984726907776
0.08251149280889167 -0.16230944182890072 0.09536138682619852
0.08290478854674403 -0.16269039692966253 0.09567180506912051
0.08150461694943427 -0.16118033999790143 0.09511280200867901
0.08179415009788155 -0.16138239491414366 0.09538688971208927
0.08222938744143504 -0.16178396875637976 0.09566224858508102
0.08071262972380407 -0.15991567911789734 0.09527293672411606
0.08105808607446921 -0.16031736743740924 0.09547767739761233
0.08150901816838182 -0.16081184095292808 0.09571703406083494
0.08087666306095485 -0.159663927960346 0.09600488950998773
0.08039633632172158 -0.1592517861970971 0.09549172456325729
0.08009754049456953 -0.15858452451685096 0.09573725888072948
0.07977566665155296 -0.15801024233658353 0.09578711770274535
0.07945448189151881 -0.15734794862057713 0.09600247695249305
0.07913296330327393 -0.15691368219587026 0.0958294008885017
0.07849223283593912 -0.15589808309162026 0.09553844072405189
0.07878490170606166 -0.1563630078585266 0.09570066071609974
0.07861982100043921 -0.15568813293026754 0.09626370475768246
0.07820422640704831 -0.15514112714643996 0.09579825840172258
0.07793089023819767 -0.1543640285984464 0.0960413026275772
0.07763678263394312 -0.1538019185856171 0.09579861106340716
0.07735836751629817 -0.15293109512877132 0.09606432891170126
0.07715317931645348 -0.15228922858852095 0.09623435306403381
0.07687797235205487 -0.1517831511012692 0.09594662180351995
0.07669146997325565 -0.15119991338486732 0.09607393841827265
0.07626836723589012 -0.15010101523702665 0.09591566077928954
0.07652546434686554 -0.1506028862987384 0.09620535706785399
0.07636925413909637 -0.14977756762291272 0.09661311873332491
0.076089881278764 -0.14941044582768062 0.09606789653204297
0.07556486639713403 -0.1478551530118352 0.09596866998068633
0.07585834763178584 -0.1483896829540164 0.09638278024722663
0.07565854650440736 -0.14757102034076258 0.09657619278276458
0.075381515454362 -0.14702340158560215 0.09617633914863019
0.07523485368099005 -0.14625891141050376 0.09641863938340194
0.07481861596174938 -0.14494737750362702 0.09620211571295811
0.07509511567304274 -0.14548444248662515 0.09663752990467489
0.0749177451962084 -0.1446347330679423 0.09677653379663034
0.07464603337477481 -0.144091396275576 0.0963014143910425
0.07451787396479381 -0.14331832964737426 0.09641444311985757
0.07414960563656006 -0.141780110525478 0.09603040847849725
0.07439824607429094 -0.142573462794384 0.09645295273706839
0.07412950458240573 -0.14084058739282934 0.09636580188684973
0.0743565475411825 -0.14155305717659636 0.09683532641833911
0.07411794608974956 -0.14004285841147687 0.09664527699980818
0.07433705408126831 -0.14054258207186376 0.09723149381940728
0.07421775960809175 -0.13969201457066602 0.09716481749294009
0.07399040636138506 -0.13910127343354703 0.09659808221594451
0.07386977784994903 -0.1381591908802202 0.09657943854789486
0.0738443814789149 -0.13737727497186827 0.09690019079470746
0.07380814019876808 -0.1366016562467833 0.09722152319193773
0.07340345101018891 -0.13515659447832004 0.09666494793195515
0.07364838078027396 -0.13570024325426594 0.09721384957598377
0.07347544061355396 -0.13481378756055906 0.09720634278325786
0.07322116414482982 -0.13435971872993108 0.09663816418768367
0.07310016140471311 -0.13323791191844556 0.09713433422235508
0.07294488852248288 -0.13246656413197105 0.09722852279512334
0.07246842446637013 -0.1309958382919409 0.0968043587044061
0.07277365327961002 -0.13174220400235342 0.09725844068654156
0.0723842853541714 -0.13020478995585316 0.09711528585524083
0.07263676551166165 -0.1306837237880735 0.09769070458913191
0.07244368910174381 -0.12985169273362232 0.09766855325787009
0.07218804691481547 -0.12924140160828596 0.09709441097286661
0.07202448556115061 -0.12828248690241784 0.09710253745682045
0.07194827743684531 -0.12754764773607763 0.09731128058861571
0.07184966184344559 -0.1266699426136537 0.0975070475438665
0.07177955503402876 -0.1259254496743489 0.09782169463199222
0.07141664474415765 -0.124215708927542 0.09713596636675227
0.07161246476577005 -0.12491860885060983 0.09779560636554223
0.07143133661672066 -0.12391835944181535 0.09773476209356666
0.07122450003136345 -0.12330742793085475 0.09706047766230526
0.0710278411384777 -0.12222666962582597 0.0975657280160548
0.07077610757005333 -0.1213429702922349 0.0975320485441003
0.07054628739849084 -0.12052577631587061 0.0979321695745915
0.07025930477080994 -0.11972601933589108 0.09799015698319138
0.06998406429263618 -0.11910537281324428 0.09759595370508714
0.0697056693248873 -0.11833372675660336 0.09763438224949614
0.06954181088439752 -0.1177715291984315 0.09800464656302975
0.06898898618572448 -0.11627723749101569 0.09759128455727652
0.06924744906093638 -0.11688972404860166 0.0981224447187483
0.06896286744872009 -0.11598611660088701 0.09823082164471231
0.06870370417964233 -0.11536834767591209 0.09766869033758255
0.06842884367376854 -0.11447021687486314 0.09773427593074374
0.0682397767113882 -0.11375374694747296 0.0979930187024189
0.06799979266494525 -0.11290229523851567 0.09824524442323776
0.06782072010714173 -0.11216878375400065 0.09858926753661114
0.0672139060401946 -0.1103234618010887 0.09790758749938384
0.06753875500210318 -0.11124419183464487 0.09851881810498793
0.0669867355025162 -0.10954569754317255 0.09816588482612779
0.06722534884013379 -0.11014940580176476 0.09889096654949656
0.06692307211693786 -0.10923351576251956 0.09872294129719186
0.06668760242652386 -0.10860320884934953 0.09796880849079377
0.06637978431370212 -0.10760246507997544 0.09819304225387275
0.06603768547095877 -0.10662973622748774 0.09834887181022384
0.06566000144375299 -0.10565599208609829 0.09846154927472331
0.06529069026024796 -0.10467664296946473 0.09853575616882775
0.06487801252997341 -0.10368796028615328 0.09859884695663425
0.06443325551950789 -0.10270375104402812 0.09865454151175641
0.0639745944283935 -0.10179850407196021 0.09866474101118276
0.06365654837690718 -0.10113350723024578 0.0985230145743249
0.08222588468970757 -0.17172366880153672 0.09558043486663616
0.0824160528785463 -0.17122036761212778 0.09608737515506387
0.08264154714075092 -0.17056976974464863 0.09650039120604212
0.08294721084515323 -0.16986530532881905 0.09588887392053054
0.08325348511049539 -0.1691188004007864 0.09616671116713499
0.0835209990364402 -0.16833038452885463 0.09650263741454818
0.08368766966744369 -0.16759681663386647 0.09652522782308258
0.08383064134280271 -0.1669120531353449 0.09623852129222
0.08394137581668087 -0.16625732594813797 0.09604097658255481
0.08396722950241237 -0.16597508295964236 0.0956706156876029
0.08397729492545673 -0.16558224043323763 0.09569252947159067
0.08399577328825618 -0.1653638094510642 0.09637351462748626
0.08393427139307447 -0.16474671379130307 0.09646542742674905
0.08376183631668502 -0.1643136927450973 0.09607716580847839
0.08366074835861166 -0.16374885755961863 0.09675167103155705
0.08327108446912847 -0.16305714578295513 0.09628265924077864
0.08302507435797808 -0.16253066103962652 0.09638946214732462
0.08270107561316001 -0.16209712403374277 0.09632603850844629
0.08238169042908695 -0.1615780490638785 0.09645281646656696
0.08202735907209383 -0.16112858172546995 0.09640570154349375
0.08167929366954085 -0.16056492541300435 0.09656408029265956
0.08131481545630183 -0.16004952584400767 0.09655639832946586
0.08099319892717144 -0.15942132889770838 0.09673115535168403
0.08067606771519756 -0.15902926663251746 0.09652177729038676
0.08007568824494575 -0.15826158186101813 0.0961621168320201
0.0803122775658703 -0.15855451980097462 0.09634456924045431
0.07936551172922233 -0.15689276589849235 0.09647333303091837
0.07968749970002222 -0.15731623111156132 0.09664570820765125
0.0800870173672407 -0.15788067011309634 0.09679925733682226
0.07949544425209269 -0.1566510956518286 0.09718929435028643
0.07905584359638403 -0.15617880045305543 0.09673300403178582
0.07874161917014956 -0.1554579172726577 0.09699031887279358
0.07845156912402243 -0.15500451798346526 0.09682415868824111
0.07785144214515657 -0.15388221456562007 0.09649977748824833
0.07812029213775665 -0.1543093994648028 0.09679302484342853
0.07790769530319665 -0.15365993252836505 0.09704843771615913
0.07765021013251168 -0.1531990900502491 0.09679391350947432
0.07709012746166798 -0.15181341708510326 0.09665371330923074
0.07735930285899699 -0.15228923787868104 0.09696201336409697
0.07718271983678411 -0.15158382020932776 0.09723707203171816
0.07688467102525018 -0.15108109078310386 0.09685547982323828
0.07665259405769675 -0.1501177202405683 0.09715793638600313
0.07647093646739417 -0.14942898139008318 0.09731284858677035
0.07621255957395442 -0.1489086125501649 0.09702496874731642
0.07605230420504966 -0.14824021012729383 0.09718153767517286
0.07560741109905451 -0.14699977620595273 0.09697310217567634
0.07589108455553865 -0.14750232496749824 0.09739594833170086
0.0757002825233226 -0.14667747759203872 0.09757664059471295
0.07543163198799553 -0.1461540003380741 0.09715993696348091
0.0752903885629637 -0.145372930254907 0.09738009668324907
0.07488261184621785 -0.1440396394265621 0.09710914566695296
0.07514722271584205 -0.14457703007300307 0.09757203817823533
0.07497978592458891 -0.14370715805092377 0.09767467074458093
0.07471474087554433 -0.1431616613322032 0.09715946783661673
0.07455950055150706 -0.14218431660601305 0.09722787266677685
0.0745536566264482 -0.14137398089133119 0.0976438030849455
0.0745355040762942 -0.14059326886439216 0.09798476496765282
0.07420436630837937 -0.13909079304240904 0.09739877200462085
0.0744097121944114 -0.13967515486991622 0.09796717672411007
0.07428387803732894 -0.1387553860178828 0.09793767205821374
0.07407213516660655 -0.13822665272246762 0.0973476567908668
0.07401719554842649 -0.1371239641613439 0.09781094355795693
0.07387832615289422 -0.13626754909460276 0.0977735075197273
0.073829634491603 -0.13567071658788532 0.098037486722876
0.07339701042129733 -0.1340392802029359 0.0975629759019901
0.07366036214985522 -0.13483555360957325 0.09800082137626058
0.07331201666811546 -0.13325334729889293 0.09793348888831184
0.07354079750716608 -0.1337635620624997 0.09850328982499292
0.0733619248965671 -0.13291043344275927 0.09852414626223055
0.07310468061892154 -0.13233125929942757 0.09798575534044997
0.07289206886093766 -0.13137677395978398 0.0980570028378646
0.07282348216614566 -0.13074977852491662 0.09843469927426293
0.07237475565672177 -0.12924349971989632 0.09794278001986342
0.07261640225237578 -0.12984588835478292 0.09849362382062617
0.07241931361301485 -0.12894043164423608 0.09850785476739425
0.07218612723782183 -0.12830264696711577 0.09794104065844603
0.07202379526188266 -0.1273119233078639 0.09797394987414353
0.0719493062064141 -0.12656740748182146 0.09830211198030206
0.0718298824115216 -0.1256949644444305 0.09849232957649066
0.07172856045128179 -0.12495793856639886 0.09868508563527556
0.07130358189654 -0.12312073008205132 0.09807360436364808
0.07154837282426905 -0.12403878865061996 0.09861948520304721
0.07116011906447983 -0.12232542556939215 0.09843995731988292
0.07136413458485318 -0.12290318190827262 0.09907826222702776
0.07114035694222126 -0.12201571545868044 0.09905315645298363
0.07088446388930399 -0.12136846887893205 0.09849516959636528
0.07063888955872273 -0.12055252395415003 0.0986808457810001
0.07009738772614281 -0.11918931993810879 0.09839304536590926
0.07038293638153349 -0.11977022766735479 0.09886558526467885
0.07007876638438695 -0.1189314114942115 0.09900886687230422
0.0698027790053153 -0.11834866794166182 0.09852644915950852
0.06950880532783768 -0.11749371610579351 0.09864812851629229
0.06935267214232596 -0.11690875605201705 0.09902812369298647
0.06880687639808454 -0.11538068187465726 0.0985915794053974
0.06906130273667549 -0.11600221544655477 0.09913769143061302
0.06877090291791743 -0.11508701074462079 0.09922088118587463
0.0685259531403701 -0.11445252487325652 0.09864051157152165
0.06823272831056014 -0.1134874107885632 0.09872171907320006
0.0680394730642956 -0.11274885008289873 0.09909327166218804
