# .PCD v.7 - Point Cloud Data file format
VERSION .7
FIELDS x y z
SIZE 4 4 4
TYPE f f f
COUNT 1 1 1
WIDTH 792
HEIGHT 1
VIEWPOINT 0 0 0 1 0 0 0
POINTS 792
DATA ascii
0.07114199156848139 -0.12489366626857858 0.08316358061276609
0.07073449550560833 -0.1240360256638548 0.08243413887286602
0.07050090240352402 -0.12328672401166799 0.08272077115099516
0.07025504986534502 -0.12248233447722094 0.08310377312257788
0.06994080496339489 -0.12163660536352154 0.08305335088617326
0.06957284399987938 -0.12077905010063116 0.08252144428482261
0.06930808498976009 -0.11987404414392908 0.08238063741076969
0.0692190727333458 -0.11920965230109114 0.08263056816759237
0.06909544113565644 -0.11833406509524931 0.08280266468147095
0.06896022576177158 -0.11740102133738212 0.08291882551664011
0.06884148103777979 -0.11644344089242774 0.08299207522269517
0.06871449585431555 -0.11547010982422509 0.08303604226453899
0.06858863094449837 -0.11450541135689528 0.0830746600679699
0.06843751214267554 -0.11354634321816767 0.08311445535549987
0.06827157576960419 -0.11259920617206477 0.08315784802957002
0.06809939680490897 -0.11168982057957168 0.08322878862296149
0.06789980930565973 -0.11076748502180973 0.08324954887993935
0.06768170341312808 -0.10979877703648848 0.08326649688172114
0.06746468980485154 -0.10881214400612485 0.08333148409637825
0.06720462710605343 -0.10782593760824338 0.08337133267784101
0.06691979057001532 -0.1068055792665192 0.08336840340099949
0.06658393918987243 -0.10575942028061462 0.08337333398871533
0.06622821125147338 -0.10471871833695467 0.08339505994670811
0.06576473543886682 -0.10370518868992626 0.08342122885522613
0.06520767311745242 -0.10269477538115675 0.08346012814960482
0.06461935032684035 -0.10169370292513065 0.08351750346255454
0.06403512683135078 -0.10064066537068514 0.08357820910881454
0.0634331558218937 -0.09961556526713095 0.0836568995883197
0.0629529991639774 -0.09868414651773481 0.08376239304066879
0.06271752074531496 -0.09802236609122805 0.08388008889361499
0.0814714588725267 -0.1697536062317006 0.08203952844443028
0.08038842055533342 -0.16873276373439136 0.08211510333618767
0.07962782036892015 -0.16829387752492203 0.08176854402599312
0.07948064227131318 -0.16787488277854365 0.08194102182225245
0.07894978738561763 -0.1673253857116481 0.08146797985771981
0.07905331614586766 -0.1666461844370482 0.08187437431039565
0.07866920136895858 -0.1659857823955492 0.08134765610379771
0.07889754325211196 -0.16520541039274278 0.08175205942544572
0.0791087248463426 -0.16441436435866857 0.08211878917211912
0.07884048869619448 -0.1636531656653469 0.08147583239818296
0.07900684460752895 -0.16290809405360673 0.08174209721769254
0.07908691089264394 -0.16220698111496168 0.08192110364973794
0.07914552914401769 -0.16166253671467437 0.08206812500344043
0.07906897092670892 -0.16087900222380672 0.08183313725118457
0.07916883798925994 -0.16006013867082824 0.082125658535187
0.07925266173441341 -0.1593810966438119 0.08242682946282553
0.07908137444039799 -0.15861984270074955 0.08176395470021211
0.07910105817289115 -0.157902460482165 0.08195341406342456
0.07909474966892462 -0.15709393904293584 0.08214404773573512
0.07897082449019675 -0.15635919753126068 0.08189487401381933
0.07914861603580287 -0.15655160319721725 0.08260140143910939
0.07894277318275494 -0.15584145609266367 0.08201938193164587
0.07884373411452285 -0.15514584576510676 0.08214029027700032
0.0787158388377758 -0.15448037692922967 0.08237046551266221
0.07860773643390018 -0.15392276256552323 0.08265317846333861
0.07836996481665455 -0.15314194533032302 0.08209193630557221
0.07819106493629147 -0.1524326932647521 0.08235731687934729
0.07794873984891652 -0.1517089202940555 0.08215311621765761
0.07809130354076625 -0.15193841768289174 0.08283109926757423
0.07783229058122572 -0.15122459384321513 0.08229483164175568
0.07765124371509806 -0.15056140352802144 0.08245690885945454
0.07744905080671889 -0.14988507597073097 0.0827165015036253
0.07726953933030159 -0.14928406914610587 0.08301321782135954
0.07692371432622892 -0.1484968134132255 0.08247618183313947
0.07668754257814824 -0.14774069439756599 0.08274302644175643
0.07639843205836108 -0.14701089230023115 0.08252743169725464
0.07655604119394999 -0.14718870430166245 0.08321378445849835
0.07621796325185262 -0.1465002161431327 0.08267374112584301
0.07596845825524728 -0.1458388866642443 0.08283538348062425
0.07574466534807363 -0.14517855864967333 0.08307166931850216
0.07553570143294246 -0.14456212764496254 0.0833520515763937
0.0751799675606623 -0.14369951683843749 0.08276835744266953
0.07492952340456639 -0.14285336129287207 0.08305884518888165
0.0746554635792991 -0.14202010921356836 0.0828630080996916
0.074793292220167 -0.1423082972654396 0.08358047747557486
0.07454891918287648 -0.14151282218272015 0.08302882222475087
0.07442496278215277 -0.14077927080492325 0.08310227990531954
0.07429897679244149 -0.13994275486034352 0.08317662581862882
0.07416890872621125 -0.13906493378198007 0.08324492396251405
0.07403008255314966 -0.13816816272460716 0.08331498869753973
0.07387422721196554 -0.13722323578234616 0.08337552809191051
0.07368951992956846 -0.13638270205127606 0.08306580649649271
0.07380601947291937 -0.13666239933563873 0.0837473555723328
0.07358247379167145 -0.13582990967985953 0.0831688057474035
0.07341836296210276 -0.13504856940075666 0.0832598747318258
0.07325255921144747 -0.13417088771190763 0.08336774566427751
0.07310830400953018 -0.1333076464239275 0.08348433509218622
0.07296892565486754 -0.13245539873607948 0.08361902854303269
0.07283771489730591 -0.13160986485270443 0.08375632554118057
0.07269515513380059 -0.13076476142066917 0.08391355816466337
0.0723519121337369 -0.12987472535216554 0.08313637248041728
0.0721946687377951 -0.12903021262707495 0.08328242536863828
0.07204626761415668 -0.12819439907005267 0.08341803896966009
0.07189556678329463 -0.12737031887861913 0.08355951238754454
0.07171952932444547 -0.12655586791912637 0.08372114668317293
0.07152655496192935 -0.1257572624916907 0.08390213895748702
0.0713181978265397 -0.12498281945294809 0.08411399070623991
0.07092262838351233 -0.12414217701985464 0.08340679301601468
0.07070418416834312 -0.12342283542507518 0.0836986988260667
0.07053431907160196 -0.12285330536197833 0.08402818217694083
0.0698575441070321 -0.12119879297545046 0.08342389924806157
0.07021975196964003 -0.12203180144602906 0.08394759116879608
0.0699847495385532 -0.12118956980729423 0.08423028782314172
0.06958681868212552 -0.12028915136924155 0.08333175680482582
0.06941866344135354 -0.11934553269362631 0.08361589328451183
0.06927042061898832 -0.11841720668291646 0.08378040262982388
0.06912041830536166 -0.11746495232157013 0.08388497568268002
0.06899434672026235 -0.11650110844341563 0.08395180668109513
0.06887845323129121 -0.11552960346519513 0.08399481167718066
0.06874694873140716 -0.11454794284060353 0.08402855707446703
0.06860511780285661 -0.11356782561996885 0.08405369057203586
0.06843701156648777 -0.11260725304160044 0.0840926523911863
0.06825902907241764 -0.11164924890872299 0.08412911010603714
0.06805558977476661 -0.11068772721223366 0.08416375794652049
0.06785911067966921 -0.10972439454780408 0.0842096619147972
0.06762619976043326 -0.10874816350778692 0.08425729078506045
0.06736314228139324 -0.10777809611393789 0.0843005495785371
0.06709111490510918 -0.10677687765109464 0.08432798596979042
0.06675876959900981 -0.1057572961340131 0.08435933157562853
0.06637345330748767 -0.10474894821944168 0.08439559840472122
0.0659036731544766 -0.10376502918894208 0.08444069322066229
0.06532870255387216 -0.10276421973278031 0.08449235170715497
0.06468825246355328 -0.10174677448169432 0.0845526725170366
0.0640555353084208 -0.10069173454196392 0.08461165705286874
0.0634413402611488 -0.09966818125695213 0.08468262993484969
0.06298347889018699 -0.09877568522353 0.08478651872343981
0.06280000945522057 -0.09828359181338396 0.08506276540623108
0.08257804193701568 -0.17106685182334486 0.08210974234276262
0.08273474459473294 -0.1710993833457986 0.08226065447455848
0.08169889227787855 -0.17008905912267056 0.08194188303769516
0.08213698504615483 -0.170348650379734 0.08214881281849652
0.08268852874664273 -0.170813163549121 0.08238394944873985
0.08174534716522382 -0.16954239081380598 0.08247371824214526
0.0811423485612703 -0.16922848828099135 0.08227516009136673
0.08194001107628292 -0.1699804062604638 0.08226350659816402
0.08109979144562574 -0.16876775391691193 0.08274086840210904
0.08018701198577664 -0.16833343108508156 0.08235617747515567
0.08010647421961893 -0.16775818022891928 0.08280772511712789
0.0795146921727828 -0.1672466485868612 0.08235369521864028
0.07960886754071607 -0.16654029629995595 0.0828214190373155
0.07919368578611219 -0.1659095561577026 0.0823121068406976
0.07940429847594829 -0.16514643378387062 0.08270910608878893
0.07955060386288938 -0.16438035887624386 0.0830784968711339
0.07926370894781991 -0.16363587120267845 0.08244569734451633
0.0793786593796324 -0.16279818241379895 0.08274557884949825
0.07931981101434733 -0.1620956771908076 0.08253635091278015
0.07954812808019943 -0.1621794011627707 0.08325043249659594
0.0793624250478539 -0.16153906970340073 0.08268703311149216
0.07937838245200454 -0.16083543568661893 0.08283599333534214
0.07945374133045338 -0.16013535410774124 0.08306885689767973
0.07949431385017318 -0.1594573982375606 0.08332541165750901
0.07929899092247669 -0.1587018227889102 0.08267208154166954
0.07932452234893392 -0.157991478292725 0.08291285759303008
0.07933839945718614 -0.15731582752343526 0.08319430857276879
0.0793175256133106 -0.1566735981079826 0.08349939934074395
0.07908415808245782 -0.15592277969528734 0.08285499668742402
0.07896602368493649 -0.1552472041938504 0.08306673249570544
0.07883922555807975 -0.15461450245841765 0.08320408369278957
0.07873081287393108 -0.15413468333687877 0.08332913397270163
0.0785225003970841 -0.15342059915816444 0.08310876496260357
0.07835864679620128 -0.15271262912383765 0.08337859757023491
0.07821173957451598 -0.15213531687523077 0.08368638311627909
0.07795329223627895 -0.15136484300437122 0.08313300213836917
0.07777289399589284 -0.15069065822676597 0.08339776695029945
0.07755773392282315 -0.15000014303601059 0.08356032860218027
0.07740770696796911 -0.1494809838223708 0.08369502915672307
0.0771470403244477 -0.14873919256867643 0.08348189302458543
0.07691804485010188 -0.14797289456547238 0.08377832843450292
0.07671200846734283 -0.14731249185731948 0.0840912218141545
0.07634838218949326 -0.14656953395641464 0.08347971652219789
0.07611503162382163 -0.14590660002842515 0.08370672539579503
0.07587145361815356 -0.1452650164641328 0.08387737236074497
0.07567609336571966 -0.1447581965864275 0.08403172048426079
0.07536981726371322 -0.14398689990490388 0.08383466581079566
0.07512223258177031 -0.14318844358878335 0.08415255442727466
0.07494250157372195 -0.14249451974331045 0.08445932924764403
0.07465944626961674 -0.14164442436063066 0.0838195717121584
0.07452981068301522 -0.14087330264278633 0.08396379304219968
0.0744058999123864 -0.14003638663617257 0.08407115654081607
0.07427538153882214 -0.13916265346095813 0.0841630807969664
0.0741387923366052 -0.13827815752627748 0.08424587737257525
0.0740036371095752 -0.13749300921780044 0.08431882466035402
0.0739054138891522 -0.13694525392957363 0.08443083482855805
0.07372097659059036 -0.1361074829250739 0.08413502941665545
0.07354714033549868 -0.13516699717226952 0.0842186505903439
0.07340331563487151 -0.13427849109205292 0.0843168740220816
0.07327379313520008 -0.1334024469478846 0.08442667841359633
0.07315180825758467 -0.13253418455096674 0.0845533851844248
0.07303294238620521 -0.13166462466396786 0.08469414554276869
0.07289637599994006 -0.13078376189906488 0.08484356230240822
0.07254605537398803 -0.12991053523785878 0.0840670773018702
0.07239498777225199 -0.1290615245683119 0.08419788912373806
0.07224015922550096 -0.12823232754757735 0.08432661688577996
0.07207875866972388 -0.12741634914593236 0.08446625720384875
0.07190485497841799 -0.12661639375473305 0.08463020079741886
0.07170853901920315 -0.1258231343122918 0.0848259055958052
0.07149056679866872 -0.12503825329471738 0.08504573488591395
0.07110132143259391 -0.12423442987233015 0.08435783817812723
0.07087920714575206 -0.12351903617328347 0.08460365089144577
0.07062811941906483 -0.12279109063621019 0.08479172526880395
0.0703734251711829 -0.12200973332480106 0.08497574656460756
0.07012940604134926 -0.12118814607446363 0.08520853989451374
0.06976664603408986 -0.1203152990163189 0.08442503808153252
0.06957909706533344 -0.11940893975909764 0.08461647885028653
0.06941346246397119 -0.11848494992509889 0.08475445650233022
0.06926633499457362 -0.11754755023287683 0.0848519883222565
0.0691377990151579 -0.11659223291281404 0.084922603782968
0.0690188338043039 -0.11561408847364041 0.0849707051908255
0.06889269651651413 -0.11462044634386208 0.08499695333482726
0.06874506296142349 -0.1136238084784341 0.08502010572892589
0.06857344221378443 -0.11263565834910687 0.08504942929218486
0.06838879090325016 -0.1116502313225499 0.08508076133988307
0.06819143959874115 -0.11067640222428979 0.08512163637537518
0.06798873313978708 -0.10970669421885364 0.08516689152352704
0.06775107036334799 -0.10874553180859017 0.08521788430242953
0.06751444519411309 -0.10777779141997541 0.08526442536335241
0.06723565998659396 -0.10677873559185853 0.08530683642714969
0.06689581369393413 -0.10578628079941818 0.08535774723880704
0.06649043350759541 -0.10479946525304305 0.08541166468945266
0.06600669207661927 -0.10382769842893974 0.0854714691210076
0.06541726711444579 -0.10283389290101756 0.08553194989567749
0.06475929507244314 -0.10182622809429948 0.08559745482305153
0.06412600138240566 -0.10078026907092122 0.08565254950518585
0.06351580561932113 -0.09976332943858678 0.08571677527016762
0.06305609272713984 -0.09888322522049295 0.08582822026265172
0.06283880571235496 -0.09841019856156609 0.08611187064909338
0.08430709772146051 -0.17237913327383153 0.08383763940553644
0.08385038908464686 -0.17137414687569713 0.08350678017079469
0.08324106010483903 -0.17104785700084413 0.08286249353036529
0.08321915163512167 -0.17061266892905078 0.08313659826539128
0.0825861899369462 -0.17027462918118366 0.08268266369419627
0.0815947703221549 -0.16918072558414537 0.08271604487879478
0.08208427836126515 -0.16933902332338374 0.0830331977086232
0.08249118741218524 -0.1697163536943979 0.0830680881384474
0.08165288635185126 -0.1685370544766536 0.08369194988223777
0.08087571585844476 -0.16818598764248985 0.0832227388090267
0.08190670646206201 -0.16899819402390476 0.08332747396350683
0.08075414755494578 -0.16757936218235134 0.08375954170640397
0.0801173811245144 -0.1670976132404556 0.08330759710438636
0.08014854912952346 -0.16641164767493571 0.08377762101686367
0.07975071651562164 -0.1658079467684171 0.08326519741809509
0.07986329124296877 -0.1650661976284678 0.08366551062514058
0.07995492724038912 -0.16432255864759962 0.08403360217876701
0.0796651099156619 -0.16360480147750828 0.08344392595842885
0.07976987628523244 -0.16286728449071733 0.08382125444894765
0.07986860454607346 -0.16217449695253847 0.08413540612854593
0.07962714400794572 -0.16151396152909844 0.08352687346371133
0.07968221437444721 -0.1608239810088454 0.0837105076024591
0.07973593067913305 -0.1601657942745157 0.08391449762467888
0.07979229230847937 -0.15950976071793235 0.08419378916465342
0.07955000668252217 -0.1587792421968258 0.08358047907889406
0.07957751042517759 -0.15809369738399862 0.08384374231606657
0.07957322194262278 -0.15742061066297386 0.08411557372525899
0.07952575044315423 -0.15675304766920475 0.08439788348898675
0.07923374791174613 -0.1559997241485615 0.08376066615893606
0.07911290206313461 -0.15525730178663918 0.08400522865177924
0.07890576667178326 -0.15457999006943487 0.08378581647872509
0.07903945343363829 -0.1547339580801137 0.08447109834039335
0.07878497877875759 -0.15408649669497004 0.0839118820929852
0.07862962800935692 -0.15344693595492676 0.08405375771550058
0.0784682185019127 -0.15281987704520866 0.0842167843528282
0.07833122333757722 -0.1523280106171753 0.08436434078897186
0.07810543583857107 -0.15158814890650724 0.08414056444948266
0.07788319216111901 -0.1506995801430889 0.08436003027668065
0.077615537675667 -0.14995151784738703 0.08414396157265323
0.07776330469776574 -0.15012765176315107 0.08481971470117232
0.07747390502234694 -0.149431485428047 0.08427850639356436
0.07727954607817719 -0.14876287159146673 0.08444295223206827
0.07707859711920262 -0.148078087208002 0.08470280499182553
0.07687890278415022 -0.1474105800565792 0.08498447615640867
0.07649277819322006 -0.1466426866438098 0.08436099421383003
0.07622392555958359 -0.14589787004670554 0.0846324618360943
0.07590842082502643 -0.1452092384421427 0.08445608585140482
0.07605597520908866 -0.14536483701806274 0.08511958165423539
0.07572418749530889 -0.1446998867060312 0.08461088232347858
0.07548966706480605 -0.1440285190981553 0.0848073375720422
0.07527236521884943 -0.1433220273696344 0.0850891814329401
0.07509821479178379 -0.1425999322092422 0.08534957077711992
0.07479506784873863 -0.14175946359182354 0.08468077650748829
0.07466265752255836 -0.14096388280696606 0.08484330391213092
0.07452824837195392 -0.14012072520964586 0.08497322957537991
0.07438594317794105 -0.1392468652518183 0.08508411742745524
0.07422144558029027 -0.1383240867893323 0.08519181860971196
0.07404053122575804 -0.13750099844076083 0.08491181549968081
0.07414652241864318 -0.1377709009456216 0.08557497778982766
0.07394379244199166 -0.13694855666906552 0.08501778107842788
0.07380715040262198 -0.13615487291167053 0.08508111915814301
0.07365876308925295 -0.13526088559386504 0.08516304134197851
0.07353281600530108 -0.13437167548421358 0.08526015316304637
0.07342938723322173 -0.13348757858593988 0.08536655670583852
0.07332766287361496 -0.13259803982603313 0.08550339564864252
0.07322054647086139 -0.131681606580296 0.08566131412462871
0.0730917750063071 -0.1307477513311965 0.0857892623942542
0.07275527573001565 -0.12989813218446178 0.0849862672060849
0.07258276482737225 -0.12902799719657584 0.08508247887574003
0.07240845728070562 -0.12821264096923232 0.08518183582512691
0.07225073499276012 -0.1274311706740276 0.08533949399285669
0.07207435929664197 -0.12664380102768316 0.08552970853135815
0.07187900184293643 -0.1258469126278868 0.08574674804401367
0.07165450011881795 -0.12504783760033328 0.08597015503343955
0.07125825504876346 -0.12427271694907314 0.08527712103283451
0.07101689593309755 -0.12352155125857527 0.08549233589917449
0.07075740909737867 -0.12276796328041015 0.08570483454654697
0.07050760172521625 -0.12199328701084118 0.08593831235573657
0.07026529032622396 -0.12118646341729176 0.0861789478598728
0.06990708018316036 -0.12033447982862595 0.08542097653724667
0.06971117542615532 -0.11945278642427663 0.08559077644287226
0.06954204918292431 -0.11855743996831192 0.0857166684655296
0.06938834599890989 -0.11764077347197549 0.08581940000502276
0.06926011556389136 -0.11669192929086447 0.08589972218793877
0.06913513531056689 -0.11571148877987796 0.08595088037027067
0.06900060283576633 -0.11471490479502303 0.08598684673153027
0.06886036938232103 -0.1137084841380584 0.0860094903241844
0.06869157424818016 -0.1127064726429353 0.08603554863068538
0.06851360358070076 -0.11170559399153138 0.08606369155690072
0.06830595776336283 -0.11071285729360612 0.08610008185164558
0.06808443268895152 -0.10974516929692288 0.08614917242700221
0.06785923205148962 -0.10878547123046471 0.08620257280916449
0.06761947537923481 -0.10780641113342726 0.08625320820361777
0.06733173164558635 -0.10682187485991802 0.08631039681317564
0.06699707245244942 -0.1058466311229863 0.08637160638677963
0.06658497256154078 -0.10486398572567729 0.08643079635430187
0.0660983094664566 -0.103889558443642 0.08649426606168496
0.06551770806838489 -0.10289913330393434 0.086557157404378
0.06485878408332375 -0.10190115858652633 0.0866238113308313
0.06420211570057853 -0.10088845808064557 0.08668623692793502
0.0636097968145247 -0.09987648123719021 0.0867467265061484
0.06310731072952216 -0.09899791901540864 0.08685726580594008
0.06287381655101307 -0.09852369632645294 0.08713845159094724
0.08441404518511154 -0.1725675273893857 0.0840660339501181
0.0844126299075982 -0.1723086950085088 0.08422931049267332
0.08424138461246433 -0.17189044489077557 0.08393535878633719
0.08425188517171985 -0.1713167747423432 0.08415124431049517
0.0837985001102554 -0.17093210886932556 0.08365892117847162
0.08378835856804037 -0.1703939673236494 0.08399917633896488
0.08323425665858165 -0.1700699511454001 0.08353655977668044
0.08321593119525669 -0.16957802449320317 0.08404878736063397
0.08255876775571891 -0.1692642133088003 0.08369615431608914
0.08222040351497971 -0.16835291048844295 0.08463744265813859
0.0814750050187174 -0.16799524021538076 0.08418734637964352
0.08240407971652555 -0.16883423960033167 0.08416097502539234
0.08129570165214214 -0.1674109332082682 0.08472730963024433
0.08064581529602274 -0.16693968814454652 0.08428406604088917
0.0806334754854938 -0.1662748559830793 0.08470032056196927
0.08023663555724739 -0.16569896326235187 0.08421087027816171
0.08030241732396579 -0.16496125286940883 0.0845970992093239
0.08038283388759594 -0.16423283363068228 0.08493515851448705
0.08009053168046049 -0.16357205124650953 0.0844234051594344
0.08019953587028626 -0.1628049409704517 0.08483950639282475
0.08017251643617593 -0.16212209829910537 0.08486656396432031
0.07999369563418882 -0.16145738700839815 0.08446197388364414
0.07994752447863898 -0.16074300422772078 0.08442526322740201
0.0800381301623639 -0.1602026689894642 0.08476222960884251
0.08011494067237374 -0.15951436840564048 0.08508499115347817
0.07984348656606319 -0.1588240501215733 0.0844708934290436
0.0798611520114304 -0.15813730347395397 0.08473711442264244
0.07982654810579774 -0.15745748969224788 0.08500073953654327
0.07975574843621773 -0.15679106681304175 0.08528732783300423
0.07944312853797861 -0.15607839474532517 0.08468694199925005
0.07933276830138208 -0.1554347447671417 0.08501519741583818
0.07922821233985497 -0.1548267536708062 0.08534129748157122
0.07892178861059823 -0.1541349248084683 0.08473002262751107
0.07876940526886801 -0.15342914983161093 0.08497790105642344
0.07853517277362612 -0.1527696069019385 0.08479182631409425
0.07868304183029677 -0.15290791723574326 0.0854580460124444
0.0784020630012507 -0.1522622567352485 0.08493319788534072
0.07823273183426395 -0.15157949533897638 0.08509255552674487
0.07807019545899216 -0.15089217844217676 0.08537041449544752
0.0779012286629574 -0.1502421485862997 0.08567668344887681
0.077597707856826 -0.149502568455058 0.08508706328743888
0.07741388036739967 -0.148837850459947 0.08533875683325431
0.0772318486116512 -0.14816880749823608 0.08560579610459099
0.07702949239782092 -0.1475012708083493 0.0858973839800174
0.07665593828374918 -0.14673553538837855 0.08527806419317797
0.07643203855339455 -0.14608951839715675 0.08562215416400987
0.0762224602616753 -0.14546930004674516 0.08597161115346198
0.07585104871144797 -0.14476134379396638 0.08541927581743256
0.07563139933951059 -0.14409528906084518 0.0857066176846493
0.07543225986159736 -0.1433865516002142 0.08598292199302052
0.0752631953228313 -0.14264287148258228 0.08623538181576824
0.07494581517794975 -0.14183200581523553 0.08556191029156135
0.07480335453500886 -0.14101990404992099 0.0857290232189995
0.07465640573599085 -0.14017951800931744 0.08587039773157243
0.07450729199553327 -0.13932970042605675 0.08600779229673171
0.07435785299236644 -0.13857100335292252 0.08612846223780783
0.07424942414815018 -0.13801630979519006 0.08624186479538397
0.07406524125459402 -0.13718006693298634 0.08593613843390606
0.07390166493212773 -0.136229671487059 0.08599403517515684
0.07377311349482417 -0.13534098641342365 0.08607638711565947
0.07367342660868484 -0.13445804463001443 0.08618030750846187
0.07358510989276049 -0.13356056487392629 0.08630279871887502
0.07350003882028087 -0.1326422950432181 0.08646500620854386
0.07341808450064577 -0.13163753531036282 0.08673105073369038
0.07322916966326859 -0.1306445935207963 0.08660109140948835
0.07294386383148085 -0.1297764582672652 0.08599244370218186
0.07270534435193061 -0.12887274178339234 0.08581551664385176
0.07258580887622174 -0.12819555540046956 0.0860173094234224
0.07242169261864309 -0.1274123755542154 0.0861858277107631
0.07223853324372603 -0.1266285276372179 0.08641762339368708
0.07203685543697037 -0.12581630491952142 0.08666678807615044
0.07180429406689356 -0.1250006580718532 0.08689006881584078
0.07141243529539446 -0.1242598885896779 0.08620148585796332
0.07115088104317879 -0.1234822916621483 0.08639094168457635
0.0708873207477768 -0.12273496551982882 0.08660250035890349
0.07064162912495175 -0.12197838452066316 0.08689090514940126
0.0703845528973663 -0.12116915543542318 0.08713951548812619
0.07003214872101217 -0.12034368767663009 0.08640012285761339
0.069816281961447 -0.11946958470718544 0.0865360080759268
0.0696348230120266 -0.11860901127934527 0.08664452937983126
0.06948731556538733 -0.11773002308825742 0.08677700035581146
0.0693531702731089 -0.11678937914428555 0.08687469773395358
0.06922232958999586 -0.1158150113020797 0.08694043804915821
0.0690927816190532 -0.1148159411877732 0.08697954667090212
0.068951938976932 -0.11380608364230213 0.08700541328653669
0.06878603533082735 -0.11279179041869411 0.0870316955280207
0.06860271329448926 -0.11178366741702717 0.08705940206347802
0.06839217994314434 -0.11079550577991602 0.08709926334803739
0.06816618846542691 -0.10983170453064356 0.08715369865776276
0.0679403558075104 -0.10884975421914886 0.08720428445465714
0.06767856349818012 -0.10786532576784548 0.08726189191460205
0.06739731253654904 -0.10689144490984948 0.08732225963732554
0.06706137963480802 -0.10590714467196037 0.08738044147666746
0.0666573904536975 -0.10493148958943901 0.08743903723999757
0.06616286702637868 -0.10395476298679805 0.08750302071810706
0.06556432117158192 -0.10298627638289092 0.0875716309996183
0.06491253487735976 -0.10200428558431754 0.08764075236155451
0.06425321247298785 -0.10100074663720414 0.08770633248627566
0.06366057836396931 -0.09999473729743948 0.08776620579598654
0.06314987144925878 -0.09910192430489215 0.08787735327430492
0.06292899136227909 -0.09861822911199514 0.08816217223536849
0.0845939680575454 -0.1725466158282171 0.08474060243042447
0.08460053197547258 -0.17222568930478802 0.08482975429859076
0.08458845566585034 -0.17172558533731389 0.08473388388275296
0.08457222538799276 -0.17114530615645715 0.08479798435838413
0.08436175421154901 -0.17068454832403543 0.08466912492921833
0.08417547873892296 -0.1701812345512633 0.08468650016778102
0.08379082051003037 -0.16991252311472158 0.08439466542586556
0.08386254108697519 -0.16946677473340202 0.08503775735619815
0.0831232277386823 -0.16913029330958496 0.0845822650803466
0.08275388616822257 -0.16820537488144285 0.08558559132591538
0.08201373310078168 -0.16783049025301378 0.08516530219902288
0.08295690236294098 -0.1686759336429792 0.08507221183798588
0.08183806714279762 -0.167268628858364 0.08566285542281499
0.08120770883338087 -0.16673497675977908 0.08528973485970849
0.08100600364638619 -0.16614048253504118 0.08541344849536997
0.08074264246335953 -0.1655652880709129 0.08519315877357085
0.08072991406294229 -0.1647602026003262 0.08547457147269547
0.0807129750402508 -0.1641453485808108 0.0856469968131166
0.08051649497576271 -0.16351371947854385 0.08538697407081415
0.08049732467424257 -0.16294066537766752 0.08552438843989459
0.0803129819910189 -0.1617257310958266 0.08524967601536482
0.08049745133519844 -0.16236694688508682 0.08561309108527174
0.0806351831867464 -0.16161953101065196 0.08598506408588878
0.08027900803909964 -0.16098183375939265 0.08527602465306752
0.08040411735891552 -0.16019394445590246 0.0856782376388625
0.08045621595074165 -0.15945196821478963 0.08598007959894922
0.08014226834737825 -0.1588015906761569 0.08537695189523994
0.08013431539294946 -0.15810493877330958 0.08561156835637666
0.08006776254810655 -0.1574396658165178 0.08585761301759245
0.08000224285679972 -0.15679435342486855 0.0861688263995751
0.07966538163511956 -0.156137217544504 0.08560736482529178
0.07956348373045607 -0.15549933047005263 0.08593197681529353
0.07943212959863116 -0.1548671514146334 0.08625009120977402
0.07910763186373762 -0.15419908656764397 0.08564230251427506
0.07898405714239687 -0.15358398504589443 0.08598612230388906
0.07882623995144176 -0.15296740387983396 0.08632401106751375
0.07853401754613724 -0.1522994941910392 0.0857369381568018
0.0783782498124586 -0.1516414622656652 0.08599027677258422
0.07821157400207293 -0.15097939038607283 0.08625986397003912
0.07804788912068927 -0.15032360134566625 0.08653642328133272
0.07774067236544964 -0.14958778264847325 0.08594816611866724
0.07757139100136336 -0.14892219588496963 0.08621929443368931
0.0773801995122753 -0.14824920225008187 0.08650209261508933
0.07717841504322799 -0.1475814574553289 0.08680236353960111
0.07681120086241151 -0.14683751434903808 0.08620821591545226
0.07659801438639595 -0.1461879635308899 0.08654158027538389
0.07637752898085028 -0.14552684213957556 0.08687082761906671
0.0760029513382383 -0.14481829637901053 0.08629117160800559
0.07579210152163762 -0.14412740637460741 0.08658970988937116
0.07561152841696672 -0.14339800639054617 0.08687072422793887
0.07543400162809402 -0.14262666523270698 0.08711950200404943
0.07510933391869534 -0.14185127698404792 0.08645299024190492
0.07494738999254512 -0.14102547884937405 0.0866063998440527
0.07478809884630891 -0.14020519402312362 0.08675912724511803
0.07461716382738745 -0.1393179589925188 0.08698207551803978
0.07439573376195235 -0.13852263689530456 0.08672847815932162
0.07451350627709048 -0.138658429400694 0.08741006198006832
0.07427822911410399 -0.1379149359510706 0.08680784450836004
0.07412322894611074 -0.1370953624048609 0.0868022641645834
0.07398904496524325 -0.13625046822810616 0.08685449318859172
0.07389663128417982 -0.1354093749174675 0.08696768314827782
0.07380804311305765 -0.13452432112694235 0.08709508995358625
0.07373666672815685 -0.13362587822583033 0.08722798271811985
0.07367805664013419 -0.1327459354011719 0.08740773473288634
0.07364021947402054 -0.13202646088470554 0.0876804956640964
0.0731831734141213 -0.130072225354915 0.08690742119879288
0.07347176470369053 -0.13094762920020295 0.08761861612104385
0.07328287804934377 -0.12990304722197477 0.08752920884980034
0.07296263746950993 -0.12906558284346759 0.0868217889671612
0.07272153653801529 -0.12807979451273827 0.08676756285340294
0.07259470906191551 -0.12738379145741205 0.0870424516169371
0.07240899526382485 -0.12658066526270656 0.08729033460205331
0.07221294263708973 -0.125735657189581 0.08765283855993053
0.07191709420877151 -0.12491498677177465 0.08764820298245936
0.07154918076927964 -0.1241697348385834 0.08719804310140532
0.07123373131147301 -0.1233665965706504 0.08714849418296297
0.07104402777388431 -0.12275733981960761 0.0875084579257848
0.07079087617984302 -0.12195519553234925 0.0879227583651319
0.07047919972210993 -0.12113202402237529 0.08792243137746834
0.07013647370853245 -0.12030243064091727 0.08742804803947685
0.06987088450465995 -0.1193954052075914 0.08730508436706419
0.06973598387125911 -0.11870850752157733 0.08756003475338521
0.0695803606321916 -0.11781940745239275 0.08773203950809651
0.06943701064876548 -0.11687749668458998 0.08784315993001192
0.06929538040216338 -0.11590646618198883 0.08791844048532473
0.06916350185194854 -0.11491853102881754 0.08796881570895718
0.0690255335622724 -0.11390947433994682 0.08800195328881695
0.06885757109244388 -0.11289357853342032 0.08803119606203717
0.06867268094834296 -0.11189756658252516 0.08806739919042708
0.06845961613395403 -0.11090350958560011 0.08811150235408831
0.06821668612718003 -0.10991301186959317 0.08816430517760034
0.06797099466843333 -0.10892855006573272 0.08821922846557058
0.06771363415802106 -0.10795939878046949 0.0882791458660295
0.06744101845113548 -0.10697862197354391 0.08833277826975756
0.0670907933189419 -0.10599218064181477 0.0883877859451144
0.06666600976348155 -0.10503549012924425 0.08844876075264735
0.06616282472840648 -0.1040606843040976 0.08851203213806905
0.06556575415379369 -0.10309724328194426 0.0885788970952813
0.06491898247528158 -0.10210093917659803 0.08864282111887682
0.06422122272349201 -0.10109047541646561 0.08870910557844942
0.06361146333511182 -0.10009389353948213 0.08877858863811035
0.06316843894798188 -0.09919579625990946 0.08889902080075443
0.0629591635657652 -0.09870742833073458 0.08919707988007933
0.08489559477579024 -0.17293648800472605 0.08604572557162413
0.08479629571718222 -0.17273352222813976 0.08553559645783765
0.08474987985072514 -0.17199519836812346 0.08517584456904853
0.084812358360594 -0.17232186969977165 0.08548207093986411
0.08470929553301638 -0.17086766402421394 0.08512168783388811
0.08485471974649172 -0.1711304304040336 0.08537807279221844
0.08498801290030168 -0.17164928871156585 0.08574138655806945
0.08421323402743863 -0.16985086306265632 0.08503083611668587
0.08459109516348132 -0.17011543672355306 0.08532590786282951
0.0849388124256594 -0.17053507600121967 0.08565857544952132
0.08434628446930353 -0.16922176900672747 0.0859853167226386
0.08368710534719051 -0.1689748362404038 0.08551696400883166
0.08451533099191705 -0.16964480511309887 0.08568578034011479
0.08329950617938335 -0.16809838811704064 0.08644169387165905
0.08263793780880076 -0.1676481083439698 0.08625983504143565
0.08349349253605351 -0.16852672675956998 0.08600455628645254
0.0821932638099998 -0.16712909864200962 0.0863766404138243
0.0817794204738223 -0.1667340186698282 0.0861909121114166
0.0811372664799434 -0.16577434214073095 0.08585611888361969
0.08140928007968933 -0.16622157271745394 0.0860397053572448
0.0815389106295234 -0.16562759084115256 0.08655062859439706
0.08113272342974373 -0.16518416778760148 0.08607287582584496
0.08087971932971026 -0.16375261883058154 0.08606479371300896
0.08111640943201827 -0.1643637254260635 0.08633666219900156
0.08124741253486353 -0.16358011332320474 0.08677715325609524
0.08084289170799402 -0.16304068889687162 0.08616482542393364
0.0809462002161286 -0.1622219062774243 0.08656439632129063
0.08103084966045612 -0.16145516056673387 0.08688274138314464
0.08071593037423193 -0.1608476201007073 0.08629745129248026
0.0808071792740604 -0.16004304250727727 0.0866766880469566
0.08074959109631948 -0.1593499698408845 0.08670728571662209
0.08049337628130782 -0.15870193312930042 0.08632649852950273
0.08036103309684192 -0.15798775945097068 0.08633453038756339
0.08035359185199187 -0.1574337491436103 0.08670740794436078
0.08026761504105209 -0.15676359204076984 0.08703992059625733
0.07991783479048478 -0.1561433152444802 0.08650626731180347
0.07979408350132415 -0.1554903853687519 0.08683046467897426
0.07965207559181141 -0.15486515050523803 0.08712923268595531
0.07930874135793915 -0.15424728839907073 0.08658551641311787
0.0791545782458994 -0.153609775730931 0.08690691995065253
0.07897657885435486 -0.15296560577399057 0.08718163804909332
0.07867738476731148 -0.1523284346697415 0.08661113638856892
0.07850940444887936 -0.15166921820995635 0.0868536120201748
0.07834138937689653 -0.15102602190934292 0.08709584061337268
0.0782074761069086 -0.1503961828079104 0.08738705709574025
0.0778929748354008 -0.14966544428133685 0.08681684798349226
0.07771058893814897 -0.14899236749148395 0.08710675129719853
0.07752388212945911 -0.1483194583923199 0.08739315912479492
0.07732948186513451 -0.14765350834744073 0.08769788639576785
0.07696846033719913 -0.1469157081717648 0.08712111542469962
0.07675615530118764 -0.14624002948983655 0.08746280792774508
0.07653956878102045 -0.14554001510970563 0.08776488724850878
0.07616924292471729 -0.1448380730297822 0.08718455218883882
0.07597285534160195 -0.14411965301860868 0.08746096674721313
0.07579976130516208 -0.14334564834541816 0.08781962292094289
0.07556768818155789 -0.1425633821465646 0.08786057122999134
0.07527539703180294 -0.14178988433594508 0.08741758179816993
0.07505071814486124 -0.14093645865926308 0.08735277680641106
0.07495758950410616 -0.1402856961069751 0.0876808824321861
0.07482933119028479 -0.13946794414987213 0.0880972618527714
0.07462622610530584 -0.13867190114431804 0.08812232711426332
0.07437780150356837 -0.13786836007771322 0.08765277037724328
0.0741919804738352 -0.1369974638829747 0.08749121221763143
0.07411901698552492 -0.1363183107611552 0.08770329850491379
0.07402823215570845 -0.13545262897427213 0.08785036289033873
0.0739493367484935 -0.13456478981168607 0.0879792477384944
0.0738916796523828 -0.13368635165807957 0.08811440514197125
0.07382979387647985 -0.13282996039858297 0.08827848022155371
0.07375272817892906 -0.13196575011503994 0.08841731496919028
0.07369684631943144 -0.13121733840431388 0.08862320126068932
0.07322388105254228 -0.12928812370797327 0.08781894615252286
0.07351958541049523 -0.1301368920041986 0.08854890338586169
0.07331218710857879 -0.12906892673521875 0.0884751783754109
0.07297818219757861 -0.12825482364318963 0.08778739251130763
0.07272505091261965 -0.1272532018680363 0.08780856929061245
0.07259507387597566 -0.12658555157306867 0.08814730533978127
0.07246271550987275 -0.1259706678358868 0.088466317209808
0.07181214298629496 -0.1244484434559991 0.088029070311889
0.0721822064867368 -0.12517341839788398 0.08846296495746657
0.0719128748579916 -0.12431637523357114 0.08877878349230527
0.07148800775026586 -0.12362840117152593 0.08803480201032808
0.07121539056129948 -0.1228076841796346 0.08842370345791775
0.07102931005052378 -0.12223197943324014 0.08875572016508317
0.07036803912143803 -0.12067107334128707 0.08829632987757333
0.0707276478726175 -0.12145735044958385 0.08875112274995094
0.07045172202486905 -0.12059812018650529 0.08906870449425229
0.07007367967770771 -0.11976360257474182 0.08823072311029988
0.06985846347422998 -0.11880458518736974 0.08851158810217509
0.06967707965580815 -0.1178825419276986 0.08867453642586304
0.0695178640576861 -0.11695369418309928 0.08878969104312297
0.06937387294016137 -0.11599947690900411 0.0888791852637706
0.069235534766508 -0.11501448470555689 0.08894416643040287
0.06908424484957028 -0.11401461063787327 0.088991435463823
0.06891250214835724 -0.11301054665673133 0.08903413899310138
0.06872119540340543 -0.11201683402271691 0.08908114912448276
0.06850358596494603 -0.11100954643028593 0.08912612751344899
0.0682477211480237 -0.11001651192966155 0.08918134103453655
0.06800667983632482 -0.10904081251228996 0.08923538098362045
0.06775262940791366 -0.10805796902601757 0.0892881040374928
0.06745091564339652 -0.10707451288741857 0.08934169380971933
0.06707547241069538 -0.10610419618643543 0.08940072601134398
0.06663231886270664 -0.10513769759710859 0.08945989519870767
0.06609953695626204 -0.1041539992834824 0.08951941591910068
0.06546018717347538 -0.10316960187934997 0.08958163547911902
0.06476995859865783 -0.1021756286641746 0.08964293080207927
0.0641202784838202 -0.10116121442640864 0.0897096498142181
0.06355110987457191 -0.10015907483375158 0.08979355786096362
0.06316116054420891 -0.0992676734260425 0.08993102797236456
0.06297380427190136 -0.09878327430668951 0.09023974611695898
0.08500579017133778 -0.1729149632257978 0.08664336162468023
0.08490887608899976 -0.17268566641114944 0.08615677337338334
0.08507536454009848 -0.1720970818355118 0.08642071737434441
0.0853881498538789 -0.171361001209084 0.0867909751947134
0.08524202975892932 -0.17090286545656713 0.08627178804167131
0.08548250770050098 -0.1702209413646727 0.08667511192735793
0.08506663412607911 -0.16990098887217206 0.086180644054264
0.08480448061156326 -0.1690296252279305 0.08673664732567475
0.08420519910638129 -0.16880977019109347 0.08639244349207137
0.08496603042001322 -0.16940734843592772 0.08649801164074407
0.08317924803948498 -0.16782624953204922 0.08674343993620708
0.08357992073518489 -0.1679236380664655 0.08706236200253868
0.08416753410140083 -0.16831465795433134 0.08705953413232621
0.08222016162704017 -0.16675742621244424 0.08680030963403515
0.0826657945026487 -0.16710138577970382 0.08701254450419109
0.08325754415278937 -0.16751375563831783 0.08725404475376475
0.08262448367817557 -0.1665154550805753 0.0875068294166468
0.08201300952206521 -0.16616713953308482 0.08694679819076358
0.08206869587109217 -0.16536425965714557 0.08745896714772844
0.08161266204310502 -0.16488431008468757 0.0869512058197677
0.0816391294199424 -0.1640835147915703 0.08730999645067225
0.08166447222453135 -0.16331303107186682 0.08763383900447463
0.08130621837379555 -0.16278998501954228 0.08714286690982995
0.08139452312317899 -0.16196638239994943 0.0875382416155397
0.08133585517118987 -0.1612819395272743 0.08760060344193925
0.08111036990248523 -0.16068468938278563 0.08727513243335643
0.08108590265593683 -0.16011320778165652 0.08736400053690292
0.08082495260136242 -0.15891831230765754 0.0871001764537968
0.08106855428648665 -0.15953508274936407 0.08745133358564663
0.08107175333652782 -0.1587664219642218 0.08781774612791074
0.08069546831913987 -0.1581801363252317 0.08716130398873904
0.08066941838324797 -0.15736734338033476 0.08764225892614665
0.08049978555288799 -0.15671603320438526 0.08772982246343004
0.08021451237453457 -0.15611294884525423 0.08744588726763015
0.08002173109397027 -0.1553951780507953 0.08766155797824607
0.07985717044161833 -0.15486067223835873 0.08782176066025205
0.07953877176632387 -0.15425712266663127 0.08756233140126415
0.07929585063482007 -0.15352323498787482 0.087766763323515
0.07911632593492468 -0.15295696021338334 0.08788515064980877
0.07883060960270803 -0.15231468667735937 0.08754769352419209
0.07859697706237735 -0.15161817244663953 0.0875737724830691
0.07850504611145308 -0.15110900600427765 0.08792392806486438
0.07836439391531931 -0.15045625181516867 0.08825645692438175
0.07804386187322351 -0.1497298119543911 0.08768421761900122
0.07785925444901759 -0.14905003798806354 0.08797488580747774
0.07767621453922313 -0.14838081198880104 0.0882617756598094
0.07747706940474082 -0.1477149528223903 0.08856974160736845
0.07712313693118383 -0.14697718873382232 0.08803388475821913
0.07692863828970117 -0.14625083960996596 0.08845139415411482
0.07667337204770484 -0.14551611480808258 0.0884943010805778
0.0763478965018576 -0.1448107331157593 0.08813660137289674
0.07610923543872386 -0.14407589988014566 0.08819414140818584
0.07606064951239717 -0.14364462682481774 0.08859516808945073
0.07553747876501968 -0.14210433546703052 0.08823515907812501
0.07584526339978213 -0.1428415081559744 0.0886537914451881
0.07569063384351014 -0.14196034566737087 0.08899055286801563
0.07531725488418146 -0.1412436874407423 0.08823491049525324
0.07516740630374925 -0.1403730864611205 0.08860466018060621
0.07507130632152641 -0.13976630786800448 0.08892023327869036
0.07457857973999847 -0.13820908199542997 0.08847316778613055
0.07485595111451972 -0.138964619027954 0.08892561487625018
0.07469317869142501 -0.13806031724726064 0.0892123843739734
0.07438449429889094 -0.13729973965708253 0.08838553869826977
0.07425136048145026 -0.13631822705940472 0.0885963841083461
0.07415473654414377 -0.1354358156827787 0.08870457772359203
0.07408654845666779 -0.13457992328283838 0.08883969748779923
0.07402483680379822 -0.13370776177914628 0.08897186711181661
0.07395968556715297 -0.13283512734861797 0.08910399179909627
0.07389343805565163 -0.13197713568900515 0.08923810772123393
0.073806944584515 -0.13110540334766088 0.0893580231343035
0.0737305143350102 -0.13033832047245578 0.08957164856366408
0.07324004140392835 -0.12843539354171427 0.08878827510875444
0.07354074751650243 -0.12925731971062157 0.08950039116737021
0.07332241151090471 -0.12820271493586968 0.08944996789741676
0.07298678346844505 -0.12742031789818645 0.08879421947911595
0.07271914859610419 -0.12647973940225607 0.08887681813722657
0.07255854216401682 -0.12580649597089705 0.08917099468179109
0.07231469419001192 -0.12494746940858031 0.08949113986027829
0.0720058484514406 -0.12416821990019665 0.08952937849520308
0.07163376002801344 -0.12347478343697642 0.08911844974964576
0.07131149482833628 -0.12271983742317309 0.08915187624005949
0.07111528485898147 -0.12212969841197037 0.0894651332111007
0.0708326690500068 -0.12134262037417755 0.08974919358929058
0.07053991150291158 -0.12050245462301666 0.0900144814608982
0.07018553492727958 -0.11971010146241984 0.0892870794622695
0.06996004414995909 -0.11879704231242323 0.08945032781571985
0.06976364952757448 -0.1179115558633988 0.08957361611703793
0.06959932658376788 -0.117028489223225 0.08971997688152576
0.06945330445796481 -0.11608599916962191 0.0898281270451237
0.06929702249987538 -0.11511131334285937 0.08991033028503166
0.06913324139703224 -0.1141276379232215 0.0899769578959158
0.06896086737584868 -0.11312509827111406 0.09003199114377473
0.06875558723351785 -0.11211959969342397 0.09008600769495566
0.06853253212279904 -0.1111241230861732 0.09013771452796474
0.06828058078664978 -0.11013724192361035 0.09019475924443385
0.06803776209430015 -0.10915413835904772 0.09024667661722093
0.06776290703257336 -0.10816676992678285 0.09029875983427597
0.06742820966921925 -0.10719701270378464 0.09035715219484691
0.06704987393523258 -0.1062263565431364 0.0904133671054832
0.06656312815308858 -0.10523104571158196 0.0904712878085191
0.06595737999547242 -0.10425512049542132 0.09052819351776852
0.06529432274649669 -0.10325927707965497 0.0905860573722839
0.06461059498426164 -0.10224883426265642 0.09064894387654668
0.06399459434469207 -0.10121572575893485 0.0907224462376231
0.06344355693418838 -0.10020705681070184 0.09082295528021
0.06309822285790177 -0.09934020099036797 0.09096992662930296
0.06296973646148521 -0.09888648532353714 0.09124442118800849
0.08514254108424472 -0.1728338655089903 0.08744736661714855
0.08511830213595334 -0.17256073668150307 0.0869832149812831
0.0854479024956663 -0.17184565834516463 0.08741966020901107
0.08568262370183363 -0.1711427888704771 0.0875387691854913
0.08578069456216149 -0.17055568349578928 0.08736629314516599
0.08591744856406766 -0.1699414036872359 0.08738007747995401
0.0856552503260814 -0.16956291248849487 0.08716821858701054
0.0847180654690455 -0.16872058601365825 0.08704216382537192
0.08512873915962077 -0.16885392715889525 0.08727863129215864
0.08533492575058878 -0.1691197693835232 0.0871882513218763
0.08480950062989369 -0.16803603586116242 0.0880580903476405
0.0840972521852534 -0.16771892385641374 0.08783402599084125
0.08513804493287966 -0.16851231092214458 0.08772927075270413
0.08366502269083266 -0.1673008740161438 0.08795037532548027
0.0832942593366538 -0.16685502432233404 0.08799205274507524
0.08299810622172976 -0.16628536649447764 0.08820108196673682
0.08267879908319872 -0.16575527147398952 0.08812632996218467
0.08247934019550142 -0.16505755356142052 0.08823463881811114
0.08214357405529954 -0.16453492111542947 0.08796235207436749
0.08208014720789275 -0.1636939717506939 0.08817705911496294
0.0820169453744593 -0.16307402873610027 0.08830398757952601
0.08176671358710813 -0.16254336713173806 0.08805398607715167
0.08174713671530538 -0.16197769173921 0.08818142021400344
0.08145656161300681 -0.1608411525097095 0.08796715505290525
0.0817084983853426 -0.16139916507677007 0.08826839548752355
0.08178541873408395 -0.16064170482857737 0.08860188861064464
0.08140754549829145 -0.16015670883772423 0.0880172724638612
0.0814749283028477 -0.15930737085612748 0.08843639468010149
0.08134051312218331 -0.1586176500516645 0.08849811530734979
0.0810500181419386 -0.15802370508056243 0.0881714657522543
0.08095050383011922 -0.15747502022187163 0.08828194124957928
0.08053516827010446 -0.1563861310486648 0.08812240699691656
0.08081537749258191 -0.15694621994881 0.08839631485949788
0.08071844548212043 -0.1563054498896712 0.08879274249707711
0.08038736496337699 -0.1558417589932825 0.08826173968080188
0.07986639903725717 -0.15457497667065162 0.08823956505104792
0.08018388423081793 -0.15514567295526685 0.08848616159254066
0.0800316332886399 -0.15452211914892722 0.08892420303009643
0.07965865162463591 -0.1540133888403762 0.08839262905648602
0.07908107368202473 -0.1526221674102509 0.08829370214654357
0.07939838088844825 -0.15326590259688472 0.08860309703300626
0.07921627970798702 -0.15257456299771774 0.08902696207427618
0.0788477339524932 -0.15191262071075987 0.08836855391247994
