# .PCD v.7 - Point Cloud Data file format
VERSION .7
FIELDS x y z
SIZE 4 4 4
TYPE f f f
COUNT 1 1 1
WIDTH 791
HEIGHT 1
VIEWPOINT 0 0 0 1 0 0 0
POINTS 791
DATA ascii
0.07191418038412915 -0.1425948395339987 0.08847052613197622
0.07165202517836097 -0.14187689799334613 0.08806738087206127
0.07145950286435471 -0.14110900359751843 0.08810758131110918
0.07142806573006341 -0.14064538730203108 0.08851742868336664
0.07103444570338704 -0.1390649051533304 0.08809246386576829
0.07127408287015873 -0.13980924067056155 0.08855498597599865
0.07118031807788276 -0.13887320992497304 0.08888555997472608
0.07087824729350768 -0.1381712758186914 0.0880720021809174
0.070777994157668 -0.13725466765305505 0.08844167336795869
0.07071899670723585 -0.13661458228110396 0.08875992717036227
0.07035105008416066 -0.13504274821277695 0.08825932598469519
0.07056600840760006 -0.1357929137197539 0.08874692130499574
0.07046369281310258 -0.13485565296952806 0.08902769344951411
0.07022444223601987 -0.1341222311229647 0.08815080354504966
0.07015667704921237 -0.13311522494526862 0.08835100887511162
0.0701201623701193 -0.13221992703443872 0.08844856651415092
0.07011860134139195 -0.1313484345663353 0.08857282250899533
0.07011934452893993 -0.13046290371415645 0.08869450794488018
0.07011986008662278 -0.12958039525532633 0.08881520315869014
0.07011449534825367 -0.12871049760515285 0.0889395512159468
0.07009446119503919 -0.12782743287090448 0.08904744882389855
0.07007808995588143 -0.12704714825574695 0.08925201511189114
0.06974224906926543 -0.125166236799625 0.08840937370898577
0.06997321212334937 -0.12596344203917748 0.08915916234560947
0.069839055378813 -0.1249007041473541 0.08908849227311572
0.06956982255256373 -0.12414120953862115 0.08839800843619577
0.06938716326282048 -0.12318512110081384 0.08846373423480206
0.06927923442994184 -0.12249385437811651 0.0887538755763586
0.06910510346492767 -0.12161533247873944 0.08906846236777875
0.0688624142290607 -0.12082590127813177 0.08909187331249031
0.0685455732297647 -0.1201478004646085 0.08865593843817206
0.06828511501930151 -0.11938895880032722 0.0886733960007618
0.0681348054317513 -0.11877963506205506 0.08898259136740196
0.06791678770550123 -0.11797260652601226 0.08925702817794423
0.06769479088263759 -0.11711452930488261 0.08950936322768081
0.06740131792566648 -0.11635894626088258 0.08874614888642132
0.06723597267989156 -0.11544205567668495 0.08889542652367681
0.06710389751569092 -0.11456016936242108 0.08900315393041956
0.06700524636652912 -0.11367511296591351 0.08913448596079389
0.06692006861816095 -0.11273547857666454 0.08922726490781076
0.06683293763477509 -0.11176923285378888 0.08929109760113194
0.06674273233544066 -0.11079310644194687 0.08933753755188484
0.06664198672616274 -0.10980357127181656 0.08937130332210663
0.06651549587391742 -0.10881167050541939 0.08940258553814631
0.06637197151658004 -0.10782530501911425 0.089432489419792
0.06620233178461163 -0.10684760067882894 0.08946624846894459
0.06603242202629504 -0.10587286275718819 0.08949771256570334
0.06583243819539843 -0.10489636424544878 0.08953035755928145
0.06558005764343014 -0.10393552746945628 0.08956863484433686
0.06528448098004627 -0.1029755044407325 0.08960548871438265
0.06489184828114902 -0.10199615716007425 0.08964339804633459
0.06439361850946888 -0.1010311342914886 0.08968003108192737
0.06384344580379692 -0.10004839300362857 0.08971659984188926
0.06327475179418576 -0.09905203925162528 0.08975704095727755
0.06276541298206224 -0.0980361988036736 0.08980766395317417
0.062318483390189965 -0.09704672728887542 0.08988334707374845
0.06205015478740746 -0.09619433689222977 0.09001041691148219
0.06196102991815631 -0.09574452985934137 0.09027498014563702
0.0813324742555901 -0.17233221245863894 0.08796863377317306
0.08124382925345262 -0.17201891949125378 0.08745179474680592
0.08135491943726492 -0.17126170293095436 0.08793786780528105
0.08138707654437617 -0.17050354797621714 0.08806537876388904
0.08130165162618712 -0.16983812772826845 0.0878749837065676
0.0812252079172862 -0.16912908837451057 0.08787361358220006
0.08087885314895901 -0.16866212882371806 0.08761257080392403
0.07979908026977534 -0.16756862825456093 0.08737643846796801
0.08019936968280869 -0.16776356295923128 0.08765989353272526
0.08046413614633074 -0.16811315592349166 0.08759695833263462
0.07974693907208077 -0.16681020141174052 0.08843232938953581
0.07904650289834007 -0.1664031799829036 0.0881344159281194
0.08013738082449673 -0.16737358079571785 0.08812502803204028
0.07859207738592354 -0.16592476252979252 0.08821850389241351
0.07820604245077782 -0.16542345584524445 0.08822952280147418
0.07787479471457921 -0.1647961025207489 0.08841485817596899
0.07754411197186596 -0.16422891891462135 0.08833110985271733
0.07730960318565544 -0.16348219608239567 0.08844071583119875
0.0769931045598516 -0.16292988114213436 0.088142506043842
0.07687612465559279 -0.16203698416018789 0.08837844419485485
0.07678300138789898 -0.16137808522693592 0.08851567977158048
0.0765515408280587 -0.16082053147895578 0.08824159282467843
0.07650158873018378 -0.16021350123937175 0.0883820471593467
0.07621149810600972 -0.15900134410220002 0.0881439163906066
0.07644096365351091 -0.15958918257709043 0.08847673380760702
0.07646513704241772 -0.15875346225009834 0.08884406518388951
0.07613549432930525 -0.1582575118798182 0.08820761955206297
0.0761462158391016 -0.1573147440919939 0.08867090685593652
0.0760018432437738 -0.1565723747203677 0.08873610066169892
0.07573766682212767 -0.15595654784415472 0.08837874340623178
0.07562956123303187 -0.15535923618042896 0.08849723231686972
0.07524182000227006 -0.15419342985742296 0.0883146720092398
0.07549510851586289 -0.15478265429659235 0.08861575685681362
0.07538806769097128 -0.15407240662895982 0.08903463187220245
0.07509943257328437 -0.15359025614848584 0.0884592433859232
0.07462757880376059 -0.1521879748846846 0.08841831044209349
0.074908368965138 -0.15280148174400238 0.08869352002797155
0.07475822170871123 -0.1520955315255708 0.08915522338524735
0.07443474875700505 -0.15157721075453667 0.08857213065430637
0.07392072239510553 -0.15008587087025815 0.08844310076495637
0.07419842147099112 -0.15075812101032332 0.08878450586089102
0.07403125247313341 -0.14999619093546526 0.08922398464233187
0.07371758244374156 -0.14933172225008925 0.08850713536666081
0.07358449388503853 -0.14852914944306203 0.08895056875470536
0.07343081995402671 -0.14776663226691955 0.08929329444658368
0.07315799166528085 -0.14705309571466613 0.08866039272036448
0.07300940960364231 -0.14631564102070005 0.08894181074761144
0.07284750535445443 -0.14559096787708636 0.08921800769485194
0.07268943215358256 -0.14488696462814446 0.08951379118662806
0.07242696225639988 -0.1441935094732436 0.08895154704730122
0.07232707882819538 -0.1436250839293311 0.08931885903086995
0.0718660152713376 -0.1421527890901984 0.08888285528361829
0.07212156102501635 -0.14285010056515912 0.0893094819911387
0.0719752095199041 -0.14200972251227034 0.08966487737425842
0.07167775821861003 -0.1413614109906806 0.08892976089919896
0.07156908004795606 -0.14047998691888317 0.0893098963937856
0.07148198260219933 -0.13950708270070072 0.08968968455697308
0.07132729361631522 -0.1386334206336136 0.08969237065271059
0.07107527322598667 -0.13791305225090184 0.08921683238330379
0.0709113434224552 -0.13709651589033317 0.08921086749334001
0.07084211109957808 -0.1364225858905441 0.08949205111749453
0.07074133047311293 -0.13549933799229644 0.0898260569957755
0.07058119533604637 -0.13462290156779866 0.08982535685398438
0.0703721349734122 -0.13384402167778625 0.089275224341165
0.07025648154590493 -0.13290208607790657 0.08912570686276351
0.07024721752488308 -0.13215310491132498 0.08931640939342915
0.07023195675455834 -0.13127967085889716 0.0894337629996445
0.0702307204386916 -0.13040911007839093 0.08955988525414285
0.07023307414250521 -0.12952388775555077 0.08967451513481899
0.07022534123029031 -0.12863261983797522 0.08978849675539015
0.07021115524872149 -0.12775442174769075 0.0899076612475804
0.07018294529308637 -0.1268687849732632 0.09001350718579293
0.07016306464287737 -0.12609223964728256 0.09021374772716093
0.06980185106339583 -0.12425340911325845 0.08941157522230016
0.07004170325351397 -0.12502728527489967 0.09013178166941974
0.06988758839968125 -0.12399062361770222 0.09007727713526709
0.06961042553240576 -0.12326558769240402 0.08942440771798119
0.06940183090914943 -0.12231220200301235 0.08951127007555779
0.06933378890612536 -0.12176687934586129 0.08988601238282967
0.0687787520749999 -0.1203297927985337 0.0894920958209918
0.06908759740370647 -0.12098284641882005 0.08990111101450102
0.0688675199821858 -0.12012174283808412 0.09026448898961764
0.06850321650658196 -0.11953308250242181 0.08951963792624451
0.06825756581608597 -0.11864643075367837 0.08990932904382333
0.06802656355819117 -0.11778170205136547 0.09029988578481922
0.06776985567071273 -0.11696631625648432 0.09031033247856193
0.0674931169883396 -0.11619185257706295 0.08980091612424759
0.0672853474750015 -0.11528741285134225 0.08967203350887638
0.06718866952533874 -0.11457092994985901 0.08992077780588544
0.06707599732332091 -0.11367367019242355 0.09007847893780775
0.06697597903736265 -0.11274385899570398 0.0901823576258744
0.0668771375266672 -0.11179799825992469 0.0902645852160452
0.06678024263208304 -0.11083308847227641 0.09032695580286812
0.06667345643535118 -0.1098527867063873 0.09037386323341866
0.0665450692185628 -0.10887536520572673 0.0904155927177751
0.06639978677825809 -0.1079000978780785 0.09045332957695595
0.06623673537035299 -0.10691504620441511 0.09048577858878039
0.06604648035406406 -0.10593594310131114 0.09051903594288832
0.06582707967674038 -0.10496993078823882 0.09055548082652247
0.06556379361052803 -0.10399832047959791 0.09059393663525074
0.06523959547971997 -0.10302954717358191 0.0906320318170284
0.06481356303330107 -0.10206682340707991 0.09066963668610024
0.06428487584438418 -0.10110045111547973 0.09070397706139191
0.0637432604689096 -0.10009662880003184 0.09074222593644296
0.06313081641661955 -0.09906692578418351 0.09079230376501388
0.06260341666763279 -0.09804531165653524 0.09084711057457848
0.06223573015449882 -0.09707186595461947 0.09091941457787225
0.06203466482095374 -0.09626509460738271 0.09099971285236097
0.061978675136492314 -0.09589391290428773 0.09104500407621303
0.08145146964065485 -0.17225463099510724 0.0888877914973984
0.08138340890479502 -0.171952662000129 0.0883956214196257
0.08152223171456269 -0.17140058388382265 0.08879872258387476
0.08149133495107906 -0.1701579965527845 0.08844527022730622
0.08159231710105061 -0.17061813972200837 0.08881447125207001
0.08128004947846663 -0.16880438245878554 0.08814862539524265
0.08152477065315743 -0.16900952006958778 0.08860271889138817
0.08170399008945964 -0.16970806173044323 0.08901079518956165
0.08052869918192124 -0.16779187885879712 0.08809949378098783
0.08090291928619578 -0.1681061293150258 0.08825676609912303
0.08129331753483124 -0.16847882668284334 0.08846815560437087
0.0795842811512084 -0.16647390098533077 0.08869249642408353
0.08008624469124208 -0.16646808081582498 0.08924850546651175
0.08049851177388452 -0.16696435093601433 0.0891069309109033
0.08089019133464201 -0.1675878944686908 0.08883455774946573
0.07864432012352943 -0.1656427718744782 0.08860754479677618
0.07899060626677491 -0.16587004420344625 0.08875639550398294
0.07950895810300294 -0.16615384079400117 0.08899155084397005
0.07793730313308771 -0.1644595779640819 0.08880050144126322
0.0783166319300193 -0.1647182522956001 0.08905270042991288
0.0789419349959495 -0.16523610549098655 0.08931973370078414
0.07739042426823689 -0.16296859978663264 0.08888244375390857
0.07774470086818129 -0.16333160658826484 0.08925419648273099
0.07818682847179496 -0.16399353767728886 0.08943871320113768
0.07761965837786032 -0.16269731761760492 0.0894460170104105
0.07732737958152594 -0.16227653981558368 0.08914207201161553
0.07686791538137805 -0.16089529519280485 0.08892161270662464
0.07712945570948797 -0.16137131469377922 0.08924205311971002
0.07709436385893544 -0.1606631597999126 0.0894763395125638
0.07682080563910211 -0.16014202627452692 0.08912116660583275
0.07676782093443789 -0.1591755837195378 0.08940409759300287
0.07671677591513723 -0.15849184981488382 0.08954485188200279
0.07648406013023513 -0.1579298852286979 0.08924980667520015
0.07640338560424148 -0.15731274525187558 0.08938804991234996
0.07599723620849277 -0.15610445738134163 0.08913138849276726
0.07626662157880823 -0.15669420601119285 0.08948160527699064
0.07614097776657146 -0.15589657400584714 0.08984758136820443
0.07582087128093139 -0.1554002616005674 0.08919137124836587
0.07568622021951471 -0.1546022112778701 0.0895667465093623
0.0755669280093237 -0.15390569012746064 0.08989152215826016
0.07526044414353332 -0.15337460584553153 0.08934409382883672
0.07509812278007405 -0.15265291711740026 0.08970221939581474
0.074907477521259 -0.15193852010153963 0.09006518385769846
0.07456088691036436 -0.15137760838179595 0.0894718199642818
0.07436020183242043 -0.15062718156601126 0.08981057776289227
0.07417938783660981 -0.1498806485504878 0.09016729024765902
0.07387508378830077 -0.14923295086066415 0.08956243962561532
0.07371460402153474 -0.1484568060297818 0.08992958308229018
0.07354868969409283 -0.14768985221765865 0.09022931206650298
0.07327805703335269 -0.1470089081891303 0.08959670613796081
0.07310863300412461 -0.14625839998888232 0.08984530909057241
0.07294401924293203 -0.1455494669249083 0.09009654309459787
0.07280091078265685 -0.14484792376095407 0.09040945844500997
0.07255057975782526 -0.14419814641938514 0.08982625033875091
0.07239516721905931 -0.14346638847930662 0.09008281355432142
0.07224632724698961 -0.14265500967695413 0.09033972664731205
0.07211768513768027 -0.14179790202480375 0.09061691973712596
0.07184769846500415 -0.14115407824171303 0.08994765086158833
0.07174823840256842 -0.14030175254178284 0.09023142298639666
0.0717026690173428 -0.13962099169911404 0.09053876863152938
0.07131086325328816 -0.13806068240454294 0.09006610798103362
0.07157076704984729 -0.1387197615472308 0.09061671382298027
0.07142252176516695 -0.13780774416292385 0.090683220432231
0.0711506722035534 -0.13714631226763407 0.0901366999632217
0.07098720855423525 -0.13622160290193502 0.09025237190869001
0.07097475018728641 -0.1356446947514679 0.09064934987422543
0.07056411219556923 -0.1340317575233584 0.09017436864898554
0.07081584286213409 -0.13472397484458445 0.09074252841475065
0.07066663847328461 -0.13378613253781774 0.09079301349179876
0.07044568931277542 -0.13302646007771138 0.0901421708307007
0.07035210656406272 -0.13198220775525116 0.09007300260582494
0.07035231312082516 -0.1312139603708209 0.09028159789796884
0.07034200615342441 -0.13033185167516517 0.09039823567278661
0.07033750942184103 -0.1294523697575179 0.0905266896302446
0.07032812076381406 -0.12855425371531187 0.09064392181731522
0.07031735780213881 -0.12765796334319557 0.09075192524533986
0.0702997360998139 -0.1267802791708336 0.09086815723070434
0.07025970119425982 -0.12590159938074147 0.09097079099978113
0.07022711551071315 -0.1251392412300795 0.09116951405916336
0.06983871241860744 -0.12337159939871391 0.09040485624085177
0.07008738148214332 -0.12411492984002688 0.09108660961970731
0.06991379846697546 -0.12312774395334605 0.09105202520893449
0.06963048646715739 -0.12243015302071 0.09044892193721935
0.06938826187049428 -0.12149999015066515 0.09052368926549212
0.06922698552190233 -0.12070957676637968 0.09098271835802468
0.06895525920409407 -0.11990388267612409 0.09104386867007806
0.06862250978426923 -0.11925091645998818 0.0906409287693169
0.06833971490729675 -0.11847069725539439 0.09071646071840576
0.06823920385153001 -0.11797670945415878 0.09114300266347948
0.06767849366592239 -0.11644584179409809 0.0906979967653922
0.06797252940901044 -0.11716702249983892 0.09117779159802346
0.06774063233103739 -0.11623620993469197 0.09150004661752766
0.06744602793296713 -0.11553095908426161 0.09062771880233646
0.06727500084773957 -0.11452616926269059 0.09086789577499846
0.06714042728787425 -0.11362265422532473 0.09098801311010447
0.06702615696796525 -0.11272980794322371 0.09111381987766334
0.06692191301430306 -0.11180350622986164 0.09121242826320133
0.06681562782768477 -0.11085388818795121 0.09129379710282101
0.0666974523192281 -0.10989518526794399 0.09136111086353359
0.06656657646843328 -0.10892803649914205 0.09141601140088455
0.06641591709061165 -0.10795321687131774 0.09146171638284209
0.06624790601163685 -0.10697642132524794 0.09149905698741462
0.06605132855551997 -0.1060018564893234 0.0915359305073104
0.06580822348902038 -0.1050261775291326 0.09157867894557555
0.06553053280664367 -0.10405817149054691 0.09162190537364946
0.06519242806536693 -0.10309579829045015 0.09166326403405876
0.06477173551641383 -0.10213461491141101 0.09170322546959583
0.06424032144799782 -0.10114925985716014 0.09174548241219134
0.06364173138037194 -0.10013338065712478 0.0917898755849057
0.06301702742867382 -0.09909276211972366 0.09183774518989958
0.06250423496823769 -0.09807839672032272 0.09189058687524615
0.0621956528991558 -0.09715463453375778 0.09193867400611376
0.062053653663966694 -0.09649122539823385 0.09180035949635411
0.08157952120239555 -0.17214116350421518 0.08977865286723237
0.08154948874467764 -0.17185869900934445 0.08927861509757563
0.0817173356777671 -0.17111732820985764 0.08957988456606214
0.08190178174186634 -0.17017215954292828 0.08987839572296341
0.08203382875842812 -0.16938834599215719 0.08989169187334115
0.08191128946783258 -0.1688694117702717 0.08957371553472039
0.0812846382986567 -0.16803960885724134 0.0888821260768589
0.0816402031198181 -0.16834511340963548 0.08924884001376351
0.08054087790632031 -0.16661355153131277 0.08958262937348929
0.08084034775491211 -0.16673010170350433 0.08978159000340324
0.08118974888221271 -0.16712352031906827 0.08976796387060298
0.08149832579556511 -0.16773826317281249 0.08957839822514169
0.07941875502202769 -0.16571487396322582 0.08938229793121284
0.08003490755145988 -0.16590443742333058 0.08979416336957775
0.08078155352641324 -0.16626336632912075 0.09021249731315385
0.0795299052774842 -0.16474040606316676 0.09038482528340598
0.07896845576732797 -0.1642635103482001 0.09017471734127999
0.07979495475195665 -0.165323002482731 0.09010848862341009
0.07865787051153014 -0.16360470558875986 0.09034530710557495
0.07828708425559902 -0.16320143502637793 0.09016190866596532
0.07768073448629804 -0.1622299320834435 0.08982876120442462
0.07799897077163469 -0.16256345416572182 0.09013882128472607
0.07790048774414256 -0.16196626135327247 0.09034152927768009
0.07761258294867104 -0.16156540256233706 0.09006060319418305
0.0771792382431344 -0.16017843948030858 0.08989321550761661
0.07743836411225002 -0.1606553459318773 0.09018511138990126
0.07738963213266105 -0.15994399929532477 0.09047113275875769
0.07714363527361431 -0.15946859940166794 0.09015737834065064
0.0767686263387533 -0.15802187620981709 0.0899392616252464
0.07700764394652942 -0.1585381410352311 0.09025902030729069
0.07692440778276129 -0.15783942958800556 0.09049353155163103
0.07664461947878923 -0.15729491439043466 0.0901219697660426
0.07645887554113052 -0.1563791879841165 0.09040603655821766
0.07630269334113013 -0.155716428805994 0.09057652456668511
0.07602789474691483 -0.15510927582797207 0.09026786424375874
0.07583068704365056 -0.15438011782497554 0.09035622659190211
0.07575694372376486 -0.15379864937835275 0.09076912899811695
0.07544606279046417 -0.15321686450774022 0.09027341410036173
0.0752587756966431 -0.152491172276629 0.09064029781814104
0.07505297871260343 -0.15177905657618124 0.09097095279015063
0.07471054006166608 -0.1512161629072822 0.0904235475850282
0.07450112032630773 -0.15047496601939184 0.09076631294104004
0.0743193415177663 -0.1497499869861937 0.09108169856214399
0.07401687167450358 -0.1491261079677064 0.09054151708905049
0.0738433738756758 -0.14832712908319173 0.0909493694397503
0.0736451867033608 -0.14759727445758067 0.0909929083584328
0.07338825388098089 -0.14689678863506458 0.09059649946019525
0.07317148167806985 -0.1461275678725103 0.09060181175145537
0.0730639391529394 -0.1455225042852509 0.0909853126361423
0.07290577496134613 -0.14475906710068914 0.09131837784861653
0.07264605548675082 -0.14409744671603456 0.09072324422424966
0.07249998184502149 -0.1433020714699265 0.0909998685002287
0.07239213184932361 -0.14242082391203145 0.0913838049328105
0.07224004141086317 -0.141581327869903 0.09142074605972635
0.07201824577419969 -0.1408788487916749 0.09096815317376913
0.07188110861291028 -0.14008364391672332 0.09095210765385014
0.07183792789510185 -0.13943333553634377 0.09121242084586087
0.07180326926480557 -0.1387639829295813 0.09148108817021647
0.07141177253429251 -0.1372123852079482 0.09103449116301617
0.07168106568747432 -0.13784718149242745 0.09157188173432958
0.07153685382952499 -0.13691540376780933 0.0916591983388529
0.07125353379497877 -0.13628756763091399 0.09114063099081189
0.0710881319569648 -0.1353776779274542 0.09126232359773954
0.07106589468105234 -0.13477660509428147 0.09161956864082658
0.07065045520798835 -0.133158363550188 0.09111316373643007
0.07090292336400154 -0.13384324197873368 0.09170108263201246
0.0707543941448073 -0.13288094813688 0.09173972915251011
0.07053593505189602 -0.1321167844345093 0.09107964090269872
0.07045665314639855 -0.1310446864890303 0.09102484124184843
0.07045416224119852 -0.13026613799580974 0.0912344201016071
0.07044339417125492 -0.12937450919889576 0.09136051021991858
0.07043844170137543 -0.12847834174666894 0.09149305267760988
0.07042630514308136 -0.12756787927545615 0.09159542745471573
0.07040447765114353 -0.12667326050842312 0.09169618203895799
0.07037321364715098 -0.12580380723879359 0.09181195537204076
0.07031868136135541 -0.12493759267306634 0.09191563238051835
0.0702630357754853 -0.12418857590242541 0.09210328735809681
0.0698478464263214 -0.1225285151629155 0.09141764990895472
0.0700952322923965 -0.12327099380949083 0.0919683927224667
0.06992618476855433 -0.12225237841596326 0.09224700860788543
0.0696103774172526 -0.12163592233146668 0.09142871573048741
0.0694483370984186 -0.12081835558076648 0.09187487158385516
0.06885106028235011 -0.11939889585678878 0.09147085450038803
0.0691681931881091 -0.12002443851952664 0.091875413094081
0.06891690867227036 -0.11917117770628435 0.09225714245734909
0.06856261694321955 -0.1186263291646336 0.09154632810382388
0.06830895998317105 -0.11775738054055898 0.09192749012227276
0.06806094353304522 -0.11685034655460609 0.09229793733675672
0.06779696571122838 -0.11600484784847905 0.09232322222270434
0.067526276847811 -0.11524551349657326 0.09179015486029322
0.0673157894953013 -0.11431372048568295 0.09166743547670805
0.06720304890515527 -0.11356616110850884 0.09188033373137898
0.0670759241220193 -0.11268722603438532 0.09200857901648835
0.06696643539894195 -0.11178863331532653 0.09213427139276807
0.06684529736498336 -0.11085983726837643 0.09223885888363795
0.06672108156610171 -0.10992185657121284 0.09232670533678185
0.06658145630736322 -0.10895784307679748 0.09239726685512932
0.06641687295030449 -0.10799169716591273 0.09245600512246001
0.06624431849150697 -0.10703297474826991 0.09250194080963788
0.0660401430085074 -0.10605434218075775 0.09254553052723093
0.06578281560929278 -0.10507427745314879 0.0925965737927932
0.06549902479350453 -0.1041142342563412 0.09264571612412116
0.06516365536808012 -0.10314807978245391 0.09269296528832068
0.0647199895777895 -0.10218054171482514 0.09274560147479731
0.06415788522601773 -0.10119780525262052 0.09279458909569933
0.06356363304908065 -0.10017967181792146 0.09283784376857283
0.06296257701489592 -0.09913047106023334 0.09288719580900914
0.06246284746222076 -0.09815104088099115 0.09294821005075399
0.062210507588515825 -0.09741679188804936 0.0930018502320031
0.08165740853336706 -0.1720224803674931 0.09067151851769319
0.0817033800083066 -0.1716875242166654 0.09016174768480678
0.08192584477428295 -0.17084989801462327 0.09057376503990433
0.08207729103401938 -0.17014822074232905 0.09062013814612263
0.08217841198845457 -0.16885418787191045 0.09031571765949366
0.0822330208108349 -0.16946995967317832 0.09069942013675725
0.0823782826451457 -0.16861240750522993 0.09108079248442287
0.08204790729906311 -0.1680942684313807 0.09035440461130176
0.08118738088006494 -0.16668622437611788 0.09022878363676322
0.08152184764092865 -0.16688582980078281 0.0904465614279357
0.08175255490954866 -0.16732648852149695 0.09037553761305518
0.08136308647255774 -0.1658179633737587 0.09125068767168741
0.08069747481900592 -0.16541821150086844 0.09090697085115299
0.08156272488121763 -0.16645149006957596 0.09094818744574298
0.07948269309715777 -0.16434011522757452 0.09068792287495928
0.07994947334051321 -0.16433697350931842 0.09116255625763325
0.08017669834954634 -0.16483959810189697 0.09094074893762809
0.0787401004318222 -0.1631088414773434 0.09080214448106973
0.07924182325802508 -0.16338503859682524 0.09116247415859302
0.07958519026152004 -0.16394546504674584 0.09109215310984016
0.07900131055741397 -0.1627728489149412 0.09136443193195387
0.07858405469416921 -0.1624972001571838 0.0910166778970028
0.07799141428973208 -0.1615009099986952 0.09074225011543338
0.07826876686958714 -0.1618882011336403 0.0909456025881584
0.07831047769654646 -0.16114606987216662 0.09146264061288516
0.07789326345933513 -0.16085989181617777 0.09092427492925519
0.07748110864061039 -0.15946313803832413 0.09088565060100892
0.07775515903345115 -0.15996203051434238 0.0911668686693917
0.0777258479462536 -0.15912253766548 0.09158134803993336
0.07739068562800157 -0.15880860103461067 0.09101624963487856
0.07695192345282513 -0.15740576100703818 0.09090347998501988
0.0772233816519401 -0.1579479948011772 0.09119714044112098
0.07711122172076106 -0.15717822812667132 0.09161383643366572
0.07679693795404388 -0.15676960339552223 0.09105860653105319
0.07629629459709375 -0.15528468015172794 0.09104680103136109
0.07657688329950242 -0.15592199265398887 0.0913110342764231
0.07645754796277844 -0.15518054188905697 0.09180005869031727
0.07610125560254354 -0.15449734551254454 0.09128902696902667
0.07589171572896417 -0.15371509219711932 0.09153874073383528
0.07561571444992927 -0.153073502736965 0.09128250543361205
0.07537088036799199 -0.1522721758616353 0.09154012082340998
0.07516032614907853 -0.1516669509854914 0.09171009180582462
0.07486165726973684 -0.15106296414158596 0.09143262397827517
0.07461416782986696 -0.15026129866107155 0.09166467143148108
0.07443010530617646 -0.1496459771027652 0.091817710451418
0.07416276009603857 -0.14902680786054612 0.09152036752218416
0.07400152164039098 -0.14844815345504833 0.09164625252399713
0.07358582632261132 -0.14715237731262598 0.09141162057424129
0.07384662269669477 -0.1478314952073866 0.09177377045861361
0.07368427811946515 -0.14700991253099613 0.09218927807230418
0.07336839698721465 -0.14634178132931275 0.09148953523655615
0.07319855437383851 -0.14541131408295302 0.09201698862941847
0.07299759088210676 -0.1446394973850087 0.09208210984796324
0.07276384574528776 -0.14393930540349492 0.09171147901701648
0.07260552485042478 -0.14314744426793294 0.09177738357997846
0.07258865714181252 -0.14263824982082762 0.0922089916542491
0.07222441441073299 -0.14102977724064458 0.0917930728309039
0.0724574314885261 -0.14171540001562827 0.09233543738712023
0.07232820704690647 -0.1407986825103161 0.09239458501177064
0.07209767608383795 -0.14012307148542003 0.09183246900970315
0.07197611409773517 -0.13923253559846518 0.09187876952345418
0.07195067408026223 -0.13855324803491173 0.09214747291709154
0.07192675324621996 -0.1378513833469879 0.09243808839593769
0.07152234452194359 -0.13629519816011484 0.09201713291098718
0.07180404669027736 -0.1369050537621995 0.09254761999074426
0.07165013589947547 -0.13596511265830497 0.09263430738680697
0.07135670063247289 -0.13537772747896099 0.09212202540605488
0.07118529933357523 -0.13447212087322785 0.09222986073245479
0.0711557896236941 -0.13385658105532722 0.09257932195425518
0.07073991341502313 -0.13223728089025832 0.09205274533794598
0.07099119163812449 -0.13292272424006243 0.09264112221026861
0.07084371566546149 -0.1319539422391098 0.09266542115193656
0.07063274616541536 -0.13119699215286812 0.09200237159448969
0.07055727491114049 -0.13011898811906106 0.09195598894807552
0.0705697675194523 -0.12932750754683342 0.09221695086386465
0.07055221128738433 -0.12837294545818947 0.09233900396500724
0.07053065243374114 -0.1274653651166106 0.09241329983700033
0.07051425211241616 -0.12658130316257654 0.09253280796422993
0.07048002934441683 -0.12567688295741192 0.09263859955857495
0.07042420443897103 -0.12479721725935465 0.09274743103672783
0.07033350723248476 -0.1239102085855524 0.09285912942569781
0.07020012207363455 -0.12289078634511351 0.09311587491092368
0.06999836763856694 -0.1219777203892921 0.09305924744790814
0.06972705107135986 -0.12129072779914031 0.09257047986246295
0.06946114001448625 -0.12047099734911253 0.09254958581893569
0.06926289268069641 -0.1197140123615917 0.09296879523933589
0.06897921220040618 -0.11894162958899566 0.09304276717098839
0.06865435527413653 -0.1183063355998465 0.09264886417316034
0.06837237952259981 -0.11752131044297852 0.09272220568641217
0.06825888955356867 -0.11699553098780209 0.09312853774559393
0.06769627762705788 -0.11543053465541893 0.09269920967601375
0.06798869633534495 -0.11611974912253682 0.09326252142826046
0.06773142191897599 -0.11519774138442171 0.0933477187306127
0.06746052796130178 -0.11444315534249494 0.0926982277416567
0.06724551506135552 -0.1134078725537474 0.09265734075482929
0.06713446777153687 -0.11263740790112574 0.09288900313292606
0.06700331275967596 -0.11174402719587806 0.09302121599729547
0.06687711792901752 -0.11084742822987766 0.09315622240968016
0.06674067944210774 -0.10991546897335722 0.09326808613851188
0.06658319208308228 -0.1089646168269185 0.0933593990549476
0.06640974691020947 -0.10801311835924961 0.09342986013890225
0.06622529134779802 -0.10706187165912645 0.09348621009314875
0.066003704599323 -0.10608726086571008 0.09354371068404611
0.0657359192323175 -0.10511354171619053 0.09360478251693467
0.06544905523412975 -0.10415311756001822 0.09365849354198941
0.06512368655122383 -0.10318618415285535 0.0937131929958537
0.06468546110153828 -0.10222219375733498 0.0937728345148316
0.06412703673241 -0.10122660802611777 0.09382340539938021
0.06350284870764707 -0.10021581645978295 0.09387539320773283
0.06290269322176971 -0.09918911412516862 0.09393399814983376
0.06244404523736427 -0.09826559124781374 0.09401580502769565
0.06226718511969864 -0.09778174326532305 0.09425123882967068
0.08179692355753107 -0.17158892771289583 0.09106519750812414
0.0816892798410195 -0.17193610792385972 0.09165211118536419
0.08198575880455147 -0.1709774178848727 0.0914036431009453
0.0818676327745404 -0.17146555035205804 0.09196543506600262
0.0820808421604235 -0.17072729880368573 0.09211384972658877
0.08218081991627836 -0.17016769901592213 0.0913582303440622
0.08248615380490096 -0.16917203667822805 0.09181156565365914
0.08261547568432898 -0.16839608392957225 0.09185646565922907
0.08247908360354543 -0.16790196427638424 0.09148628636072582
0.08185740208248476 -0.1669145320546026 0.09092213772769596
0.08218969154669555 -0.16733520926621265 0.09117286002639528
0.08128219985595993 -0.16542266277857703 0.09149577072454086
0.08170259517174844 -0.16540378098502312 0.09202624295592306
0.08199572995448166 -0.16598068180946068 0.09196136834247567
0.08214981587459774 -0.166695777327432 0.09165893453182099
0.0803432969561795 -0.1645177322790817 0.09139325859383833
0.08080695870052716 -0.1646676327468584 0.09171700250305204
0.08125994668706775 -0.16507359638384914 0.09181383937104444
0.07971216565082834 -0.1635592470347671 0.09152464603531899
0.08019364251346915 -0.16369696725905666 0.09192194134459318
0.08047835370369189 -0.1642048969064978 0.09178481644371106
0.07900973167559891 -0.16227528322365745 0.09174766991393458
0.07948414140406289 -0.1625482815751513 0.09211365241491407
0.07981329496668117 -0.16316035233994905 0.09197146542498293
0.07923207449209117 -0.1619631704592914 0.09224759779036995
0.0788445571358366 -0.16155853972086598 0.09201146637675398
0.07860812452999816 -0.16074529428716744 0.09223566653842888
0.07825233331763128 -0.16026288227344118 0.09193833395391048
0.07806714940790331 -0.15940550837496198 0.09214196952824301
0.07792446260392426 -0.15878187466114954 0.09227801474093285
0.07763685607892579 -0.15829245420789728 0.09198513232340433
0.07739456328027247 -0.15757271996470307 0.09205636521487993
0.07728087017410383 -0.15693571743067292 0.09246736688039671
0.07694514643963249 -0.15644157887780027 0.09196053483646018
0.07676310482033741 -0.155705258047196 0.0922973047655546
0.0766063041194988 -0.1550492855374012 0.09265024971114973
0.07635486161460786 -0.15460762716541798 0.09221725326097577
0.07584451875054969 -0.15331179046274987 0.09202698704138955
0.07611977122716532 -0.1539071056846612 0.09232409744482893
0.07595034990249785 -0.15316851565336176 0.09278794642777792
0.07566417186702368 -0.15269811782998413 0.09220088089640997
0.07509557336831411 -0.1512996656378216 0.09216419153968237
0.07539647564191373 -0.15189148003742625 0.09244941006598724
0.07519012429541243 -0.1511545944606536 0.09291541589450682
0.07489533454235357 -0.150688341228009 0.09232597759365842
0.07437890325337841 -0.14924921654702844 0.09225089432542899
0.07465824372190176 -0.14987049021428456 0.0925534222381149
0.07449093259364994 -0.14909525392719444 0.09299710320104701
0.07416872275563899 -0.14853181198917023 0.09234754355752686
0.07399957448643507 -0.14761558772775787 0.09287714322502738
0.07378751186097977 -0.14683419541004447 0.0929698665661299
0.07351927849635759 -0.14615866507472264 0.0926142259096759
0.0733573780967676 -0.14550274251164824 0.09275152983537842
0.07296240453098536 -0.14416178505854157 0.09250515337550547
0.07320728035066185 -0.14483200489786044 0.09287713970008415
0.07307618440875945 -0.14394427193213805 0.09328177966922295
0.07280386727611905 -0.14335361876131603 0.09258210171216016
0.07271190988191706 -0.14248160432419155 0.09294487264822626
0.0726614151928263 -0.141797797925311 0.0932273369583423
0.0723203870008765 -0.1402029252118851 0.09271338132859547
0.0725514225166699 -0.14087160678914828 0.09328645682673165
0.07243605993001306 -0.1399234699868789 0.09331073792474225
0.07220537256470469 -0.13926575233186522 0.09273229068478935
0.07209928761746533 -0.1383387935156877 0.0928051596193912
0.07209386334747948 -0.13761352635562005 0.09313828715424186
0.07206809232114736 -0.13684509208889145 0.09344541741652305
0.07163024948766591 -0.13533714322864462 0.09298506994542793
0.07192127585493367 -0.13590903817483227 0.09350257330391717
0.07175806422014094 -0.1349936240289185 0.09358712812267657
0.07145522431904783 -0.13443990048141072 0.09307844741671542
0.07127325671080145 -0.13354249485529168 0.0931700156818032
0.07124738659099224 -0.13293383534961115 0.09349561773425129
0.07083708546590554 -0.1313224003686667 0.09294273162152908
0.07108830659192905 -0.13199773705977821 0.09353698607705963
0.07094522275247547 -0.13100466913167488 0.09352693558656908
0.07073302184516653 -0.13035415716924295 0.09283416662948094
0.0707267930472882 -0.12918540622171176 0.09319127423703583
0.07064714543710061 -0.1281783434416689 0.09303072767878921
0.07065088028495656 -0.12741565156768755 0.09324085418961249
0.07063246121110299 -0.1264688861120232 0.0933977836844372
0.07058417918314039 -0.12551578636634153 0.09347177924157744
0.0705173198562117 -0.12462721067885561 0.09355729407137825
0.07043757512323992 -0.12376766361943403 0.09374307929016075
0.07036269606475003 -0.12304440962728676 0.09401504675804934
0.06990978416345178 -0.12141454776115286 0.09341839221483997
0.07016861469000397 -0.12210790473188023 0.09400181144770002
0.06994550545417318 -0.1212126786237761 0.09402148978005008
0.06965313380034907 -0.12055035279343672 0.09349510684963504
0.06942826077493484 -0.11979784697501686 0.09369182129730731
0.06886123497796239 -0.11843897413950785 0.09344673668172099
0.06918632933340492 -0.11905677527539928 0.09391264489234785
0.06889845246515353 -0.11823550783094229 0.09405332932858303
0.06857673817283974 -0.11762242156276258 0.09359532617586475
0.0682980099861517 -0.11679034736539749 0.09374545222659236
0.06818543737139408 -0.11623440071766353 0.09416884974115308
0.0676225917718288 -0.1145865524480943 0.09369811088638055
0.06791110637865556 -0.1152831671004381 0.09430847932762525
0.067654634539784 -0.11431463472758993 0.09435949064765764
0.06738838057661573 -0.1135518196877371 0.09368595636796363
0.06716829883559876 -0.11248457273217952 0.09365771343370617
0.0670521922801697 -0.1117113338696205 0.09389133827056184
0.06691278575154716 -0.1108056221723085 0.09404083451847799
0.06675393428936928 -0.1098872954811539 0.09419224568667904
0.06657971057418019 -0.10894488933131577 0.09429706961935161
0.06639449409757009 -0.10800908883256997 0.09438075405303363
0.06619396095991484 -0.10706620596174733 0.09445459995445032
0.06595088061133506 -0.10609616423671436 0.0945281637147685
0.06566795329067271 -0.10513563520747751 0.094598411779594
0.06539882606841652 -0.1041794277937932 0.09465292796783739
0.06507800631017753 -0.10321152143695372 0.09470908824308198
0.06463647746865579 -0.10224411440045933 0.09476622354206608
0.06405453270811615 -0.10125962052639648 0.09482829200451962
0.06343016029505218 -0.10027084973380507 0.09489216047029142
0.06287347399316436 -0.09925686503320447 0.09495453735770397
0.06247329376373164 -0.09839113476885024 0.09501354386955986
0.06232927913830057 -0.0979894339026501 0.09504225998734174
0.08171352640151941 -0.17185585460683567 0.09290431934036775
0.08195106740910127 -0.17124203102752064 0.09269564714941578
0.08215272678051068 -0.1706021318394611 0.09296430258760233
0.08234259271920569 -0.1699440014627441 0.09235582113741393
0.08258841699397645 -0.16928988714364823 0.09270491891116094
0.08271974488774744 -0.16793350156777836 0.09225294751708088
0.08273219713632364 -0.16854320806111495 0.09268641230264177
0.0828151436829273 -0.16776580679438635 0.09304269726642625
0.08257120086513627 -0.16725467687107606 0.09223905094001006
0.08206155354959613 -0.16555221687128963 0.09237301108121439
0.08232768616909115 -0.16566251590635772 0.09280361861784105
0.08251737369512589 -0.16637072526586535 0.09274848611101674
0.08127528377670172 -0.1647421494944431 0.09214766700638158
0.08170548135211692 -0.16482886162776855 0.09259593919743844
0.08207471549942867 -0.16523580726540119 0.09273794697655756
0.08065192599961417 -0.16386993874443234 0.09224647900468665
0.08093447846816501 -0.1641030856709118 0.092344560332946
0.08131130025486254 -0.16442737719041361 0.0924751761318362
0.07992088406192424 -0.16274290186831059 0.09246813693126042
0.08030877426305554 -0.16296898040237878 0.09271539103835413
0.08095402099956171 -0.16346537458257782 0.09298384359236204
0.07924521146089708 -0.16163613334807964 0.09251040723251516
0.07959273645935949 -0.16175503067272717 0.09289873377377582
0.08010236602879008 -0.16226932874589872 0.09311725684848915
0.07864151869349804 -0.1601887875258156 0.09269049973546298
0.07902900985015252 -0.16056478495465643 0.0930654684820009
0.07929503780073108 -0.16123805738174304 0.09291785615132966
0.07881968232254262 -0.1598675957302647 0.0932640974341127
0.07848718891870884 -0.15950132899097044 0.09295149591457841
0.07793165907377751 -0.15829426796031631 0.09273851770118359
0.07819209597544083 -0.15878727109607435 0.09293397585433359
0.07812779482044546 -0.15809233749206553 0.09348779169741962
0.0776873149846727 -0.1575154255916816 0.0929887807206757
0.07742023505256196 -0.15673864790409117 0.09320351113460253
0.0771089345906108 -0.15615888000634448 0.09295720115574425
0.07686722215392955 -0.15547217121897525 0.09307790833996041
0.07674299572181496 -0.15490566483234555 0.09349017107158714
0.07644351301129944 -0.15439427659817717 0.09300761683908909
0.07625093450847889 -0.15367398433536736 0.09334785089787626
0.07605828113557504 -0.15294940184574074 0.09369215871981595
0.07574760917900115 -0.15243842951581846 0.0931278702384302
0.07551748973372259 -0.151668865046437 0.09348374153000939
0.0753015867630132 -0.15091868853455384 0.09382475174472082
0.0749876582964296 -0.15041273945636974 0.09324394620625771
0.0747938533835883 -0.14962343857511223 0.09357799322941159
0.07461209132488615 -0.1488496921244142 0.09389969341814063
0.07431847367682175 -0.1483251170502816 0.09336305686064868
0.07420193552559548 -0.14767868889865154 0.09374134238609343
0.07372748524940011 -0.1463292196869136 0.09340430882104023
0.07399576172008382 -0.14694299872831082 0.09377051132088396
0.07383851670365928 -0.14607644679779686 0.09417804156684362
0.0735252744641583 -0.14552989438678043 0.09349034742052274
0.07337366391578234 -0.14449703205565306 0.0939973648741579
0.07319402667548808 -0.1436847930986648 0.09405273254584105
0.07296816152361872 -0.1430368174513762 0.0936338292395052
0.07282847815380832 -0.1422547936642916 0.09364099723789283
0.07278781406932644 -0.14160022688596777 0.09389256078759443
0.07277075856092867 -0.14091869404007712 0.09415510987476453
0.07243911399554971 -0.13930434147534465 0.09360252393576496
0.07267474593864794 -0.1399532940608384 0.09419347880038213
0.07255820095773555 -0.13895787751899089 0.09418151242972246
0.07232372043675982 -0.13842042910233085 0.0935706031102353
0.07231832280530438 -0.13733756693497676 0.09403283515997524
0.0721930769213262 -0.13648975151793585 0.09402217243950578
0.07219821055851618 -0.13585707155782242 0.09437743917539838
0.07173128554040403 -0.1343799140982079 0.09391873096412541
0.07203443840034249 -0.1349171994078583 0.09443867936757182
0.07185205100744284 -0.13404730991504976 0.09447955244743941
0.07154701611447356 -0.13351620035613737 0.0939805762082257
0.07137169759359213 -0.13263374288536678 0.09405939452377653
0.07136016354261539 -0.13200333052448793 0.0944083673795731
0.07092863043762178 -0.13017329195049976 0.0938133062649996
0.07118805496100367 -0.13107426008480313 0.09436261960379978
0.07090992233467718 -0.12936716856579758 0.0940661790415352
0.07113227890531802 -0.12994348165508923 0.09472728218527596
0.07100132555527133 -0.12902570902296712 0.09459723268305531
0.07080846126077449 -0.12840767198999334 0.09388183200991676
0.07079410930620644 -0.1273465934037248 0.09412502548054656
0.07076552550979079 -0.12626077205118597 0.09435349336144462
0.07066209180059642 -0.1252824349229493 0.09416388073752692
0.07062145188539645 -0.12452454994136648 0.09440810650014142
0.070536741034875 -0.12365301163373343 0.09457694413598405
0.07042249503328592 -0.12285202972962486 0.0946972408964368
0.07031958376958965 -0.12219488743751612 0.09492170048804445
0.06984011756723053 -0.12068306726536472 0.09438623742262912
0.07010470043805997 -0.12136411891784618 0.09485860888197184
0.06987743854108876 -0.12044135229808872 0.09517663190816399
0.06957747382806932 -0.11988050165875144 0.09442621158835113
0.06936749766380462 -0.11911485529052691 0.09484716265746351
0.06877263768287975 -0.11770688752859837 0.09446729182176092
0.06907541308778578 -0.11832317814438795 0.09486836432618165
0.06880627148068628 -0.11741952016876361 0.09527879805692129
0.06848966743024765 -0.11690347934168535 0.09455590608349522
0.06824635291190623 -0.11599349125220107 0.09495114800277467
0.0680732283986883 -0.11528795054270452 0.09526565899073151
0.0675431354264211 -0.11367574540798585 0.0946941369462577
0.06781821334749707 -0.11436228434953788 0.09532702848252304
0.06755953548296204 -0.11339951223544234 0.09534193295481859
0.06730210799542362 -0.11264408117354476 0.09466468540003704
0.06708533871821831 -0.11157219961397323 0.09464723025067484
0.06695112011673705 -0.11077489339619076 0.09494715992198367
0.06675862137963452 -0.10981972488790825 0.09510277449456817
0.06657779576039254 -0.10889006370737588 0.09519499009534556
0.06637477040006975 -0.10797128852458292 0.09531715959742514
0.06613929682240856 -0.10703240771611659 0.09540833910558251
0.06586870519957186 -0.1060911499048288 0.09549330001356758
0.06559478545681735 -0.10515153025293143 0.095568893873242
0.06533019594086659 -0.10419827746281583 0.09562490423755299
0.06500420184640067 -0.1032303442016083 0.0956786932530074
0.06456805729834778 -0.10226278200809506 0.09573448171316956
0.06398263361750615 -0.10127944256579556 0.09580546577201203
0.06338505590623858 -0.10028808988453075 0.09587527996768616
0.06286061319155715 -0.09933970556919478 0.09591968186615943
0.06256568360923986 -0.09863954443826113 0.09577490146920636
0.08149935775578925 -0.172268853030837 0.0937837081557073
0.08144642417144236 -0.1723846279620394 0.09425053339334685
0.08150658590765361 -0.1722339041662884 0.09417140327613958
0.08162309796243991 -0.1719986619073103 0.09374820266934275
0.08187766666622916 -0.17135470576070636 0.09356440904912228
0.0821486562081828 -0.17052589537035442 0.09386563992223797
0.08244851189668377 -0.1698460288288155 0.09324410428128213
0.08267037263734066 -0.16910720453734895 0.0934822058004798
0.08282557167067225 -0.1683686127014899 0.09372428222705283
0.08288854177524219 -0.16762503932295628 0.0940418987161391
0.08280324279816137 -0.16701821196245942 0.09337446582065939
0.08280346977435346 -0.16631479056256165 0.09383418216779874
0.08261358948419974 -0.16581587767538053 0.09344359127841495
0.08208334944360043 -0.164940925170603 0.09307781149658133
0.08242554582665679 -0.16516117673594366 0.09359702002470688
0.08135623122858034 -0.163984493754576 0.0929369187499454
0.08173358234472435 -0.16427601869483144 0.0931610522591738
0.08208700200752907 -0.16462895845402184 0.09341001546522995
0.08144204220131811 -0.16296077979753648 0.09415461663321267
0.08086248484387012 -0.16247998285009255 0.0938740746649277
0.08171427744326279 -0.16368194049665102 0.09378579386511571
0.08048625056507633 -0.1618640383870618 0.09400708775035521
0.08008437656226552 -0.16151810645581155 0.0938043445623524
0.07937929422155286 -0.1608146541981413 0.09341686444756606
0.07967431675146215 -0.1610769414382855 0.09363655331176145
0.07879088564859282 -0.15937386786514052 0.09366187513391917
0.07910540266005564 -0.15971997349719771 0.09394933859411754
0.07952841995425912 -0.16037183571138802 0.09406994406156896
0.07892222678225735 -0.15913968966478562 0.0941485237421222
0.07859831658821655 -0.15865952941435288 0.09398708695707347
0.07829969925965871 -0.15788849706124006 0.0942249726200672
0.07799021333094393 -0.15739938168859294 0.09404183654678895
0.07735345864023833 -0.1562695415445952 0.09369977630142937
0.07765067068627825 -0.1567901565406903 0.09389285150387844
0.07750690959991152 -0.15612052164939938 0.0944527169304587
0.07710682489753559 -0.15550995749111862 0.09397675170448744
0.07685078826916922 -0.15476818997492348 0.09421479119189718
0.07657098721569024 -0.15418650657515198 0.0939927115936406
0.07633987156995438 -0.1533857523030087 0.0942651008031226
0.0761489367537464 -0.15276607033433612 0.09445055063787537
0.07586185597077881 -0.1521871734506541 0.09416985104248786
0.07559751002862934 -0.15134749600189756 0.09443019446982649
0.07539754745610953 -0.1507123808493601 0.09459912919108847
0.07512245279840249 -0.15012990784614885 0.09429311106780619
0.07489093647906844 -0.1492589776637471 0.09451037792147915
0.07471049444240918 -0.14860791201539347 0.09463241621997982
0.07446113683643943 -0.14805855409855645 0.09432848215336985
0.07425948368297862 -0.14733976281824376 0.09438366679554036
0.07415106958977521 -0.14657384553609076 0.09483317961956336
0.0739542817842989 -0.145797145335658 0.0949461334858079
0.07369689673464205 -0.14516616717618763 0.09460637957344575
0.07355406811466324 -0.14446841637843696 0.0947520784652795
0.07317065819538435 -0.14313971660831826 0.09440919460620222
0.0734254014122016 -0.14372140762939842 0.09489119064264606
0.07327030671551021 -0.14288549273707407 0.0949625255519691
0.07303812963188534 -0.14228415766427285 0.09445685327516992
0.07292739884533325 -0.14141445974213523 0.0945255366734803
0.07292668735335447 -0.14071470627530053 0.0948196064915918
0.0729287551204123 -0.13992986073807426 0.09512085401414723
0.07255815613563697 -0.13814708261356468 0.09449719506199504
