# .PCD v.7 - Point Cloud Data file format
VERSION .7
FIELDS x y z
SIZE 4 4 4
TYPE f f f
COUNT 1 1 1
WIDTH 791
HEIGHT 1
VIEWPOINT 0 0 0 1 0 0 0
POINTS 791
DATA ascii
0.06693082644167278 -0.11920983611620212 0.08129643895937474
0.06672812278054806 -0.11839068417259176 0.08153062605209252
0.06640175237915431 -0.11759070530771959 0.08074996908511055
0.06624391277337828 -0.11673735497781144 0.08087391544071369
0.06613199240631401 -0.11590065637667786 0.08096928928412805
0.06607109575731866 -0.11505023311464777 0.08109431957867616
0.06601739725809919 -0.11413997038400031 0.08118807763012209
0.06596560972711861 -0.11320033263361047 0.08125540785095978
0.06591361432244665 -0.1122516172373587 0.08129890666337336
0.06584313382833093 -0.11130009173356258 0.08132859704816439
0.06576914061288128 -0.11038458991327367 0.08139176433357864
0.06566448913972125 -0.10947000689940967 0.0814163456975837
0.06554408020535332 -0.1085411360977132 0.08147629567849571
0.06547802150105866 -0.1077756363415058 0.08166183296363748
0.06482811237602444 -0.10590253652262886 0.08062294660672667
0.06524159514531645 -0.10682039490676654 0.0813913774789927
0.06468374890169645 -0.1049474531135758 0.08073130339285618
0.06509671269146215 -0.10576246019627984 0.0815267371133448
0.06450594257436841 -0.10398406437064263 0.0807605731209839
0.06492515572799797 -0.1047724622736536 0.08158169288874861
0.0643127938839402 -0.10303994225373794 0.08070673867464093
0.06472784803156129 -0.10377191823651989 0.08156068990124772
0.06411415785474603 -0.10227723912977676 0.0805478201463291
0.06444311450378852 -0.10264226761469442 0.08139632002152349
0.06420786089323001 -0.10159901898197479 0.08145269466700279
0.06387620471149676 -0.10058053471573807 0.08143368528808667
0.0634783785120896 -0.09957172840469203 0.08144353171014251
0.06305459079920302 -0.09858279975457163 0.08147845049596185
0.06262296803777007 -0.09757637807247782 0.08153714393583739
0.06215751256043996 -0.09660049644129849 0.08161277717418232
0.06174351317892225 -0.09569548537911512 0.08172790263201182
0.06149343269161431 -0.09491935159401561 0.08189715205320734
0.06139832409332704 -0.0945525547538284 0.08199360655190066
0.0747844469944663 -0.16628833640420304 0.08120039331480167
0.07429566507132992 -0.16571727633453304 0.08064814120958003
0.07424038647592424 -0.16516161843373922 0.0807825273469409
0.0738894663804868 -0.16448520382670975 0.0801923345906959
0.07401274781300154 -0.16368550172698512 0.08059944182799703
0.07412721917587765 -0.16284992635151208 0.08097749111153019
0.0739175360019076 -0.16207509870799836 0.08028938289998064
0.07400643527871893 -0.16127491051804677 0.08058006045338861
0.07406189049133843 -0.16051056271704595 0.0808634912100678
0.07406664782339267 -0.15980798111042316 0.08115228395380049
0.07395169319319811 -0.15893561649655605 0.08050611891476887
0.07394913271400873 -0.15802037099178004 0.08078762137293835
0.07389401088197194 -0.15719301698221316 0.08055067527537071
0.07399089756678659 -0.1574137504829168 0.08131437556575988
0.07389289986801839 -0.15666763173612075 0.08072181968817393
0.07385389480443982 -0.15592465784738418 0.08081805752878542
0.07381743449600418 -0.15508187240113133 0.08094023111001128
0.07373497787755758 -0.15431937341921426 0.08106210295243162
0.07367835007110854 -0.15377957104166626 0.08120718006594667
0.07356634021019215 -0.1529743680987134 0.08094043892339946
0.07341885543707857 -0.1520008833676544 0.08108680472360275
0.07326606760007498 -0.1512015398122798 0.08081984586960476
0.07329463887387841 -0.15143220715537706 0.08158006397078274
0.07314487095715322 -0.1506999642433922 0.0809901940055233
0.07296995675477032 -0.1499991747439637 0.08112414647679397
0.0727665672322882 -0.14929064435660236 0.08127822224557102
0.07263099277004927 -0.14877638366464807 0.0814361824964496
0.07245429227307766 -0.14801585156696745 0.08120086365869113
0.07220288621020626 -0.1470837258568898 0.08139586724170493
0.0719604053656987 -0.14630447749445014 0.0811394409053484
0.07205651613689397 -0.1464799454472843 0.08186659635196461
0.07180522185249086 -0.1457527273393185 0.08127779503089058
0.0715921842177401 -0.1450348940338342 0.081429490762003
0.07139500934966558 -0.1443255787739499 0.0815752793442042
0.07125503081106695 -0.14378272864527086 0.08171460494371334
0.07100046629679652 -0.14300993355194114 0.08147947873031945
0.07076656216042969 -0.1421940355611606 0.0817666306546529
0.07059504780311279 -0.141489366808214 0.08207514521432031
0.07034933573382154 -0.14064681618818864 0.08138824161698953
0.07018406619524191 -0.13982128906384655 0.08156232130524341
0.07000110813031274 -0.13889197838378722 0.08164846635695373
0.06987268326810583 -0.1381370771085699 0.0814524466557993
0.06991012102424035 -0.13846505949377316 0.0819965122482654
0.06981517992738087 -0.137730964435763 0.08179149110537053
0.06972526695670155 -0.13683314254439138 0.08180110729817366
0.06963719771475897 -0.13592343612578145 0.08183190648098931
0.06955752696437804 -0.13500708563323968 0.08187780197716882
0.06946396661511862 -0.13411013515294376 0.08193750626914244
0.0693683070844408 -0.1333029386737695 0.08196691353329681
0.06929729597797558 -0.13271305162146702 0.08203306938561784
0.0691570681138367 -0.1318785206165924 0.08170558876807206
0.06903222941782754 -0.13093395721848675 0.08182991533102046
0.06892572373395346 -0.13005568100103024 0.08195386879456672
0.06883655327067689 -0.1291968320056466 0.0820878074930935
0.06874956963735508 -0.12834823874767914 0.08222989647840022
0.06866731363479099 -0.1275027646490605 0.08238002877860752
0.068413154841325 -0.1266375420681423 0.08156513365317684
0.068330466373383 -0.12578796963350797 0.08171072807991714
0.0682493242600334 -0.12493424806164063 0.08184950962439604
0.06816462735616277 -0.12408485727979045 0.08198357400081109
0.06806496952818605 -0.12324652319975565 0.08213730507453192
0.06793684276687288 -0.12242617317267086 0.08231138483524184
0.06778565239150734 -0.12162995175235809 0.08251143452554155
0.06746781418176495 -0.12080559235302561 0.08175482110716326
0.06728413606949177 -0.12003116387396522 0.08204064111680172
0.0670882267487993 -0.11919640013992641 0.08242199425631197
0.06683859012683648 -0.11835093356458068 0.08235883223264476
0.06655159715799544 -0.11752148203722301 0.08180082632714716
0.06635563139872858 -0.11662684012167135 0.08164435749864855
0.06631032032642697 -0.11594804606428279 0.0818912278941555
0.06624680160829988 -0.11506476156972599 0.08205476462056775
0.06618268973964955 -0.11413133452796735 0.08215763982551653
0.06612898022092928 -0.11317563990181402 0.08221785557160291
0.06607018706659858 -0.1122107733214591 0.08224870831036854
0.06601163616104345 -0.11125319882157785 0.08227468829322256
0.0659307633671715 -0.11030527535930007 0.08230041980617382
0.0658362465644453 -0.10936812122306776 0.08233049279243186
0.06573415263391268 -0.10846455367401762 0.08238753051120803
0.06560059160226163 -0.10755188794904001 0.08239365800194944
0.0654512357461656 -0.10658944972390343 0.08239537695840198
0.06530375439284491 -0.1056074958146722 0.08244573617555559
0.06512379350235607 -0.10462872692586865 0.08246877263971435
0.064921429624795 -0.1036191318117699 0.082447125470532
0.06467722610263797 -0.10259009389814541 0.08243105291816914
0.06441210294219088 -0.10156606362599364 0.08243449367849523
0.06405168675888202 -0.10056690486774068 0.08244104969696345
0.06360503265200274 -0.09957111246695079 0.08245999418225727
0.06312557290795788 -0.0985814131861047 0.08249763989787029
0.06264574103669121 -0.09755195335977275 0.08253941263805441
0.062146047468794346 -0.09655052319038605 0.0825987118474406
0.06174636805372643 -0.0956353550161685 0.08268614045245382
0.061552223407747235 -0.09498388621343623 0.08279199622138853
0.0771690672501691 -0.16848806336794558 0.08203657891287634
0.07602796958334519 -0.16730252870678805 0.08206627818055791
0.07534949808496856 -0.16680505186785408 0.08166920841938778
0.07513500711559974 -0.1663473560724613 0.08183348898994645
0.07466115171061613 -0.16578414678046696 0.08133235112672699
0.0746212348950325 -0.16507811961579674 0.08173981117715333
0.07427594585139279 -0.1644159757339832 0.0811900719817585
0.07434105492565886 -0.1636166929823758 0.08160006915036107
0.07440643331010409 -0.16280393298500342 0.08197216246225411
0.07417690601510077 -0.16204310403862157 0.08130104828368737
0.07422741754806265 -0.1612580232904914 0.08157595662119899
0.0742252202765963 -0.1605207648174246 0.08175587459825816
0.07422043589253506 -0.15994544195213697 0.08190417491708792
0.07412471480344 -0.1591320700546515 0.0816547084873928
0.07412888714267325 -0.1582520078902877 0.08195261014937993
0.0741314510907997 -0.15751436731928634 0.08226383357438373
0.07399265726232268 -0.15672459755281662 0.08157457626852443
0.07395901090651319 -0.15594526085320767 0.08177051251142436
0.07390250152926808 -0.15506343847774004 0.08196786620719963
0.0737863478665122 -0.15428219941025123 0.08170238451744793
0.07389215146337297 -0.15444732554094812 0.08244558333773677
0.07373522115323218 -0.15371124126802488 0.08182881850773369
0.07361855785115497 -0.15295734188098353 0.08194917649633053
0.07346964085516747 -0.15223771642014017 0.08218409784865446
0.07333669904739172 -0.15162991036071966 0.08247755112866056
0.07315163394649439 -0.15081767396948403 0.08187786810350202
0.07297115229816246 -0.15003752391941638 0.08214279795062226
0.07277011040931118 -0.14926904465975896 0.0819105882657515
0.07284981397918772 -0.1494766323891707 0.08263385657254377
0.07265736830280688 -0.14873861223309875 0.08205235186324601
0.07249349023645525 -0.1480142268803043 0.08220830219790952
0.07230531776824577 -0.14727996719647835 0.08246464831637178
0.07213566156877765 -0.14663174360031173 0.08276176965273943
0.07187483815274855 -0.14582203255029005 0.08217187200911284
0.07166290335937461 -0.1450082031787087 0.08243679502505293
0.07143260030186924 -0.14424688775707253 0.08219168513431158
0.07153401439052487 -0.14439311709199865 0.08292152893364933
0.07127731884099424 -0.14369708496870331 0.08233286691687725
0.07106005448146613 -0.14299609415523062 0.08248755975552893
0.07086549613963933 -0.14228575062428406 0.08272333098372234
0.07068378754422026 -0.1416205869932228 0.08300340308288176
0.0704163183274109 -0.14075461014195867 0.082373781761016
0.07021263137514829 -0.13985780389092248 0.08265809221500622
0.07000782753437482 -0.13900855704594572 0.08243349106127942
0.07009258537520313 -0.13926474986653187 0.08318833837295724
0.0699288738270611 -0.13847815181157028 0.0825966613412239
0.06984814511225923 -0.13772439576451895 0.08266221996946312
0.06976933129960292 -0.13686764531693402 0.08272835073306414
0.06968990608598792 -0.1359707463756456 0.08278847098295754
0.06961205184996988 -0.1350524515399949 0.08284819901107976
0.06951772846734315 -0.13408507736646688 0.08289856058007494
0.06940838917776279 -0.13324693698278714 0.08256244359622567
0.06947800799715745 -0.13348713439033572 0.08327719303935849
0.06934068445002159 -0.13267633363286296 0.08266006014439922
0.06923858356154988 -0.13187647128984675 0.08273861010195732
0.06913500329670492 -0.13098107046788476 0.0828354122822914
0.0690526614503355 -0.13009900102075797 0.0829433217804262
0.06897320580421057 -0.12922858562080805 0.08306951219728956
0.06890114138797378 -0.12836808479371414 0.08320198162574115
0.06882582054481047 -0.12750553752561797 0.08335203947921699
0.06858250761119779 -0.12665244468134573 0.08253411357282801
0.06849141806793109 -0.12579898456389432 0.0826754003219169
0.06841023272309943 -0.12494835520108284 0.08280816471147705
0.06832160240852253 -0.12410534387553791 0.08294667112941287
0.0682090490878498 -0.1232741443072759 0.08310330675597612
0.06807843301943813 -0.12245951605470316 0.0832806076319942
0.06793275471996628 -0.12166520438066712 0.0834893552823376
0.06762152734553067 -0.12085655634935497 0.0827534869477722
0.06744887734197626 -0.12011375132751799 0.08304421759937229
0.06731717342154442 -0.11952383229291584 0.08337365025791797
0.06678260082448546 -0.11789091706233162 0.08273136910047467
0.06706985418051457 -0.11869995733568911 0.08327942189340713
0.06689793623760175 -0.11783330871056454 0.08355538570446755
0.06658401769320264 -0.11698251635077352 0.08262287654928503
0.06648219341438948 -0.11602091541151355 0.08289835890482102
0.066398162184899 -0.11508805258634333 0.08305218438705599
0.06632153298573883 -0.11414031416448986 0.08314235002805513
0.0662632979731334 -0.11317915318509554 0.08319516114268327
0.06621466985608242 -0.11221089507207832 0.08322457720074644
0.06615256155833028 -0.11123939885560442 0.0832433435092445
0.06608040536955709 -0.11027212864072718 0.08325497710609697
0.0659890600404265 -0.10932276131715686 0.08327819243704322
0.06588198019247418 -0.10837722707600908 0.08329927091798543
0.0657521626558295 -0.10742680853897293 0.08331758218881548
0.0656234762601553 -0.106468070354445 0.08334829510371738
0.06546556294867127 -0.10550067029259172 0.08337970886358931
0.06528375285777363 -0.1045360147040998 0.08340413423055619
0.0650896737492177 -0.10354602527226253 0.08341306646491295
0.06484563860208573 -0.1025430340107204 0.08342440135420687
0.06455309821513726 -0.1015500645656577 0.0834405568489911
0.06418330450741351 -0.10057678925920857 0.08346479629052826
0.06371820953939386 -0.09958826955089718 0.08349569735235675
0.06319328195525799 -0.0985867186602967 0.08353451025806521
0.06267133483411544 -0.09755581579849221 0.08357309790792024
0.062161385267449236 -0.09655426605825689 0.08362424811362826
0.06178132130657256 -0.09567346960661785 0.08371186807449527
0.061634186431383124 -0.0951800344109102 0.08398076147392261
0.07842393304339983 -0.17002579016515612 0.0821142718326568
0.078554593221387 -0.17007119295094558 0.08227922148597556
0.07745341918956582 -0.16888061018044181 0.08193759782127928
0.07786899653141915 -0.1691962795265721 0.08216330880881904
0.07843163026214578 -0.16974505730118683 0.0824157928705966
0.07730470152580507 -0.16825617319153124 0.08250258570828299
0.07674637698501925 -0.16788093071310672 0.08226950685910071
0.07760283049689613 -0.1687708771476952 0.08228543909232887
0.07655439693650844 -0.16735336532716288 0.08274642229855769
0.07575798490580624 -0.16684643881325603 0.08229483073931292
0.07555068854476746 -0.16622702974414652 0.08274370669488754
0.07503112601060259 -0.1656898406223949 0.08225022398974725
0.07497512653730577 -0.1649597246967914 0.08272345593491032
0.07461094010535471 -0.16431965328158685 0.08218352907978353
0.07466217585420352 -0.1635342072331734 0.08259223750396871
0.07468381300200908 -0.16274066704830284 0.08296930978645543
0.0744400878670561 -0.1619916247626056 0.08230570844783035
0.07444560300103498 -0.16111058038999776 0.08261159792183906
0.07435670999550495 -0.16038124115518815 0.08239268673100777
0.07450389344667997 -0.1604474123120595 0.08313134233386699
0.07434386575858813 -0.15979282887357563 0.08254270306417263
0.074299344916436 -0.15904898758114655 0.08269486209836363
0.07429773945492205 -0.1582941736634984 0.08293796785682857
0.07427533625421584 -0.15756105652581634 0.0832052438298813
0.07411418011302959 -0.1567746971254512 0.08252045419800111
0.074084568491591 -0.15599690916159165 0.08277202329530392
0.07404678219255001 -0.15525186912182648 0.0830681020225227
0.07398772126554172 -0.154538718915946 0.08338419804784954
0.07380213927587116 -0.15375624442642774 0.08270375896847239
0.07366642576356397 -0.15302341480849807 0.08291899552640704
0.07352130838496182 -0.15234148586985743 0.08306326201749897
0.07339968906475829 -0.15182545468594977 0.08319449149408685
0.07322037157018593 -0.15106914107267727 0.08295233688421363
0.0730549353761658 -0.15028145346637323 0.083225331457349
0.07290685738469507 -0.1496384376907157 0.08353892502182121
0.0727126579476333 -0.14884137399299213 0.08294065193806402
0.0725464350621486 -0.14810409884080167 0.08320291520905507
0.07235483117715605 -0.14736396129929852 0.08335525891846922
0.07221999616218701 -0.1468079738177905 0.08348590379217408
0.07201122162854512 -0.14602824970037565 0.08324519097850222
0.07181186404408084 -0.14519230245532527 0.08353871525221161
0.0716308549188933 -0.1444749086231438 0.08385070948136117
0.07135083476613509 -0.14372678233162933 0.08318637698198425
0.0711481934729362 -0.14301679955260227 0.08341075443067467
0.0709408037590576 -0.14232899328579246 0.08357426288397082
0.07077261822413404 -0.14179187941387925 0.08372267989340659
0.07053174075127486 -0.14099734008949966 0.08349648809468438
0.07032912746481894 -0.1401454656880099 0.08380854915337826
0.0701846673129102 -0.13941136463733328 0.08411316430465811
0.0699937632299219 -0.13856926921769788 0.08342488394371568
0.06990417992985619 -0.13777402938812935 0.08356362629785154
0.06982800948186511 -0.13691526379507943 0.08366394958735332
0.06975095226280915 -0.13601879300958702 0.0837477640987593
0.06967383286227159 -0.1351078016074475 0.08382195660834457
0.06959258996920455 -0.1343017038492958 0.08388589981860081
0.06953428284198324 -0.1337345092484212 0.08399213845224104
0.06942280019429782 -0.1328972066383041 0.08367004266222364
0.06932105387168473 -0.13193903652572833 0.08373958146135414
0.06924299640125865 -0.1310301463736732 0.08382611795527999
0.06917422850823443 -0.13013823989686044 0.08392626125133369
0.06911579043243363 -0.12925426574388973 0.08404454282208287
0.06905862017665385 -0.12836839685646198 0.0841797495923997
0.06898948791186758 -0.12747317404247688 0.08432246503842888
0.06873908839304313 -0.1266378284917165 0.08349959685481795
0.06865662715628273 -0.12577518353592887 0.0836264236412662
0.06857020034612374 -0.1249269224834478 0.08374950945120554
0.0684677340570842 -0.1240969834901214 0.08388436701007729
0.06836033972994503 -0.12328036524421518 0.08404477060306821
0.06823054940684793 -0.12246922118941043 0.0842354622549428
0.06807557915520712 -0.12166873892755148 0.08444977198982223
0.06776842135350594 -0.12089470393940498 0.08373021179721765
0.06759503779197681 -0.12016261490687609 0.08397384597435753
0.06740325904013986 -0.1194181605432975 0.08415576011262832
0.06720799284998433 -0.11861627640593198 0.08433222550718995
0.06702608934759957 -0.11777748523071692 0.08455563352403112
0.06674329370381948 -0.11694192669483798 0.08373968759351465
0.0666221940529174 -0.11602790423338163 0.08392087245722979
0.06652397462154053 -0.115102302726566 0.08404676579677814
0.06644786654120392 -0.1141639546260532 0.0841299993596349
0.0663881656270969 -0.11320914625208525 0.08418527720510695
0.06633390153231998 -0.11223670459491694 0.0842180762185006
0.06627639569353641 -0.11125477677171887 0.08423001738686656
0.06620264879384802 -0.11027399382644702 0.0842373876526901
0.06611003563474924 -0.10930174245716487 0.0842491467543886
0.06600196025738957 -0.1083320172691299 0.0842631214352232
0.06587983387038555 -0.10736912693049876 0.08428644734017333
0.06574927392485903 -0.10640692255572431 0.08431532205024016
0.06559098733763696 -0.1054507064996949 0.08434841894585719
0.06542781675314718 -0.1044879413322362 0.08437738797829922
0.06522747526532235 -0.1035032009787226 0.08440122649164288
0.06497570020476676 -0.10252456689436942 0.08443144390113654
0.06466453981935594 -0.10155208131165858 0.08446368044735007
0.06428087007911097 -0.10058953190168948 0.08450181764194993
0.06380156420048279 -0.09960856540369793 0.08454038491328066
0.06326039357530058 -0.09861575718880447 0.08458327357954554
0.0627377280938807 -0.09759129830822498 0.08461787190912726
0.06223228832469148 -0.09659479747396942 0.08466255900405434
0.061853664073890674 -0.09572747713511265 0.08475851691695553
0.06168045367030639 -0.09525027057131605 0.08503502718622134
0.08015956469920095 -0.17163410588457972 0.08401466551735227
0.07950786988052343 -0.17045917508520628 0.08364939079921857
0.07893070225860885 -0.1700419601959493 0.08294022562660057
0.07878492616719615 -0.1695519134633347 0.08323393184248316
0.07819056307395054 -0.16913734752543902 0.082739197470708
0.0770611697310714 -0.16783101830371405 0.08274623018713104
0.0774858141866599 -0.1680276365744142 0.08309585468345822
0.07793194808358392 -0.168492406043512 0.08314993262390573
0.07688826373156127 -0.16711501535927575 0.08374886180903765
0.0762133189508195 -0.16670592294488606 0.08322054509771594
0.07722950791163949 -0.1676312208042308 0.08338865085213785
0.0759682601029475 -0.16605027811957998 0.08374611076137593
0.07541450464050567 -0.16553601917580263 0.08324538206635991
0.07531302741716084 -0.1648237698480194 0.08372123601896406
0.07496642069419493 -0.16420230537573927 0.08317550170737117
0.07495238938542846 -0.16343482382849658 0.08358556660356034
0.07494059241585506 -0.16265962465617903 0.08396375806831566
0.07469424197185213 -0.16192848589182407 0.08333872557978068
0.07470051713872504 -0.16115076750085525 0.0837267711832607
0.07470901246675318 -0.16041497253827364 0.08405559557432822
0.07450413060709006 -0.1597397734746433 0.0834168475535932
0.07448460782795668 -0.1590038069237599 0.08361440488438597
0.07447162581465568 -0.15829432780146058 0.08383332289037701
0.07446641500691456 -0.15757784811511263 0.08412810641329527
0.07426748247940718 -0.1568177964327694 0.08347608047536068
0.07424104397396689 -0.15606470017428606 0.08375451499375301
0.07419259477644179 -0.1553226072931725 0.08404111601768977
0.07411424875828801 -0.15458419533318876 0.0843342823480835
0.07387812997881962 -0.153800360353954 0.08365432099068237
0.07373272929789011 -0.15298820601185345 0.08390975009039714
0.07353840899897125 -0.15227509061807495 0.08367812894020776
0.07362199945211495 -0.15240857702052768 0.08440041106877616
0.07341036046096769 -0.1517452996810224 0.08380841163078438
0.07325636703370716 -0.15104652458591777 0.08395094661182985
0.07310332249117135 -0.15034994627310203 0.08411231666670482
0.07297365318807632 -0.14980984412374634 0.08425945926275726
0.07278868510957574 -0.1490285229175808 0.08401037019939496
0.07259194448495399 -0.14806320783815344 0.08422297518490708
0.07237621490298866 -0.1472817110305084 0.08397278636698212
0.07247283304552252 -0.1474252819425156 0.0846963447145006
0.07225319897978244 -0.14671756741925243 0.08410377876059656
0.07208549343573846 -0.1459936519082526 0.0842630666185094
0.07191100846862249 -0.1452534831362496 0.08452045518079347
0.07173962909326388 -0.14452887584110202 0.08480138510206969
0.0714389679782268 -0.14375435974041204 0.08412036092211918
0.07120688279097175 -0.14295218580475166 0.08438807426828975
0.07094816414364002 -0.14224038999243283 0.08418301833280878
0.071049462119622 -0.14237069526907098 0.08488725311482205
0.0707920798151148 -0.14170187575697604 0.08433277078214538
0.07060071418870803 -0.14098870012452197 0.08451922360939122
0.07042550445044404 -0.14023651510212282 0.08479425307350347
0.07029326135412652 -0.13947407376413118 0.08504991853024438
0.07007760381661735 -0.13864287904374867 0.08433043592467153
0.0699901028331244 -0.13781894822677013 0.08448712569395647
0.0699051672671777 -0.1369500854460964 0.0846094023568038
0.06982012569384284 -0.13605198338837837 0.08471184867409617
0.06972179910178204 -0.13510039415316188 0.08480888386244921
0.0696095062166583 -0.13427752171173404 0.08450286813231005
0.06967255643919854 -0.1345099312627255 0.08520225871110625
0.06955212162501882 -0.13370459202526405 0.08460423571432223
0.06947436600059716 -0.13288923575969355 0.08465691446128423
0.06939756849020016 -0.1319760635227593 0.08472356741995235
0.06933606204450482 -0.1310692700526066 0.0848080495515104
0.06929519632137453 -0.130169443350129 0.08490587427072635
0.06925940769117603 -0.12926173036426192 0.08503409909362654
0.06921594616268581 -0.1283304715767843 0.0851866704608545
0.06916066969386266 -0.12737880658167483 0.08530784895704291
0.06891615386388016 -0.12657046896814644 0.08446039794604543
0.06881884030086093 -0.12568587264920558 0.0845468815389963
0.0687112123375673 -0.12485958424180349 0.08463620926146002
0.06861480562218435 -0.12406230787757624 0.0847892639400969
0.06850720096670627 -0.12325345690572338 0.08497391055084794
0.06837341830221337 -0.12243861943432671 0.08518529405368938
0.06821609583281871 -0.12162571017676858 0.08540318749077777
0.06790344618089644 -0.12088593812964475 0.08467614343477942
0.06771960819788646 -0.12011548338104157 0.08488676283535856
0.06752209824979527 -0.11934133395187209 0.08509112928327585
0.06732852139251644 -0.11854773111199494 0.08531681808951155
0.0671486310403148 -0.11772378272019322 0.08554905657756227
0.06687011369686553 -0.11690963155456528 0.084757952556915
0.06674087485408885 -0.11601821408427428 0.08491671209932197
0.06663740111594081 -0.11511505354455874 0.08502939119798186
0.066553173298207 -0.11419779839220173 0.08511621102293436
0.06648826404419848 -0.11325221284939897 0.08518130383516057
0.06643098097587813 -0.11228002705118191 0.08521721435151326
0.06636906529513671 -0.11129476408279387 0.08523639114932871
0.06630080338373405 -0.11030341326046901 0.08524287812723078
0.06621341793653808 -0.10931759828693285 0.08525052381650026
0.06611166207160052 -0.10833357038641571 0.08526073897778427
0.06598446996837577 -0.10735713344411896 0.08527832209219943
0.0658438208259562 -0.1063961548824355 0.08530847155630088
0.06569409425656693 -0.10544050761862866 0.08534332082067703
0.06552706288948612 -0.10447149949691976 0.08537583103932908
0.06532074733792467 -0.10349807224179988 0.08541365218957937
0.06507164935656988 -0.10253390843203264 0.08545416833466837
0.06475241025912232 -0.10156684024448542 0.0854918562146646
0.06436467360019979 -0.1006051474987315 0.08553323634476867
0.06389268030184564 -0.09962721537814734 0.08557415252992805
0.06335176367330055 -0.09864168503516342 0.08561786186513437
0.06281041155155863 -0.0976424836753935 0.08565868840982332
0.06232214200389808 -0.09665008861717356 0.0856996802697759
0.06191127526882312 -0.09578492426663154 0.08579372936932667
0.06172605127309666 -0.09530738190048972 0.08606778936543465
0.0803020984397059 -0.17185916691774347 0.0842636605472706
0.08023794622101657 -0.17156957157069275 0.08443813724149583
0.07997256238074513 -0.1710775885457279 0.08411929079659294
0.07981419966802485 -0.1704243759625045 0.08435335505270809
0.07933714097660043 -0.16995489237466202 0.08381255826678066
0.07916604192355003 -0.16934899616159899 0.08417707140604434
0.07862211079893931 -0.16893910846491894 0.08366734230337292
0.07844238567762081 -0.1683769454442796 0.08420427152496872
0.07782188451454376 -0.16797082682465514 0.08380417863369942
0.0772589194390831 -0.16693032824111315 0.08474716787433234
0.07659743287294006 -0.16651615470600897 0.08423748790130908
0.0775538199932163 -0.16747591714371937 0.08427326923258041
0.07631680692871011 -0.16588386728671264 0.084766025523226
0.07574865116958646 -0.16537532835905958 0.08426475301773757
0.07562165298860873 -0.16468124183426053 0.0846926685235966
0.0752750004239632 -0.16408238695809121 0.08416597497317084
0.07523467259091593 -0.16331226976760407 0.08456263207314572
0.07521979937909978 -0.16254630464260078 0.08491165014798044
0.0749703770639089 -0.16186710900345416 0.08436388893862079
0.07498113842851091 -0.161054513578286 0.08479428195513446
0.07490756060765694 -0.16033546929442993 0.08482605175533607
0.07473810905215146 -0.1596455163486695 0.08440405928870132
0.07465006428083178 -0.1588909485696609 0.08437202307708433
0.07467490362815954 -0.15829985202279126 0.08473172563526908
0.07468721705955052 -0.15754093574368724 0.08507474310003597
0.07445767331480403 -0.15682486666665954 0.0844229018777706
0.07442751959129727 -0.15606745767838734 0.0847048751157194
0.07435804549545252 -0.15531953953623587 0.08498173856698664
0.07426197051964274 -0.15458556248125324 0.08528016461348749
0.0740059896844784 -0.1538383547532761 0.08463512787576295
0.07387161613885763 -0.15313211817131836 0.08497863502954492
0.07374154041893385 -0.15246094949514113 0.0853255321588898
0.07348456772767244 -0.15175263693775867 0.084675518055707
0.07332649656733037 -0.15096465030789685 0.08493521658891443
0.07312708892706661 -0.1502579270504066 0.08472629187750029
0.07322447269795856 -0.15036044636066034 0.08544077162322154
0.07300372087210938 -0.14970238825395124 0.08486788889891522
0.07285443255885522 -0.14895888749103497 0.08502254511997138
0.07270815454558585 -0.148204392714639 0.08530174341276839
0.0725569663489043 -0.14749640678879078 0.08560873746345397
0.07232738800158091 -0.14674490196921272 0.08496249519247687
0.07216924874276152 -0.14602479724864612 0.08521130979675604
0.07201370488137393 -0.14529902872923853 0.08547809688703692
0.07184180244657233 -0.14457579371768753 0.08576764743582936
0.07154611659907209 -0.14380154789987903 0.0850940901166503
0.07135074952915914 -0.14310555649621598 0.08543838912065634
0.07116709686148484 -0.14243660465420224 0.08579071511472303
0.07087615124661294 -0.14172330450347148 0.08518534999867478
0.070697147618278 -0.14100889079019321 0.08546638882794506
0.07053871161904562 -0.14026082154948552 0.08573738460953195
0.07041673436803399 -0.13947496092362216 0.08598385874026494
0.07018234579198461 -0.13867239233628104 0.08525768117372962
0.07008845142531323 -0.1378304987007394 0.08541798184232487
0.0699952839023211 -0.13696167129931452 0.08555089082667897
0.06990478300798966 -0.13608087536639152 0.08568145742666151
0.06981001924549723 -0.1352907355233762 0.08579476472675533
0.06973727178933113 -0.13471386089007606 0.085904517664904
0.06962599448710906 -0.13388107484649436 0.08556953831925705
0.0695369625531342 -0.13290823514337727 0.08561016362560485
0.06947681457538803 -0.13200267707022523 0.08567799960637887
0.06944252294389906 -0.13110154966505314 0.08577059069702524
0.06941994529984502 -0.13018991916971479 0.08588279051421746
0.06940280472410963 -0.1292567335542271 0.08603677187212837
0.06939394183104405 -0.1282265007358007 0.08629962157163686
0.06929120531186307 -0.12722909942873345 0.08614634130849447
0.06908696807103559 -0.12638690377636413 0.0855037609314707
0.06893053362871691 -0.1254887338816024 0.08530616794857593
0.06886373645796474 -0.12479529081139235 0.08550472633081407
0.068764614137919 -0.12399274919780057 0.08566687763545236
0.06865016837725124 -0.12319009546503756 0.08589056261177147
0.06851417760223343 -0.12236047457591197 0.0861339641995565
0.06835256050332549 -0.12152746874117869 0.08635102574104632
0.06804057037618542 -0.12081811923314488 0.08562870686726211
0.06784013875463195 -0.12002289815325069 0.08581016866330426
0.0676383066702815 -0.11926114134392496 0.08601210182960799
0.06745192550028654 -0.1184848614336392 0.08629320309689503
0.06725969243813895 -0.11765563347771892 0.08653139773666328
0.06698433716866929 -0.11686449826961426 0.08575901502520775
0.06683574872022634 -0.1159819743772557 0.08588040924052708
0.0667191595302267 -0.11511843465660203 0.08597328035575572
0.06663573198362037 -0.11424000804297793 0.08609160401150302
0.06656665577205353 -0.11330221692990124 0.08617450372323698
0.06650518045685644 -0.11233324171560705 0.08622399282585484
0.06644582242363464 -0.11134488854987754 0.08624697227402964
0.06637983357030812 -0.11034915273159511 0.08625602367545745
0.0662935554903989 -0.10935317526481371 0.08626305288051202
0.0661904671403841 -0.10836221906722444 0.0862717245223694
0.06606380986532302 -0.10738585065343886 0.08629141802479257
0.06592017241224388 -0.10642670923673306 0.08632469696714425
0.0657688070755122 -0.1054551158416417 0.0863562149140883
0.06558659674129161 -0.10448244860016766 0.08639412654616849
0.06538379011802682 -0.10351757090260692 0.08643522134122596
0.06513123491103692 -0.10254885559162479 0.08647309703246799
0.06481812370327011 -0.10158621072319694 0.08651125473718814
0.06442507975488598 -0.10062213317187974 0.08655317755477594
0.06394004309109409 -0.0996631953204216 0.08659846600471206
0.06340534428058964 -0.09869030258865877 0.08664452057354331
0.06286152839423205 -0.09770026614410349 0.08668751873411457
0.062376540188694346 -0.09671110896763557 0.0867277587338893
0.06196344541742439 -0.09583551271425195 0.08682102738660441
0.06179262559359105 -0.09535155068230021 0.08709784353042824
0.08045805108155671 -0.17185692383362589 0.08499563150694756
0.0803811703083717 -0.17149909059605795 0.08508957132797279
0.08021846212999507 -0.17092733943404062 0.08499238676525381
0.08003161276391835 -0.1702647288006697 0.08506000261039298
0.07972149612371565 -0.16972625203820332 0.08491244046391466
0.07941076687270655 -0.16913936660799478 0.08492191195278283
0.07901058965699172 -0.16879730125857836 0.08459297685825394
0.0789209782728592 -0.16829659198428143 0.08526948905095681
0.07821414660064116 -0.16785752280366714 0.08475175517219274
0.07762428734482903 -0.16678488467236105 0.08575245895068619
0.07695297546234955 -0.16635223469077906 0.08526953588274691
0.0779283680056324 -0.1673255045118155 0.08524329888918526
0.07668222773920738 -0.16573908991487663 0.08575798296145225
0.07610723274758646 -0.16516655074860914 0.08533232334551591
0.07585812548557906 -0.16454002373090582 0.08544879631608406
0.07560468188829855 -0.16393451164165632 0.08520337515162353
0.07551051287131758 -0.1630881596662075 0.08548849447090309
0.07544155139491693 -0.16244177085167258 0.08566495408180853
0.07525666616436727 -0.1617820899849709 0.08537861773696459
0.0751992419028302 -0.1611778421828106 0.08551432581056848
0.07497704670431149 -0.15990252534225696 0.08523382773271578
0.07515485639094643 -0.16056952876876285 0.08561444538563108
0.07520013153462954 -0.1597599693176604 0.08602180497805305
0.07489945137251325 -0.15911179779957874 0.0852692850002265
0.07493457894551511 -0.15824785694994623 0.08570869709190379
0.07492761009151468 -0.1574300786779409 0.08603262220896343
0.07466258790249732 -0.15675803066415406 0.08538492729136782
0.07461506870763804 -0.15598937762104498 0.08563437154589462
0.07452316085552636 -0.15526137467715884 0.08589195893319108
0.07443063629816811 -0.1545498254729493 0.08622093902971541
0.07415062128726596 -0.15386108688203942 0.08561310869595244
0.07402704233995103 -0.1531503559789733 0.08595594853241169
0.07388144275574778 -0.15244898302894166 0.08629153678888472
0.07360476979144191 -0.15176183756192743 0.08564558575439336
0.07347507273056181 -0.15106016591810417 0.08600776786477286
0.07332013604933577 -0.1503737359629542 0.08635718759817765
0.07308336786203193 -0.1496912624770887 0.08572492888467101
0.07294337049771477 -0.14897119178675203 0.08597917455488585
0.07279655099695913 -0.14824761578949885 0.08624852555206589
0.07265435461800948 -0.14753830609401372 0.08652437192978149
0.07241917925369235 -0.14678660116197736 0.08587947550432767
0.07227668882464348 -0.14606317806668964 0.08614944667593079
0.07211489972429674 -0.14533718475052088 0.08642976035540678
0.07194553383472715 -0.14461655151571687 0.08672750005388165
0.07165225166596678 -0.143863892875707 0.08607764790066062
0.07147096762803129 -0.1431608897186565 0.08641136550424297
0.07128343983484244 -0.1424492563341679 0.08674011535174105
0.07098470716153142 -0.14173803081522962 0.08610661411704128
0.07081604177890397 -0.14100350218366314 0.08639941291562672
0.07067816873228994 -0.14023007976023896 0.08667709487344336
0.07055311441075332 -0.13941173580447314 0.08691644178555492
0.07030866633430052 -0.1386452435095832 0.08619643501767615
0.07020206273054194 -0.13778631082528073 0.0863393248693489
0.0700959548791118 -0.13693405881829068 0.08648390271474769
0.0699884302795892 -0.1360084869967828 0.08670103149601556
0.0698365836626197 -0.13520351650840848 0.08641947402865668
0.06992632867517312 -0.13530320711269686 0.08713630316571076
0.06975964043746719 -0.13457903228397317 0.08649215444457244
0.0696688514270437 -0.1337452055981299 0.08647012285449544
0.06960092676603606 -0.13288161791373396 0.08650705805211283
0.06957039999676908 -0.13201953419611903 0.08661083504490437
0.06954992934765578 -0.13111767860054568 0.08672488831198953
0.06954429324262534 -0.13020692430012942 0.08684833716385915
0.06955446775409171 -0.129308390596649 0.08702165470239207
0.06956762930949936 -0.12856797269351616 0.08729215123170121
0.06928223880685648 -0.1266384188086534 0.0864544020349451
0.0694887550683666 -0.12748671529399064 0.08720755970005552
0.0693835217869167 -0.1264374382539678 0.08709874417673709
0.0691468803115047 -0.12562855148351934 0.08635207696626641
0.06899055580875856 -0.12463349725558866 0.08628083145278692
0.0689188720268174 -0.12391616155911103 0.08655274035033313
0.06880464537858501 -0.12309412072662226 0.08679383578015713
0.06868180312721661 -0.12222138930883013 0.08715309739534348
0.0684623152878185 -0.12140069210567848 0.08713092178369955
0.06816825259543598 -0.12067273273275597 0.08665160273703193
0.06791804059074008 -0.1198663667839798 0.08658674383101325
0.06778014230049674 -0.11923550555130047 0.08694367216289646
0.06759088964076598 -0.11840155314388058 0.08735266742842777
0.06734592833446183 -0.11757648484985289 0.08733368778753606
0.067081475452914 -0.11677116638998303 0.08680740417278207
0.06688899290602768 -0.11587164031706776 0.08666228656451885
0.06680795376576562 -0.11517813537369535 0.08690785936316991
0.06671609988729932 -0.11428607684543428 0.08706632748377688
0.06663792542137506 -0.11334578227691132 0.08716244024991185
0.0665687930334765 -0.11238099397866279 0.087220854618146
0.06650900553508449 -0.11139939978280006 0.08725466054946765
0.06644289175535395 -0.11040312966122275 0.08727060493930325
0.06635632066018837 -0.10940478515944778 0.0872801811495706
0.06625376164018797 -0.10841915298294541 0.08729583832063664
0.06612405153904684 -0.10743761181493303 0.0873177578129378
0.06596734260958846 -0.1064604943148858 0.08734736835324945
0.0658027313896185 -0.10548632931075701 0.08738133786226128
0.0656235494011315 -0.10452309505590257 0.08742147524707083
0.06542515768899955 -0.10355340852675841 0.08745671322309606
0.06516129549448682 -0.10258325668605194 0.0874915190402646
0.06483189267793489 -0.10163585054652197 0.08753122459222078
0.0644308305340127 -0.10067426298546299 0.087572369845408
0.06394713985935839 -0.09971987143933744 0.08761613124686594
0.06341641543587072 -0.09873499941105758 0.08765776548880491
0.06284342324353137 -0.0977383814676118 0.08770063498090659
0.06234803545217102 -0.09675735845819236 0.0877483741684333
0.061996074038157246 -0.09587853623108909 0.0878498441181738
0.061838463079769104 -0.09539214736572998 0.08813827180142121
0.08082086173802594 -0.17234521673896552 0.08644613931668592
0.0806836587225991 -0.17210074805547124 0.08587851484420403
0.08043898351511222 -0.17125400256299733 0.08547354210025178
0.08058721491364343 -0.17163719365031993 0.08581505734115712
0.08006362780236201 -0.16996934561721158 0.08541763305397168
0.08026905335684362 -0.1702899994762775 0.08570485597043007
0.08053976239464847 -0.1708950751955887 0.08610499021943582
0.07933530323745525 -0.1687691926788251 0.08528649800281524
0.0797322808535524 -0.16910327074104714 0.08562149041738064
0.080157762749391 -0.16962224148578584 0.08600632406713848
0.07923827298592016 -0.16804929188556858 0.08628576203033264
0.07860951220755603 -0.16770520131728822 0.08574829689063994
0.07952252966800037 -0.16856551208726234 0.08599209356553761
0.07802469174139612 -0.16667359992334596 0.08666485299934623
0.07738372500458192 -0.16616023251303486 0.08643062929304067
0.078310845416984 -0.16717994665034813 0.08623602583676857
0.07692055770731601 -0.16559042517427272 0.08651162320049657
0.0765307629714827 -0.1651652945225725 0.08628978172475357
0.07590587021353093 -0.1641511151546579 0.08591049003714776
0.07616649349255294 -0.16462375436470386 0.08611641560316644
0.0761929643674774 -0.16398710288263701 0.08665249418278677
0.07584494983666135 -0.16352289797445574 0.08612983235850222
0.07553089583641462 -0.16201804300282208 0.0861093042135092
0.07575679047877276 -0.1626552900792228 0.08640472422948121
0.07579097969258547 -0.16181507359782524 0.08687536711457394
0.07545410683962003 -0.16126130306808847 0.08620763833102264
0.07547068611446031 -0.16038013491743483 0.086637720044602
0.07548265459208223 -0.1595482331102769 0.0869859330649417
0.07520583830749196 -0.1589214849617711 0.08636518226274865
0.07522193909065036 -0.15803815447649078 0.08677971595433015
0.07513856457120768 -0.1572810135565423 0.08681589543527368
0.0749107106296845 -0.156600337365156 0.08640446083360612
0.07477053929893017 -0.1558287313584073 0.08640884043465563
0.07473085641575465 -0.1552119989041693 0.0868042110755765
0.07462148428247482 -0.15447783192591721 0.08715613580130455
0.07432426798132218 -0.15382625259580004 0.08657710572591899
0.0741894696300009 -0.15309469602490763 0.08691703592724712
0.07404377457994117 -0.15238776315242392 0.08723189081743973
0.07374891575580575 -0.1517481625279696 0.08664735493310396
0.07359365078158542 -0.1510314357050492 0.08698597991676943
0.07342488547719903 -0.15032296874858847 0.08726917667596122
0.07317968395463392 -0.14966980657410833 0.0866531187365075
0.07303056537648424 -0.14894679684121653 0.08689695743795842
0.07288284490403917 -0.1482527610931898 0.08713831111788845
0.07276971143404194 -0.14756445103117555 0.0874344022209092
0.07252484478625812 -0.1468209957487273 0.08680517920392501
0.07237387429078213 -0.14608984416228984 0.08709181151029852
0.07221798621366636 -0.1453632308457212 0.08737729126457018
0.0720569513895756 -0.14463903231315375 0.08768213869351894
0.07176644584975554 -0.14389844671801041 0.08704661432054976
0.07158955343286295 -0.14316827155382045 0.08738873956940392
0.07141122537823788 -0.142419453974278 0.08768891068356442
0.07111392842462848 -0.1417158428152505 0.08705184391744404
0.07095898961195722 -0.14095063958344375 0.08732544149837004
0.07083171960623642 -0.14012702258196383 0.08768071916882222
0.07066572843523856 -0.13931131891050477 0.08769518162176528
0.07044677403295448 -0.1385313680062816 0.0872089278959704
0.0702906440483392 -0.13765244735572216 0.0871197072353803
0.07023568728170335 -0.1369611390316256 0.08745306941355312
0.07016069160513291 -0.13609274616570133 0.08787523045432855
0.0700210935951563 -0.1352708721149148 0.08788407255759159
0.06984344882293847 -0.13448048754813227 0.08737606925162407
0.06972915515833489 -0.1336020301349341 0.08718982388187409
0.06970324576151764 -0.13289685273215324 0.08739851156974116
0.06967489103686625 -0.13201322628672438 0.08753512515688851
0.06966561588722138 -0.13111373089314732 0.08765080622000856
0.069676868002854 -0.1302187224600983 0.0877768939121237
0.06968433845877758 -0.12934808491246885 0.08792948563440425
0.06967305546127175 -0.12847290439020795 0.08805640195623836
0.06967520179296216 -0.12770873828250096 0.08825762654107522
0.06937137971687052 -0.12580111368526176 0.08738962966391811
0.06958982195400287 -0.12661913162967964 0.0881606758670677
0.06947095507841923 -0.12554893018534174 0.08806503990104929
0.0692165255570338 -0.12475928597096089 0.08733711000695298
0.06904802218535842 -0.12374641135174566 0.08734275029997261
0.06898164198309457 -0.1230519558303999 0.0876796563914121
0.06890314858716705 -0.12241227692455522 0.08799584632502204
0.06839434226865251 -0.12091212490509909 0.08751330580426922
0.06869048588648048 -0.12161449221468278 0.08797749845954292
0.0684982733827778 -0.12073768702547599 0.08828518682134985
0.06814121699803437 -0.12008587044105065 0.0875025330595186
0.06793827762143599 -0.11923685507191505 0.08788508949968739
0.06779965751909361 -0.11863781929537495 0.08821338082023587
0.06727169811475447 -0.11709770533471565 0.08770656663329675
0.0675586383473692 -0.11785937574887338 0.08819291563356918
0.06735924296604495 -0.11698231058299759 0.08849867240281332
0.06705783755663035 -0.11619542940878132 0.08761742453951912
0.0669155900377482 -0.11522539681513612 0.08788492501416519
0.06680042667189877 -0.11430198663127428 0.08803240646616955
0.06671151180408647 -0.11337483647486214 0.08813161971069156
0.06663867673994525 -0.11242455521298078 0.08820436000341103
0.06657027990735735 -0.11144782849877456 0.08825139025149085
0.06649618177438221 -0.1104588055211973 0.08827951376913405
0.0664061043179604 -0.10946801179264752 0.08830051460516529
0.06629739947647209 -0.1084836692713423 0.08832446802696932
0.0661637668096662 -0.10749138588363104 0.08834664732882923
0.06599893708888041 -0.10651035270250044 0.08837759768241843
0.06583764553138274 -0.10554069369803189 0.08841051418267275
0.06565917882129414 -0.10456835100281228 0.08844333789916875
0.0654386041326866 -0.10359800636791401 0.08847700334930185
0.06515482968726354 -0.1026403034731284 0.0885144818222041
0.06480832115285291 -0.10168619073201819 0.08855199671640515
0.06438096668695607 -0.10071572113649006 0.08859025222259616
0.06386102244136241 -0.09974394056472821 0.08862947199108466
0.06329549251365187 -0.09876040677316207 0.088667971875098
0.06276515980302888 -0.09776127967918695 0.08871087564466328
0.06230714062431208 -0.096778862440499 0.08877034695434188
0.06200423365367522 -0.09590513820347674 0.08888746661244913
0.06186815369772871 -0.09542334737927291 0.08918505909799387
0.08090960041674727 -0.17234439543827273 0.08711118587588991
0.08077627803181313 -0.1720726709024924 0.08656594277046459
0.08076085358717335 -0.17143731860003636 0.08686024001088168
0.08081589652116068 -0.17064134555901664 0.08727509632084791
0.08054346386258406 -0.1700895052046518 0.08669095153910561
0.08053507549494804 -0.1693302389025101 0.08712828974237928
0.08006960520625933 -0.16890867937733783 0.08655665412451378
0.07955998254941635 -0.1678544495805295 0.08710193921358732
0.07898448951877476 -0.16754667095240464 0.08669058760188653
0.0798276257451207 -0.16833071301030342 0.08687690510967605
0.07785283307771622 -0.1663574256842844 0.08696033344260101
0.07821613857602709 -0.1664840552246379 0.08731804606406418
0.0788178909565778 -0.16697216756146255 0.0873742638131674
0.07687488797577915 -0.16518777293019551 0.08694574343266127
0.07729430982755453 -0.16556408200468242 0.08719949821257307
0.07786312057060783 -0.1660240876868011 0.08749051857897022
0.07716636193285906 -0.16492287207848463 0.08769799903105237
0.07662878998936198 -0.16455601311920534 0.08708699330554164
0.07658080548840435 -0.16369040353427713 0.08762426250352999
0.07617766074004285 -0.163188134241276 0.08707199221406602
0.0761287679645309 -0.1623346943475087 0.08745320458642741
0.0760906329177036 -0.16151092397065075 0.0877998013211688
0.07578252820421955 -0.16096492688683092 0.08725915868808344
0.07579345917925416 -0.16007633998547202 0.08769130835790641
0.07570722587958441 -0.15933761694478285 0.08775732898651034
0.07549590439672718 -0.15870589170823735 0.08740909173584194
0.07544021820832261 -0.15808702278727227 0.08751222967335205
0.07517244126415477 -0.15679560189918013 0.0872352851691733
0.07539531701460678 -0.1574495304801558 0.08761428541721822
0.07535692690525489 -0.15660083999234095 0.08800821267516568
0.07503205884360643 -0.15599937156797244 0.08729953252083741
0.07496313150740058 -0.15510088131374872 0.08781638518626876
0.07479291762990241 -0.1543939942545481 0.08790536715240854
0.07454045098741273 -0.15374659389533846 0.08759384772946424
0.0743536835316102 -0.15294010221109106 0.08781784994168869
0.07420015774249947 -0.152332607752913 0.0879822814262154
0.07392227866913356 -0.15168957622214718 0.08769207662518885
0.0736937290352622 -0.150886256413239 0.08790195246994811
0.07353044407835638 -0.15026239876306063 0.08802320573151634
0.07329032286258098 -0.1495955171765564 0.08764930129680501
0.07309043148015314 -0.14885367154218002 0.08765860176982129
0.07300856984048619 -0.14829123569356084 0.08802213332415937
0.07289132605973474 -0.14757206794952946 0.08836283169405462
0.07263327106721527 -0.14683732014018366 0.0877333490539153
0.0724804950360287 -0.1461022771231259 0.08802227662469372
0.0723318377622806 -0.1453732392609999 0.08830948046647527
0.07216754606477427 -0.14465253462444175 0.08861662082975902
0.0718826592349865 -0.14391036775545604 0.08801970985952112
0.07172502421963026 -0.1431233161461171 0.08844426058182214
0.07151846015665637 -0.1423518973988705 0.08846847344948054
0.07126156879330553 -0.1416329116900458 0.08806154737483678
0.07107287966571847 -0.14086226601818252 0.08810030690972508
0.0710428646190332 -0.1403959570179521 0.08851089009801694
0.07066001017525339 -0.13881212573729285 0.08808052597377075
