# .PCD v.7 - Point Cloud Data file format
VERSION .7
FIELDS x y z
SIZE 4 4 4
TYPE f f f
COUNT 1 1 1
WIDTH 790
HEIGHT 1
VIEWPOINT 0 0 0 1 0 0 0
POINTS 790
DATA ascii
0.0717806238144646 -0.1582373794101301 0.07379055749170144
0.07184954534920632 -0.15762557954387463 0.07300729638659104
0.07193953556485436 -0.15732805124587498 0.07372127907400831
0.07202750565902426 -0.15668208386476679 0.07285832605523418
0.07214208807943653 -0.15619419012382563 0.07351142140616887
0.07231730361946381 -0.15510515287667043 0.07348282138394359
0.07240746750105552 -0.15406590334198486 0.07344590753326193
0.0724067687818504 -0.15328849410424503 0.07328579042483675
0.0724375262609518 -0.15364478855919628 0.07389671057258969
0.07236920144524071 -0.15288183329526756 0.07372780772345747
0.0722140700091684 -0.15192558256251057 0.07377078839610536
0.0720584220179636 -0.15101616572790943 0.07377923380418819
0.07189943752113198 -0.15029525741589417 0.07357977732515994
0.0720105607521586 -0.15060178686666587 0.07415230524061632
0.07179073354805326 -0.14986604624612046 0.07396595082078965
0.07154089762704705 -0.14906951949900116 0.07405569661567
0.07139531853856267 -0.1485559068602357 0.07426470009052176
0.07111969294303101 -0.1477708564567239 0.07404045030691007
0.0708324908157182 -0.14697929994786305 0.07422841464707225
0.07066916843024999 -0.146472078544467 0.07444735744138348
0.07042358231434884 -0.14566599662170995 0.07420358228012897
0.07019699599889356 -0.14483296436180415 0.07439010604475793
0.07005540505773966 -0.14431229167828397 0.07461141031983018
0.06985144093940711 -0.14344991896431408 0.07433032241111767
0.06964711596680512 -0.1423987655337613 0.07437225013770535
0.0694876977203858 -0.14161302715781987 0.07414760632492223
0.06953793681280662 -0.14195777296516926 0.0747266797946492
0.06938699569744859 -0.14120779009825693 0.07449536712803889
0.06923057736867257 -0.14027392650833986 0.07447192559476308
0.06905614078975497 -0.13931333679739524 0.07445288156735602
0.0689099136172351 -0.1385319695499412 0.07424008184677405
0.06893702248963289 -0.13893057660774177 0.07483509957057329
0.0688031387632593 -0.13814064769491216 0.07462377037442564
0.06862549017167319 -0.13714870700661333 0.07462899230420281
0.06846343982801043 -0.1361472881677153 0.07465734381529898
0.06834334761570864 -0.1353083267218214 0.07445603821660905
0.06827864183775798 -0.13498008158853408 0.07478067697796667
0.06812211760876943 -0.13412634005831073 0.0745761865255524
0.06791280408077316 -0.1330961943183381 0.07472190233299023
0.06771797456527878 -0.13226999084656763 0.07442209697742756
0.0678053790961097 -0.13250834798718777 0.07516420810936678
0.06759764513573466 -0.13172982642401987 0.07457025941327287
0.06742169504395071 -0.13095685053890163 0.07469287437454936
0.06720572258969768 -0.1300350238006832 0.07480645277234056
0.06699191966846069 -0.12925294731426712 0.07450872970395613
0.0670971981518936 -0.12945194248138348 0.075245782014549
0.06686010649562214 -0.12872063450327637 0.07465485905081697
0.06667613331112462 -0.1279754584164261 0.07477655035293308
0.06649848909421655 -0.12712748630563614 0.07490023131973146
0.06633121765913436 -0.12632925332752634 0.0749606541665341
0.06622077396817119 -0.1257231283912749 0.07501876621838233
0.06602798163978352 -0.12491999156350946 0.07468221557265566
0.06591938072381218 -0.12397349313597661 0.07483793743470224
0.06583701209221733 -0.1231210142515204 0.07503013942000919
0.06580477099276437 -0.12244881685400132 0.07528037787857737
0.06533876524904977 -0.12082282087932908 0.07457289730754373
0.06563831493826937 -0.12158613966487278 0.07512217646478664
0.06554669465660036 -0.12071220045211077 0.07537800198055152
0.06513145832177406 -0.12000678635963732 0.07455950874812188
0.06508236447786703 -0.11930773795188127 0.07500744448354299
0.06445784174070933 -0.11779042866421305 0.07455773789812545
0.06482501447133258 -0.11849932893966963 0.07499945212976031
0.06466464033855662 -0.11767006202463838 0.07534902016358473
0.06422270103628942 -0.11699008182356514 0.07458213433307714
0.06412394975659409 -0.11611038049046318 0.07499499483150292
0.0640882655499466 -0.11540694441991863 0.07538139320521049
0.06351506141572949 -0.11367392481467631 0.07471479966947206
0.0638967612866656 -0.11440885538983107 0.07540249434793735
0.06370438493895024 -0.11341577303219308 0.07535452954238889
0.06331189806470061 -0.11272203757060795 0.07466841024799611
0.06311746355997762 -0.11178733399068466 0.07462081815624477
0.06309129003890723 -0.11109859283543969 0.0748572796173557
0.06300386119901771 -0.11031401124393456 0.0750247122359895
0.06296411941514611 -0.1096080676151196 0.07527140166131047
0.062261904054350455 -0.10788549998768075 0.07463669442453484
0.06272775252724277 -0.10871738076847207 0.07518196047646454
0.062213581658579056 -0.10707513726464847 0.0749272627123288
0.06265754749530202 -0.10758585435909915 0.07559690811122292
0.06239305249881038 -0.1067183409728184 0.07547386509497649
0.061919673826204884 -0.10612115919355138 0.07477577016987966
0.0616434366920731 -0.10513187652584487 0.07465596213265234
0.06157756035604214 -0.10435611755870405 0.07486144005851912
0.06144949514971743 -0.10343861639673266 0.07499142951187188
0.06130856464253804 -0.10250018245954902 0.07505852519133488
0.061146207652164664 -0.10156544355002638 0.07511000140196378
0.06100238715810448 -0.10059386408057414 0.07524178919355758
0.06060894550030635 -0.09951720577653196 0.07515668602025641
0.06027366341345973 -0.09854751384244714 0.07516470051959384
0.059980529698325374 -0.0976236614511028 0.07520641460756612
0.059657080219899315 -0.09679358381408883 0.0752655823925104
0.05953664248867567 -0.0962257463170447 0.07544552566541568
0.07155447489280704 -0.1609762554100469 0.07439074729508724
0.07158895421145756 -0.1603577942826107 0.07421361485897028
0.07162407549336244 -0.16076142047941283 0.07475279250408598
0.07167185628163636 -0.16012973778364692 0.07471493107889433
0.0716371447808745 -0.1596181047184846 0.07394409584879282
0.0717480389886236 -0.15913253150422585 0.07455552192754743
0.07189162873886491 -0.15812735145394063 0.0746389945928145
0.07209789213551954 -0.15709380189101088 0.07461639457202138
0.07229161029596946 -0.15596846511052037 0.07460553080459235
0.07242231172550853 -0.15489232663422026 0.07430639430958234
0.07245202123213976 -0.15419857441086215 0.07426433966129381
0.0724375266335223 -0.15464243771107786 0.07483786718774121
0.07241414007372624 -0.15384422866174258 0.07470843561913923
0.0723532001847824 -0.15287082262373256 0.07472509005372911
0.07225383704805598 -0.1518988462862313 0.07473787540091506
0.0721370744615941 -0.151139584395883 0.07454241449640218
0.07221086867498684 -0.15149028137741796 0.0751305149954606
0.07203763775027021 -0.15073618078801204 0.07494680119035547
0.07177376829274441 -0.14977584329535434 0.07496218754050159
0.07156647720964793 -0.14905132331294704 0.07472009477464484
0.07162689044136958 -0.14930236203353783 0.07529045993099556
0.07140397734060845 -0.14859570531861135 0.07505945109088996
0.07108819713087393 -0.14767069311785555 0.07510409494697845
0.07084337121691625 -0.14696096110776785 0.07490155049471821
0.07092184678267681 -0.14720747071264967 0.07545506613943033
0.07070116177362659 -0.14650189259404048 0.0752350134228749
0.0704277097002151 -0.14557428525293192 0.07526161133241345
0.07019452700498262 -0.1448472083306852 0.07506697338798815
0.07029820618517411 -0.1451116013307602 0.07560583066505479
0.07008067814375814 -0.14437743851839693 0.07539187550272769
0.06983301656342993 -0.14338099507273613 0.07544762757144023
0.06963752737584757 -0.1425266335125709 0.07518395332320524
0.0696762548695144 -0.1428430119370176 0.07593572494847514
0.06950896157082212 -0.14201682416895453 0.07537643605086555
0.06935750210316573 -0.14122981187086378 0.07544271135332792
0.06916877334459172 -0.14028984433286146 0.07544315619704091
0.06902166246318835 -0.13951551334622514 0.07524389863283282
0.06904570851502365 -0.13990584093006478 0.07581939288144622
0.06890577464530973 -0.13912701263508984 0.07561231709978199
0.06874795280043662 -0.13815132968446453 0.07560334570377157
0.0685833606849022 -0.13718532566698546 0.07562575911748427
0.06848024090029552 -0.1364212457933036 0.07549018598717078
0.06851455040180314 -0.13685932752810756 0.07605198320069134
0.06844229822076354 -0.13622508786150225 0.07597873709531824
0.06838751607254995 -0.13570803679853563 0.07516446732127571
0.0683114070765558 -0.1352003728450398 0.07566137964278821
0.06813992294443527 -0.1341565691033339 0.07570095281538647
0.06799828438634767 -0.13331372426851176 0.0757762692678366
0.06790515411457972 -0.13275132852582305 0.0759082564772698
0.06770812998028866 -0.13194279617412755 0.07561465494386746
0.06748972361830528 -0.1310089468160267 0.07574172475585805
0.06731348359079135 -0.13021316491179674 0.07584376065716825
0.06718584715919106 -0.1296593283714121 0.07597048410132787
0.06698111252849961 -0.12888484860182142 0.07567683180095344
0.06679911245079541 -0.12797404599878537 0.0757994593494551
0.06660887743519543 -0.12702104549483015 0.07592452350856536
0.06639061739316857 -0.12619774561466404 0.0755706307328407
0.06653801178735956 -0.12633214573153084 0.07633081665046626
0.06630151367962324 -0.12559005068434714 0.07562479768171484
0.06619631721878416 -0.12479203184983381 0.07567773715105629
0.06611252797504605 -0.12394295515193661 0.07581410817881534
0.06605415179643441 -0.12312575563663397 0.07596034958987635
0.06598532295024619 -0.12230383564944787 0.0760513048021335
0.06588481935500774 -0.12145091942338901 0.07615889883517173
0.06576392330740327 -0.12061892405520315 0.07634565735344503
0.06541078082988838 -0.11991563611553228 0.07559796373622502
0.06525281811634535 -0.11914287769932085 0.07582253206565333
0.06506736533155667 -0.11835767855690443 0.07604488228204226
0.06490419843518254 -0.11757163317981986 0.07632156559789802
0.06450895241316544 -0.11686074166357292 0.07562385646493834
0.06440054450780576 -0.11606726413478098 0.07593523283623735
0.06430230751277606 -0.11526673774252454 0.07618278517488807
0.06425412831872537 -0.11454963539411546 0.07645178366240836
0.0637075805222245 -0.11278635861536979 0.07563975171110916
0.06407586750665846 -0.11352423317250745 0.07638694411786834
0.06389570617667904 -0.11250446334346487 0.07627352920808501
0.06351588663750775 -0.11181219511088694 0.07555624457372855
0.06333930841066815 -0.11084942619075838 0.07552382648365294
0.06331785420025852 -0.11012212078375945 0.07581456226345222
0.06320218596407007 -0.10925188574177118 0.07596317021011043
0.0630928910984104 -0.10837709691322396 0.07612323453160222
0.06307418762641813 -0.1076383882768154 0.07642456323663722
0.062340164375623175 -0.10611365555893934 0.07566643244688451
0.06281263182565297 -0.10670273579060344 0.07634832815147273
0.06251662783146032 -0.10577047396994085 0.07619567428346151
0.062051444305986095 -0.10524601340390403 0.07547601366568653
0.06193257536467197 -0.1042164987633287 0.07567397052909268
0.06179466373561787 -0.10326292144934501 0.07577654119914859
0.06166443095718336 -0.10233232654311589 0.07581136315996136
0.06154336663198481 -0.10148534080338623 0.07583924998096377
0.06150872057662792 -0.1008929957099552 0.07597026441857385
0.061285184549975225 -0.10016616904739849 0.07586382806810839
0.061800400429404434 -0.10081333292030188 0.07653120294655791
0.06097962042030305 -0.09924144487393982 0.07583078862826244
0.061613126800797634 -0.09995822685497294 0.07653828681145204
0.06066951818671846 -0.09830299146325412 0.07584719629480989
0.06135999967268302 -0.09902825992475404 0.07654102007546276
0.060363144247651095 -0.0973590037111556 0.07588428352965196
0.061066444775431 -0.0980709766740739 0.0765668008195198
0.06006009760345284 -0.09645993481638442 0.0759598805318868
0.06078505440696944 -0.09706864862925448 0.0766007149213073
0.05997040105898396 -0.0958463249255362 0.07616300703927135
0.06048669965354353 -0.09610307404425175 0.07667734755418038
0.06034437772525838 -0.0954087204780512 0.07689039305762678
0.07152681818463669 -0.1631036789730714 0.07597710467315409
0.0715986840302621 -0.16215390380919958 0.07562078799259095
0.07164676457179506 -0.1613089652216474 0.07518006742387531
0.0717387180423426 -0.1615993256414417 0.07593004127164804
0.07171884966692929 -0.1608117986799635 0.07540478621271682
0.07180841816100803 -0.15999652288746102 0.07552459623127646
0.07192934836873721 -0.1590039871521764 0.07557589867033984
0.07207303479775191 -0.15799220401041325 0.07561305083311438
0.07224706522800284 -0.15695530765038196 0.07565579818061198
0.07233361293605525 -0.1561398676209677 0.07553010993939674
0.07230995594952144 -0.15655459799630062 0.07611705779345046
0.07234836245732064 -0.15591009398395 0.07603232040626114
0.07239553204246317 -0.1554071966547462 0.07516632668801553
0.07239874859789047 -0.15489795484582677 0.07570141108738036
0.072390878373617 -0.15384648427837241 0.07570900622656256
0.07235443449023893 -0.15284509792462098 0.0757140940584812
0.07228955901481678 -0.15205638830007157 0.07552634754475303
0.07229889502198095 -0.15243618462650488 0.07612014163701528
0.07217669171585878 -0.15166239594688663 0.07594163612526307
0.07193757278667372 -0.1506778032309844 0.07599928125748147
0.07174449867194782 -0.14983266060585965 0.07574213258849471
0.07177191242869216 -0.1501373981348188 0.07648265839924841
0.07157742517094719 -0.14933022091652615 0.07594569701559518
0.07133780038823763 -0.1485273589491265 0.07610283985599367
0.071093465404603 -0.14771652968851548 0.07587947689924102
0.07118336563210052 -0.14798304348517816 0.07661728437597129
0.07093495428649096 -0.14721103097603966 0.0760973093249482
0.07070431342265694 -0.14641298865971925 0.07626016158079882
0.07046982977477129 -0.14562060351325998 0.07602899376890253
0.07054667161418868 -0.14586971743727503 0.07677251993892101
0.07031461645133243 -0.14511125040009004 0.0762475640386875
0.07007964273978357 -0.14436672575751605 0.07638066902588338
0.06985907926085849 -0.14363603511442102 0.07649639209649275
0.06973037226309028 -0.1431336429190184 0.07668570108241109
0.06954696140275025 -0.1422763326272907 0.0764086386853827
0.06929925434432464 -0.14124896775596957 0.0764375729613938
0.06913640498865423 -0.14048071015463504 0.07620851338529121
0.06916035457302055 -0.1408209951225489 0.07677474119100328
0.06902324318640213 -0.14007040121654646 0.07655878506189001
0.0688491766146274 -0.13912959834900346 0.07656132061609901
0.06868217998637695 -0.13817035241832665 0.07656661911653524
0.06856611893071349 -0.13741500591595884 0.0763953548305305
0.06860023417548296 -0.13779973520553407 0.07694019598035108
0.06852089193886433 -0.13706311662820714 0.07677662394425326
0.06842430528028363 -0.1361225904992333 0.07675091734479733
0.06829237978552734 -0.13513865537692268 0.07671001258149085
0.06815014912008308 -0.1341349400057611 0.07675587146968625
0.06802401781859438 -0.13329306623350853 0.07643592689013527
0.06807396537201028 -0.13356446643763126 0.07719494903100145
0.06791616037388834 -0.13274546116652658 0.07658258029717414
0.06774216263119591 -0.13195413076888024 0.07669657885704388
0.06754787779861773 -0.13099193542954582 0.07681933292954049
0.06734179684260667 -0.13016380496530308 0.07649273319127887
0.06743678557182294 -0.13036743744174473 0.07724785258291175
0.06722061241538596 -0.12960257145663714 0.07659054799490396
0.06707985915641468 -0.12884749912192917 0.07668196034688404
0.0669261475588639 -0.12800709756319043 0.07684476816997715
0.06679224495956569 -0.12718849057371326 0.07706598860698038
0.06669869361761813 -0.12640520659297882 0.0772954631324245
0.06645812657234614 -0.12558067494093794 0.07650776693954592
0.06637988781386832 -0.12476797636572157 0.07663334269724317
0.06632537439222523 -0.123929374666255 0.07675976173930361
0.0662764986143221 -0.12308081869069745 0.07688507213192064
0.06620635604966396 -0.12222628544020198 0.07700230660159434
0.06610248059387872 -0.12138085329091557 0.0771381669771329
0.06597706311368186 -0.12056225273820227 0.0773122445891295
0.0656243628548193 -0.11982524104250282 0.07654794201373111
0.06546359661392805 -0.11905031636716537 0.07677770179347178
0.06528596452245504 -0.11828173645541207 0.07703719841894985
0.06511514230728334 -0.11751234908374943 0.07730992660985742
0.06475233964808523 -0.11678691876511393 0.07659895375901153
0.0646256522487298 -0.1159965237529027 0.07686506048074095
0.06453199087332308 -0.11520398658825161 0.0770862984427167
0.06445450860763824 -0.11438060867465484 0.07724440051280994
0.06441882411580618 -0.11363546922361993 0.07745315714338012
0.06389565949253154 -0.11186689682808265 0.07652043025028721
0.06425350301346486 -0.11259486252481658 0.07730428513495748
0.06408115479748433 -0.1115438303542263 0.07713798373109541
0.06370323440611081 -0.1109471433100681 0.07637870756197966
0.0636654240616954 -0.10981890464974384 0.07675274333744132
0.06344067050956746 -0.10891433229482822 0.07664583972793208
0.06342134158950699 -0.10818981388238823 0.07693556469694016
0.06330731054086057 -0.10735341338620377 0.07708736999239597
0.06320980807661775 -0.10664987211674917 0.07722181497841774
0.0624234638576283 -0.10496957684512413 0.07636369647878254
0.06293279797244859 -0.10580269189069033 0.07703904040190268
0.0622837274323198 -0.10401425778492736 0.07649417343024703
0.06277416863815165 -0.10475521077862579 0.07720944526296661
0.06214319767158418 -0.10306466083409382 0.07654788107819883
0.0626320595875897 -0.10380048733943165 0.07730013516515814
0.062006358111940885 -0.10214273868170877 0.07652206412103678
0.06247636247429802 -0.10282698837974236 0.07730409602551905
0.06184552691553434 -0.10141167963521606 0.07640849161753582
0.0622739198430606 -0.10173646843237184 0.07717911047473983
0.062170177254827104 -0.10075276270230699 0.07727460667903585
0.06200124017580658 -0.09981207972567807 0.07728920571208023
0.06178880967283644 -0.09883870301513474 0.0772888857300665
0.06151104783342586 -0.09783041658695656 0.07728735675916779
0.06123117057676185 -0.09676622930752114 0.07738780444457996
0.060813124734937975 -0.09567923469309463 0.07740156106533552
0.06057148111384952 -0.09471525155764025 0.0776665135220587
0.06041294670820548 -0.09417161019130828 0.07777755963412741
0.07159670090233637 -0.16372109034354096 0.07652586685129947
0.07160594172328735 -0.16313272575835025 0.07639173920120006
0.07173626973934724 -0.16239945911614428 0.07647016892728853
0.07182201725683068 -0.16181886338360127 0.07663561421104959
0.07184737237699518 -0.16095800906205746 0.07639171805945282
0.07196178457002539 -0.15992311195907385 0.07650428824071062
0.07207757981981704 -0.1589014199987448 0.0765791579980475
0.07218043172750789 -0.15789585668865982 0.07660708392119214
0.07226704243158133 -0.15712074215168392 0.07644551656779858
0.07224695939347106 -0.15747558189780744 0.07699476463021432
0.07231712313632248 -0.15672636863554285 0.076839590841492
0.0723509184623963 -0.15579451115036075 0.07678939339357985
0.07236125472396525 -0.15480981956986908 0.0767209513077124
0.0723429971319049 -0.15380255787375857 0.07671790828113614
0.07231990665898362 -0.15302343843436428 0.07650940734801447
0.07228267823874444 -0.15339382201175256 0.07712099416639479
0.07222152486449636 -0.1526279834736105 0.0769201199144505
0.07206051136610779 -0.1516972547009126 0.07695088505858373
0.07191189458159994 -0.15093800709230645 0.07702985687038834
0.07180538495789608 -0.15043840195551597 0.07723744024974866
0.07161416357162698 -0.14961503218921296 0.07700262365510101
0.0713948743052782 -0.14877787554564637 0.07716909381687302
0.07124738815420505 -0.14822983664306716 0.07736474956859987
0.07101258919487181 -0.14744467652163043 0.07712753644015444
0.07077377953640672 -0.14664719143200505 0.07731120760880378
0.07061037089198614 -0.14610412450498686 0.07750965520099527
0.07036153313200894 -0.1453054362994866 0.07726642467222034
0.07006802323548918 -0.1443688367555689 0.07735048848815389
0.069864464903506 -0.14365688752888753 0.07713366040785152
0.0699430600683956 -0.1439092141493622 0.07767238154813408
0.06974519873905491 -0.14318355971815316 0.07744737330544813
0.06948593901869263 -0.14220043465831492 0.07749697950015182
0.06926630189346891 -0.14137127649247005 0.07722731271616526
0.06932809413923492 -0.14165430006339083 0.07796879259240533
0.06914209096556849 -0.14085968762885584 0.07741680106408683
0.06897693464332173 -0.14007100439717304 0.07751051034480747
0.06879384450977358 -0.13912179462132346 0.07752135839280598
0.06867883955910634 -0.13835888070527302 0.077307749462408
0.06871656623615348 -0.1386977323369318 0.07785368427380221
0.06862076161066374 -0.1379621095950517 0.07765718265160029
0.06851697169119493 -0.13704829543204636 0.07767539431089746
0.06840689293532436 -0.1361020695519712 0.07768582902781912
0.0682963034115655 -0.13516648365338602 0.07770396957661321
0.06819544116418028 -0.13438073685615942 0.07778339976935958
0.06811669132477507 -0.13387116948772856 0.0779660060011035
0.06797441737655291 -0.13302462819642885 0.07767031761187819
0.06780675945464758 -0.13205125167776902 0.07777804725834356
0.06765997117601746 -0.1312264612337527 0.07793728630651982
0.06754966066120624 -0.13053758082276906 0.07815950196375362
0.06733055838787697 -0.12969690081046933 0.07749110002391303
0.06720711900934269 -0.12892011762769354 0.07770893534573592
0.0670679434130208 -0.128085021958214 0.07789860791534096
0.0669591834183453 -0.12726342677196195 0.078099143679851
0.06686270399229251 -0.1264487482353569 0.07828164514411247
0.06661945992928917 -0.12560114340529563 0.07746201849418445
0.06656949967347844 -0.12476889909507126 0.0775969400205817
0.06652220742528207 -0.12391592341555194 0.07772516837719087
0.0664644869606989 -0.12305213875755212 0.07785141423854118
0.06639107124525088 -0.1221925690728212 0.07797566023664652
0.0662955815393757 -0.12135217680245293 0.07811756976616303
0.06616469898700607 -0.12053957129924625 0.07829844850883724
0.06583226376717788 -0.11977309843116189 0.07752400517550836
0.06565679314299382 -0.11900499296814207 0.07776511290518408
0.06547122872918555 -0.1182455378231898 0.07803042899578155
0.06530172890231596 -0.11747961220213377 0.07829817158147309
0.06496262156698444 -0.11673421322114905 0.0775690926200034
0.06483745437030765 -0.11593848318828738 0.07780240468767216
0.06474115920956759 -0.11512159509135914 0.0779901509449331
0.06467039999699882 -0.11429560594683776 0.07814223030174673
0.06460374965824758 -0.11344161844513677 0.0782284437660424
0.06457442573945095 -0.11267885725248636 0.07837621208882571
0.06405850155887663 -0.11071215987222106 0.07739995558194541
0.06441137939145075 -0.11168253449305109 0.0781337026170179
0.0640368283527565 -0.10989351709452222 0.07764971400684609
0.06439412370513879 -0.11049605477439556 0.07843519953409248
0.06420008239313468 -0.10953926734212262 0.07822550335936711
0.06382003504492703 -0.1089859750426184 0.07749072775040124
0.06374682913527513 -0.10790298828281877 0.07783530759069558
0.0635154487543784 -0.10705988656097531 0.07770770713619407
0.06342599232003285 -0.10633297141841586 0.07787447198004696
0.06325178322254847 -0.10540992809434631 0.0779319773416404
0.06308943162836125 -0.10449712264962209 0.07800379221804428
0.06295930716854438 -0.10358093449706306 0.07808046671758398
0.06281910404035378 -0.10259991671856697 0.07808127541468943
0.06267987959524965 -0.10161029121343251 0.07807639398408159
0.06255715342262562 -0.10064262379660523 0.07809368485413298
0.0623865675470054 -0.0996677292325587 0.07807517242635773
0.062206038746569874 -0.09865486339084796 0.07808872928583747
0.06189076623888155 -0.09765746818936517 0.07794232641101843
0.061727777423651334 -0.09699329016689978 0.07803949317587644
0.061370483168670234 -0.09623775211331678 0.0780088147025625
0.06188761085270267 -0.09686338524462398 0.07859364300196704
0.06103378701274639 -0.09530522477840006 0.07810611492656344
0.061547460564580485 -0.09598299442819747 0.0787087967406992
0.06079053015735295 -0.09456954627863975 0.07824937871094197
0.06118887654051834 -0.09501310708387684 0.07889481196507117
0.06082627360991225 -0.09427695924826919 0.07869243344606901
0.06056440345541493 -0.09412311940798379 0.07816135668886094
0.07176559851771276 -0.16423017891192035 0.07730000984094562
0.07170088289115387 -0.16378081051325688 0.07703887904263139
0.07182756575467965 -0.16311831996667298 0.07731902960094786
0.07185851005286974 -0.16233034512284703 0.07711378791042817
0.07199374744200535 -0.16244944987564236 0.07788244404732302
0.07192875946190959 -0.1616950089438026 0.07727284616930205
0.07201916256041327 -0.1608132871421476 0.07739254565828625
0.07211949982251241 -0.15982931321894953 0.07752074851429626
0.07219679968396689 -0.15879048712885888 0.07758140515117176
0.07221315933695874 -0.15801626412963507 0.07736948909646164
0.07225142809000781 -0.15829630101117353 0.0779351229621528
0.07228986137964151 -0.15756885375936958 0.07772931511093334
0.07233268888218185 -0.15665489234009466 0.07774482185904416
0.07232367663597566 -0.15572224553151362 0.07773098157190529
0.07230957459853816 -0.15475240289330758 0.07772199762979722
0.07228116188502196 -0.15396377305329226 0.07753306617366325
0.07226998039958128 -0.1543470744612508 0.07811915798316917
0.0722218167504941 -0.15357089465549248 0.07791719712836707
0.07213192486250534 -0.15261441595386133 0.07790932422733066
0.07200696385838012 -0.15169479593032587 0.07789960593999859
0.07189752135890883 -0.15097719025714046 0.07768152486611096
0.07192189517364062 -0.1512783417911946 0.07824689044142027
0.07178675134036713 -0.15053162851026394 0.07804529364173017
0.07155284381342863 -0.14956373787110305 0.07811389702884569
0.07136644050102302 -0.14875694650257676 0.07785499812169398
0.0713939986262065 -0.1490088471075839 0.07858566942391305
0.07120984279594929 -0.1482157057878689 0.0780460067619301
0.07097620621547078 -0.14741413568078587 0.07821837868714022
0.07075791330932935 -0.14662219950932526 0.07798667792683694
0.07082584384062109 -0.14685872885681114 0.07871505382110175
0.07059683808920446 -0.14607168087602784 0.07818237812629443
0.07033394019724418 -0.14523165960281598 0.07836199437354646
0.07008615925383224 -0.14441530392461008 0.0781134521836067
0.07014473321067442 -0.1446454740105311 0.07887923705833386
0.06992692636581645 -0.14389069749862166 0.07829121985733907
0.06971801092919211 -0.14315734701989644 0.07840698650054176
0.06953038609894703 -0.14242427877649005 0.07854222080271447
0.06937563323567034 -0.14189378744903644 0.078697575764959
0.06917020970701356 -0.14108691158787703 0.07841922893457834
0.06893723266376733 -0.1400868696673525 0.0785477347387916
0.0687894823054916 -0.13925136377174033 0.07829095899657361
0.06882717574197628 -0.13954379340598383 0.0790248251831101
0.06871447198771534 -0.13874019880045096 0.0784849479021172
0.06861257654312172 -0.13796823794146854 0.0785773615024856
0.06851213823413037 -0.13704951368008153 0.0786196253928815
0.06840389472014866 -0.13610838090110788 0.07864043039925547
0.06828959288805189 -0.13518305991639673 0.07864561588706463
0.06819872718541538 -0.13443503051578606 0.07842624820276281
0.06823249888067959 -0.13478041640631813 0.07899041932204062
0.0681352219951851 -0.13400714450608464 0.0787554045384676
0.06799470398300922 -0.13303429307987197 0.07875445690496305
0.06785338032867452 -0.13211602722257187 0.07881626144916869
0.0677316013182716 -0.13131080302864354 0.07884082501265363
0.06764949579235893 -0.13071779350277132 0.07890626569710438
0.06748099781784404 -0.12990494049695586 0.0785855935730264
0.06732945814698774 -0.12898631523723875 0.07874378462507214
0.06720792780336463 -0.12813798817771666 0.07892249274846043
0.06710292687686753 -0.1273062930516517 0.07910155493023698
0.06702188348303925 -0.1264771957379286 0.07926499708116651
0.06679735474633966 -0.12562127318334612 0.07843639891350174
0.06674924909729185 -0.12477310639615764 0.07857945598725675
0.06669387339822722 -0.12391347330848128 0.07870337003613793
0.06663862945526959 -0.1230483754828291 0.07882381550695997
0.06657102517264392 -0.12218938049326716 0.07895856411378148
0.06646775115254755 -0.12135172153413898 0.07911401430165989
0.0663324628148605 -0.12054501579575035 0.07929457345737752
0.06600692202966307 -0.1197556622389667 0.07851798775772065
0.06583253560558051 -0.11899272509364511 0.07876186407255728
0.06565566079026618 -0.11823260402221754 0.07903271199882257
0.06547876484954755 -0.11745797660744708 0.0792939658714313
0.06515174972159003 -0.1166948600066888 0.07854680249099083
0.0650257584661945 -0.11588259540393528 0.07875623723155756
0.06493009405112915 -0.11504768540301533 0.07891182887262693
0.06485731241011307 -0.11419343540270227 0.07902502618613728
0.0648101749103173 -0.11333201743524234 0.07911300759839536
0.06475746226362342 -0.11242658254925496 0.07914537458728495
0.06470538074354101 -0.11146530329177566 0.07920501577141816
0.06470242920971178 -0.11066538516222202 0.07940442356657579
0.0641631377331613 -0.10874938509193692 0.07846295505013355
0.06453610025457115 -0.10967802131070935 0.07917438033235287
0.06411889574630639 -0.10796573795384293 0.07869334030760305
0.06447619846747994 -0.10854439842528574 0.07946596636231562
0.06426147499498477 -0.10762170780013859 0.07925285964384093
0.06386803476890072 -0.10709180258270402 0.07851092880890442
0.06375614065244158 -0.10599406271182663 0.07878521059144712
0.06348707739386447 -0.10507809268426525 0.07859614307130822
0.06341665339859727 -0.10431924426538045 0.07877833167912929
0.06330057435835264 -0.10339341861420584 0.07886725040754981
0.06317523941664845 -0.10243792031231787 0.07889271065498751
0.06304005216674104 -0.10149414121809504 0.07890431234707806
0.06293662920281741 -0.10052807616547202 0.07897007631079347
0.0626925006721742 -0.09953943687442578 0.0787816158943731
0.06260022218715712 -0.09890655973061269 0.07880295286637343
0.06235355284662914 -0.0982047849813624 0.07860808786210677
0.06273699933813824 -0.09877438355484461 0.07934389634891685
0.06209551620287448 -0.09750150000864113 0.07844323002770505
0.06238327766560931 -0.09777773599089487 0.07920991700574657
0.062036015188096885 -0.09679685540376558 0.07937374733290962
0.06168986481767977 -0.09587757812389985 0.07951471675716854
0.0614267818323511 -0.0951363412672805 0.07971578647356534
0.060751353439451386 -0.09402670009928538 0.07877887195527467
0.06108872572412279 -0.09444233138527544 0.07952044083644698
0.07194516188139448 -0.16450260549522333 0.07796261340246086
0.0721637086544699 -0.16450177290901347 0.0786944485987109
0.07192804008688898 -0.16405716786478064 0.0779718312192462
0.07208513781180914 -0.1632671587678022 0.07846654684764444
0.07218780036219066 -0.1624601365651847 0.07888363099134994
0.07210805173447556 -0.16164703454810847 0.07818699741544309
0.0722127462394395 -0.16073486830001507 0.07841825582589933
0.07228587114996086 -0.15971402885101502 0.07863070318081852
0.07228319586215705 -0.15882313190208924 0.07839245710515146
0.0723502188325841 -0.15905561525736925 0.07916527050533725
0.07230083591817454 -0.15826604269649144 0.07856045734840748
0.07232517058918905 -0.15750180437996433 0.07863048844654517
0.07232380830651906 -0.15661256646024538 0.0786901726475192
0.07230370290706743 -0.1556748719963545 0.07870431700965283
0.07229005999192031 -0.15492222759575605 0.07850532634899854
0.07229539276372529 -0.1552723736445183 0.07908565533478759
0.07225526512658763 -0.15451021220627897 0.07889123173922971
0.07217995323534182 -0.1535351849931517 0.0789039377201865
0.07208145040588713 -0.15254206760528505 0.07889122132850292
0.07198633981156906 -0.15179427847440166 0.07864965150034668
0.07199105523566147 -0.15208387386210617 0.07922340682564992
0.0718858155717329 -0.1513805192105049 0.07900235063370266
0.07172180525280397 -0.15050943508287945 0.07904114613403196
0.07155447242332619 -0.1497653814502767 0.07913036625839502
0.07144094978984492 -0.1492667693677927 0.07932056677283351
0.0712550438267371 -0.14846219103581257 0.07909248987880749
0.07102864029751263 -0.14763647839482885 0.0792548921973943
0.07088530692326779 -0.14709367493202397 0.07944027681350095
0.07066013359807298 -0.14630427476106764 0.07922574040804374
0.07039985669780768 -0.14548774042102094 0.07949546182066212
0.07019310391304412 -0.144834155640853 0.07979966026806683
0.06995128995549282 -0.1439991898786273 0.07918744685314294
0.06973219197858643 -0.14318505955820146 0.0794504552163891
0.0695085031660634 -0.14239796015537753 0.0792028866402999
0.06956950245905837 -0.14260235183440903 0.07994553972999509
0.0693509804798162 -0.14184567335778656 0.07933208696858136
0.06916448028968895 -0.14107981839703615 0.0794450754718573
0.06898007203210108 -0.1403340367306718 0.07959144921232435
0.06886707763498878 -0.13979052165732947 0.07974166866267592
0.0687445965694574 -0.13896617433444183 0.07945791223532178
0.06861897053008864 -0.13800046860878062 0.07953626792509666
0.06849417177603392 -0.13705805316274547 0.07958060078152857
0.06838219631679895 -0.1361132120227997 0.07958622332378937
0.06829010940769933 -0.13534968028968866 0.0793860730214663
0.06833374375228259 -0.1357275253320502 0.0799558306517984
0.06824716153600029 -0.13495952986183424 0.07975197344499112
0.06814056378779447 -0.1340002949451468 0.07975027881990007
0.0680225185665049 -0.13305060072938785 0.07977597283354364
0.06790560551679563 -0.13206179585362818 0.0798209933009643
0.06776738305960735 -0.13122005509565796 0.07945260421941584
0.0678512159108269 -0.13140165585914465 0.08020223010401777
0.06768561088845354 -0.1306291868034795 0.07952637330788824
0.06756515909808644 -0.12985596827839715 0.07960547093849868
0.06745557220919761 -0.12901618809794102 0.07976179806999072
0.06734643363132795 -0.1281709572041003 0.07992827883407812
0.06725263216530346 -0.12733492027811424 0.08008633837138106
0.0671887301082252 -0.12649658793788052 0.08024554165870088
0.06696471625658688 -0.1256372463532706 0.07941783596981024
0.06690507368198674 -0.12478569766738239 0.07955548163350404
0.06685367357881775 -0.1239240832071375 0.07968416216451331
0.06679711824742833 -0.12305971550151674 0.0798128222071167
0.06671982232874811 -0.12220512535949035 0.0799532404300978
0.06661267982673799 -0.12137283165619653 0.0801096057191085
0.06648582839227628 -0.12056878078062801 0.08029600778550455
0.06617700414403868 -0.11976492948568612 0.0795140625488739
0.06599893647633681 -0.1189985862944702 0.07977245445434875
0.0658116823121945 -0.11822779863743395 0.08004514710392083
0.0656379661871545 -0.11743474598600644 0.08029859911538575
0.06532194073102021 -0.11665690255420048 0.07952683347206214
0.06519396268513417 -0.11582554468203034 0.07970536604961465
0.06510026731226769 -0.11497584253943013 0.0798316687595788
0.06503707279545376 -0.1141109312385692 0.07993203468987797
0.0649930690895044 -0.11321814711870858 0.08000939325336465
0.06495667476212405 -0.11228962820075605 0.08006983475461382
0.06492862204689825 -0.11136713336120331 0.08013527788065493
0.0648688124949643 -0.11043858117393889 0.08015721080390813
0.0648037700600429 -0.10948901206114783 0.08021502515909883
0.06477298273845382 -0.10870963505694947 0.08040983236443598
0.06418773151630712 -0.10684702516111161 0.07946795923549589
0.06457207914712455 -0.10775023951895249 0.08018411756121702
0.06412763140816038 -0.10606679328545918 0.07966727588314536
0.06448517391626037 -0.10663903401104377 0.08045371364446932
0.06425683469022651 -0.10572249415132944 0.08020035026687725
0.06386879043410745 -0.1051815272033626 0.07943160886060324
0.06375792502769104 -0.10417532949959629 0.07960308106792395
0.06362091103032179 -0.10322303667605742 0.07967501497263724
0.06348342491441696 -0.10228785811262733 0.07968341268626068
0.06334421027864803 -0.10142589097190483 0.07966802929978563
0.06327521013831647 -0.10081463669443426 0.07974736362032173
0.06307068711129207 -0.1001086500423861 0.07953176350686933
0.06343820712650745 -0.1007028655558219 0.08031561031158284
0.06286634175131306 -0.09940745698294536 0.07930222286489977
0.06314874446992944 -0.09970347442900031 0.0801225891562617
0.06286032005442681 -0.09868933957353784 0.08016264704083
0.06249801201344427 -0.09770363491088796 0.08018611488066218
0.062138143544733286 -0.09671733384888871 0.08026715768030167
0.061769889848986716 -0.09577998181246537 0.08037048301188798
0.06140811358395354 -0.09491141473128284 0.08045994092520196
0.0611515474001643 -0.09420026199465001 0.08074594988406275
0.06102885545892422 -0.09369469379401588 0.08120210195077285
0.07256091265297197 -0.1646284593696991 0.07979686857109654
0.07226464988465543 -0.1640420953519607 0.07909924020495973
0.0723609986574341 -0.1632582084665451 0.07952605796969622
0.07245223169638551 -0.1624272035958935 0.07990207991956493
0.07230720591175518 -0.16161609056273166 0.07919759220574268
0.07239322159680327 -0.16074325310800325 0.07947578421998013
0.0724559326306751 -0.15993120648199605 0.07979188772738971
0.07247429921987092 -0.15918606916926148 0.08012528971579908
0.07237439500423662 -0.1583327026186185 0.07942888084780132
0.07237653147599103 -0.15749713340485236 0.07960348839598917
0.07235230412403632 -0.15655895075067053 0.07968161700185045
0.07231807619959973 -0.15581019274383096 0.07947775377326674
0.07234177160217603 -0.1561086743316052 0.08003694468992688
0.0722969997697838 -0.15538140123590868 0.079833183749022
0.0722385527062343 -0.15446154465036951 0.07987221344088351
0.0721487970638783 -0.1534656806520136 0.07995317369118497
0.07204640589659751 -0.1526173763110522 0.07968152654687301
0.07205608982148537 -0.1528988883758554 0.0804205412542832
0.07195677177919141 -0.15211061761486222 0.07986429700684297
0.07184834732516814 -0.1513553864877079 0.07996056991114794
0.07169516421294082 -0.15046769805707422 0.07998586515579054
0.07154984453634872 -0.1497697764439041 0.07975496124893366
0.07159635292386991 -0.1500157369549377 0.08028827530363869
0.07144273480839326 -0.1493115443006455 0.08007898364749748
0.07119739746171053 -0.1483758577789874 0.08017388644332192
0.07100145548875614 -0.14759822763203106 0.07991812973397137
0.07102526237560865 -0.14781101747733447 0.08063909269772866
0.07085840296522496 -0.1470641656420391 0.08010124490800036
0.07064563208426997 -0.14632829189136445 0.08027733623011925
0.07042266979543912 -0.1455835274902377 0.08040418540064485
0.07026754551999624 -0.14502649805167683 0.08053359667551861
0.07004147784369648 -0.14423487303287794 0.08029052784828297
0.06981514614611829 -0.14342018227283743 0.0805585561616688
0.06965176605800065 -0.14276573324472958 0.08086109704666766
0.06940186539027957 -0.14193598821187164 0.0802464850173904
0.06918465973663905 -0.14109652786931468 0.08051761746587752
0.06897443551381624 -0.14029968552349362 0.0802515007618146
0.06904603387950248 -0.14047906577508984 0.0810074524392195
0.0688742875283501 -0.13971670958630625 0.08036313959470812
0.06874881987589977 -0.13890850989157807 0.08043003433090015
0.06860945836216797 -0.13800122801394069 0.08050782235744797
0.06847646864217037 -0.1370572800445464 0.08054155703220471
0.0683939296353343 -0.13629921582090593 0.08034532025484718
0.06842297793067946 -0.13666595351746247 0.08091754827502694
0.06834703919922208 -0.13590835603368023 0.08071513950283361
0.06825276857095254 -0.13496362198332898 0.0807180073556241
0.06816812030223203 -0.13402720076756297 0.08073669418428427
0.06808383653017369 -0.13310230922879937 0.08078672808412636
0.06800688828019885 -0.13226463602761515 0.08091707976513993
0.06793300260891734 -0.13155905618209562 0.08112040873055192
0.06777191400309268 -0.13070850554730404 0.08042568093944501
0.06767755835466885 -0.129915912682992 0.08061705573480818
0.06757429716140116 -0.12905389149422156 0.08077240478595428
0.0674788865888536 -0.12819997360447855 0.08091941090585288
0.06740674288816288 -0.1273559598583781 0.08106603609176909
0.06733675150764641 -0.12651208394221758 0.08122061899735028
0.06711921711311414 -0.1256522825880201 0.08039660335434178
0.06705913385744082 -0.12480128920499253 0.08053396722604769
0.06700534991652267 -0.1239393094249577 0.0806748339419638
0.06693818179484169 -0.12308001295940497 0.0808053025237451
0.06686020043060445 -0.12223222022041982 0.08094429985455862
0.0667557072042389 -0.12140293870246019 0.08110865414780419
0.06662479861898628 -0.12059860462150447 0.08130754543344054
0.06633066365984554 -0.11978596599568554 0.08053027095365847
0.06614828488858038 -0.11901171261193105 0.0807936132828596
0.06596869096034647 -0.1182200435613968 0.08107907173199656
0.0657830256571766 -0.11739523785748175 0.08131128618386885
0.06548280926677207 -0.11660733066860708 0.08052154037494692
0.06534277020171328 -0.11575336418372198 0.08064260851691643
0.06524901278005994 -0.11491666153113737 0.08073498683792403
0.06520503682315042 -0.11406481461595543 0.08085788282643185
0.06517168835032319 -0.113153990796806 0.08094855910152275
0.06513989586671252 -0.11221461755051533 0.08101225933365488
0.06510724063130031 -0.11126662456357705 0.08105218095728815
0.06505757504277429 -0.11031822930045453 0.08107836013202807
0.0650041607702717 -0.10940394475483504 0.0811375951160671
0.06491947192531825 -0.10849194475074646 0.08115835313294059
0.06482114782901952 -0.1075646464812472 0.08121421281740371
0.06477076810188714 -0.10679759381513002 0.08139687857400467
0.06416775946824557 -0.10494392396466438 0.08034526689891142
0.06455624936704785 -0.10584876133166828 0.08112107213909812
0.06404413958158549 -0.10398994606667211 0.08044935166603043
0.06443354147322884 -0.10479074775213011 0.08125199039958338
0.06388992848399876 -0.10303017192759859 0.08047388652380834
0.06428520262557831 -0.10380367460832496 0.08130227231600348
0.063720506604053 -0.10209121233611997 0.08041514578090195
0.0641128421621514 -0.102806944917729 0.08127603733568071
0.06354276716618858 -0.10133511877051572 0.08025187774495612
0.06385900925973154 -0.10168465252188714 0.0811047796544349
0.06365246653883966 -0.10064549206433045 0.08115550950584745
0.06335207339142818 -0.09963215979676322 0.08113090030557558
0.06298715276927039 -0.09862765652151809 0.08113539466171554
0.06259502080788587 -0.09764178318428757 0.0811650089023675
0.06219378187582964 -0.09664092363355045 0.0812183364668101
0.061758530021091565 -0.0956707274711022 0.08128826767889082
0.061370162837576306 -0.09476961842116777 0.08139774931703495
0.06113640041683705 -0.09399784360050142 0.08156195654675695
0.06104765149056784 -0.09363294075503358 0.0816560581749347
0.07349504654334586 -0.16582225208992907 0.08115644982458896
0.07302971873563921 -0.16524804040511112 0.08059556223120816
0.07294449766116586 -0.1646863150923955 0.08072958831948383
0.07261032392685154 -0.16401084925790724 0.08013241686657344
0.07267580884997485 -0.16320522570304213 0.08054056136012139
0.07273779734796199 -0.16236404368795065 0.08091907267376335
0.07253951658857356 -0.16158793991679693 0.08022441479726107
0.07258696477460538 -0.16077757612959864 0.08051728229903747
0.07260807149364326 -0.16000172731710133 0.08080172900569993
0.07258561053459958 -0.159288118619441 0.08109173575372673
0.07247576484608517 -0.1584092867780152 0.08043777398256804
0.07244354714901943 -0.15747583381641728 0.08071955996442601
0.07237928790544688 -0.1566339532039445 0.08047905666111381
0.07245162152883897 -0.1568506232383688 0.0812520253292241
0.07236155692565911 -0.15609538358192557 0.0806520098222543
0.07230926284853292 -0.15533636368098291 0.08074877547904709
0.07225815440496576 -0.1544728184993223 0.08087149437548749
0.07216649525067281 -0.15369306416608752 0.08099286923740477
0.07210162252168809 -0.15313902384968284 0.08113869766193778
0.07199288288070689 -0.15231947144023544 0.08086643813764184
0.07183619725879677 -0.15132224232685165 0.08101308826815631
0.07168747993277123 -0.15050964739411982 0.08074080594946344
0.07169968053550345 -0.15073512359168728 0.08151132444227599
0.07156411774499141 -0.1499951956727019 0.08091105576535014
0.07139209525356761 -0.14927649110219926 0.08104206492702805
0.07119313483071306 -0.14855069537689802 0.08119296848309501
0.07105828359652454 -0.1480242599037253 0.08135057330074065
0.07089484137335653 -0.14724933820624228 0.08110743305490581
0.0706522828970464 -0.14629625065071789 0.08129837172638431
0.07042711879207006 -0.14550703542939217 0.08103180464528745
0.07050370470981293 -0.14567461091580244 0.08177254793245603
0.07027730786427011 -0.14494337645975344 0.08116858642249385
0.07007361544379095 -0.1442116118453475 0.08131728913820296
0.06988510591521595 -0.1434887735979203 0.0814609279265843
0.06975077127535456 -0.14293402587085824 0.08159973891630268
0.06951393025574848 -0.14215339073343505 0.08135684530898796
0.06928929549134669 -0.14132142700492942 0.08164361027318885
0.06912524662224996 -0.14060007364872448 0.08195320603724479
0.06890755909241769 -0.1397582219997056 0.08125205319368435
0.06875431693116381 -0.1389201528646325 0.08142486350250393
0.06858874263014254 -0.13797972306996184 0.08150685045864627
0.06847935340869349 -0.13722168553777397 0.08130393177775636
0.06850171222360531 -0.13754350617494696 0.08185596692304059
0.06842452471455726 -0.13680790079599697 0.08164475992168456
0.0683500829609027 -0.13590477815076143 0.08165128215963031
0.0682785453620867 -0.13498985656410686 0.08167891213511982
0.06821691731080179 -0.13406658566065308 0.0817218937059775
0.06814101556827945 -0.13316363587695038 0.08177847291108428
0.06806280200103765 -0.13235181294595938 0.08180419071552235
0.06800357532518325 -0.1317576813657409 0.08186850060453135
0.06788875726512744 -0.13092326542991198 0.08153295185581017
0.06778344695190847 -0.1299712591301906 0.08165413603922317
0.06769499521817522 -0.12908757545876645 0.08177565915959212
0.06762407583141418 -0.12822263677899784 0.08190754367760247
0.06755463634439783 -0.12736890843303303 0.0820480359291014
0.06749168369939411 -0.12651852391493443 0.08219648722373517
0.06726985278044426 -0.12566580786731865 0.08136929794757887
0.06720678789433539 -0.12481248890234468 0.08151386839849893
0.06714562417794777 -0.1239547443216827 0.08165177150791225
0.06708047070602235 -0.12310086876269373 0.08178540623422706
0.06699936333470026 -0.1222557446572402 0.08193828269931111
0.06688811843743867 -0.12142937518905864 0.08211146903051773
0.06675566401843788 -0.12062795528871408 0.08231089425254459
0.06646530965143084 -0.11981378846193184 0.08154589399691685
0.06629696034606464 -0.11903162318004022 0.081831477372108
0.0661163941540408 -0.11818751629661942 0.08221234353123345
0.06588658093491215 -0.11734212420740127 0.08214526445984006
0.06562441518175322 -0.11652130494710601 0.08157920891978691
0.0654495387537247 -0.11562984639303626 0.0814179159108966
0.06541762401165355 -0.11494662775745366 0.08166386420338811
0.06537252462941076 -0.11406097392200674 0.08182478656291799
0.06533018783743208 -0.11312741744286811 0.08192359389529984
0.0652963896668287 -0.11217228268195048 0.08197981993809267
0.06525847343395097 -0.11120998140298051 0.08200665620879821
0.06522053389090939 -0.11025454996196905 0.08202877203230607
0.06516116877825455 -0.10930999679677787 0.08205019473761077
0.0650885235872979 -0.10837584311677204 0.08207618407941608
0.06500789192897921 -0.10747398863758442 0.08212895292214972
0.0648945354545446 -0.10656421582922017 0.0821305707928742
0.06476622117720532 -0.10560360840534386 0.08212759633369074
0.0646400319989453 -0.1046229727024103 0.08217346588345534
0.06448461769222502 -0.10364633701770669 0.08219134952309719
0.06430755934202774 -0.10263989511933971 0.0821639475953264
0.0640915016741275 -0.101615959256621 0.08214140651592489
0.06385423588254989 -0.10059688706012175 0.08213922762492665
0.06352556925034157 -0.0996019338726394 0.08213976975543194
0.06311301974274588 -0.09861040726255334 0.08215260309051865
0.06266728412911214 -0.09762403559483951 0.08218420897843265
0.06221985556239633 -0.09660185099879456 0.082220177766954
0.061751981756194674 -0.0956078787773496 0.08227349573273171
0.06137731765548075 -0.09469798115123418 0.08235528836554017
0.06119593076399155 -0.09404993006979298 0.08245742304207714
0.07584887237292152 -0.16809883970925976 0.08203438598980377
0.07469020266926503 -0.1668626336813208 0.08204933867470106
0.07403721313950762 -0.166347053284243 0.08163625038973768
