# .PCD v.7 - Point Cloud Data file format
VERSION .7
FIELDS x y z
SIZE 4 4 4
TYPE f f f
COUNT 1 1 1
WIDTH 791
HEIGHT 1
VIEWPOINT 0 0 0 1 0 0 0
POINTS 791
DATA ascii
0.07970390285160457 -0.15844146452820304 0.09403611685881795
0.07939037783629097 -0.1579593072887023 0.0938595135004917
0.07874498372944508 -0.15684653479747393 0.0935285276281469
0.07904582925403042 -0.15736056612143368 0.09371618514560882
0.07889986259517956 -0.15671021614957842 0.09426511877811024
0.07849303079952545 -0.1561059235836 0.09380226886171165
0.07822920103077455 -0.15538620372374382 0.0940394802923853
0.07794347123805853 -0.154812365770529 0.09382431879472719
0.07770345608741852 -0.1540317431177666 0.09409600669273714
0.07750399689665163 -0.1534289267664373 0.09428303065538789
0.07720983219320114 -0.15285688571938913 0.0940115599034597
0.0769354223648364 -0.15203417127694435 0.0942736696231055
0.07672736637355049 -0.1514111506121089 0.09444509385600586
0.07644439174998267 -0.15083358569779012 0.09414952568459065
0.07620080012538928 -0.1499778573970142 0.09436998564779861
0.07601104757369094 -0.14933794691298558 0.09449509840499189
0.07575457291873688 -0.14879130949506048 0.09420156473921071
0.0755424020020439 -0.14808221889149767 0.09426231679951706
0.07542231773025425 -0.14733084344476755 0.09471125163707576
0.07521439293565127 -0.146563928659394 0.09482915438546705
0.07494697316461327 -0.14593655396945557 0.09450113333753968
0.07479379426314613 -0.14524706221513173 0.09464984373741922
0.07438851084502573 -0.1439285191795878 0.09432300245789468
0.0746525650574655 -0.14450918101946789 0.09479250676131835
0.07448386353931541 -0.1436824531210508 0.09486898768528973
0.07424158731534625 -0.14308093389841145 0.09437752010347998
0.07411682944706073 -0.1422182177829116 0.09445318701507308
0.07410373527459867 -0.1415274932340514 0.09474845763733043
0.07409212598513554 -0.14075231870433547 0.0950513856584778
0.07369059368171817 -0.13897836480896691 0.09445323831643058
0.07394799481550107 -0.13980770970217996 0.09495672843012921
0.0736704714819039 -0.13820483806315287 0.09475333709430056
0.07391066997713815 -0.13869498251826645 0.09531448788019398
0.07377979221004047 -0.13785071604876906 0.09526995371897334
0.07353351848175807 -0.13737546391400235 0.09472734358574275
0.0734729538531498 -0.13633245026247506 0.09514030395307346
0.07332767750323226 -0.13560099223125763 0.09517149493330752
0.07285975342758672 -0.13432151087406824 0.09476148084804835
0.07316748863502447 -0.13483935200073896 0.09525118954266239
0.07296317617391633 -0.1339722264032947 0.09530474617267735
0.07265927555225449 -0.13353253970899773 0.09478056355348971
0.07254960049254329 -0.1324658397768523 0.0951975806304012
0.07235051079352083 -0.13157162320584584 0.09517185232372713
0.07233730874308324 -0.13091776801238444 0.09552990699203992
0.07191278949503098 -0.1290959249533649 0.09481717673668025
0.07216006577395176 -0.12998546240189945 0.09542086580302432
0.0718619548027651 -0.12812728094454334 0.09504468948577172
0.07207390344589291 -0.12893718752671451 0.09565242593861173
0.07181618565513323 -0.1273334480495334 0.09525368139623484
0.07200626550103101 -0.1279389549458753 0.09593484344459079
0.07186907003325023 -0.12701956414653323 0.09579026862561321
0.07168211056125248 -0.12637040394659166 0.0950798189201142
0.07158533528366694 -0.1252431065458108 0.09543341248289958
0.07142396168014267 -0.12431086357637196 0.0953062867789555
0.07131806526826487 -0.12363455343345749 0.0955220788512811
0.07115293747761348 -0.1228385494642802 0.09569473772579716
0.07093236145857741 -0.12191744494926014 0.09602148682403004
0.07066717250963728 -0.12109032675257132 0.09602195365912235
0.07037806168549343 -0.12045407650670283 0.09559946670800122
0.07007700565956673 -0.1196642562008223 0.09560894348832624
0.06983413578709748 -0.11886155841135165 0.09610107796570602
0.06953055981267126 -0.118023094769281 0.09618909323332589
0.06922974958288465 -0.1173911914048745 0.09576773274170183
0.06895240518854728 -0.11660972347220805 0.09580446590398567
0.06878039712364324 -0.11594341968609313 0.0960897034924245
0.06860810267571125 -0.11526342019335425 0.09637220645718804
0.0680672978799971 -0.11367582058751587 0.09576327751176072
0.06833476605040768 -0.11435401427501009 0.09640410923192293
0.06805768143646809 -0.11336766404623397 0.09639321808035778
0.06781478300904775 -0.11270699192373845 0.09568927833522138
0.06755305233348215 -0.11154786487607327 0.09612892541142394
0.06730283274128958 -0.11053491452355796 0.09600033605250023
0.06711444737095665 -0.1097441455858528 0.0962576696171393
0.06684509012809978 -0.10879519299802067 0.09638961880838585
0.06657057131630141 -0.10788897669755745 0.09647170147210045
0.06628930180953434 -0.10698669901427534 0.0965918247896628
0.06599319963617997 -0.10604414425840573 0.0966866362082246
0.06569334010652082 -0.10508495078687631 0.09675200856519006
0.06531757836387972 -0.10411500271944311 0.09681066175100762
0.06484214311067164 -0.10313410201886443 0.09687649241289026
0.06424286570561044 -0.10215080609425108 0.09695918285091526
0.06369241467887687 -0.10119017575361446 0.09702971456771345
0.0632781082087095 -0.10045001599661049 0.0970599325607345
0.08240311941091344 -0.1722924510202153 0.09436503953153777
0.08259042763018906 -0.1719608481139809 0.09400452895381796
0.08283336571131666 -0.1713200149135148 0.0942030268725645
0.08309286413949762 -0.17061779042381417 0.09449761562278876
0.08351430302158903 -0.16993291929625493 0.09385442232975534
0.08381820903415234 -0.16921176466182178 0.09412181385703913
0.0840284324782355 -0.16847352337252755 0.09440380154332192
0.08413552739996688 -0.167757551065875 0.09471971722923665
0.08419724137019051 -0.16714781396197728 0.09410123996843314
0.08426490568577126 -0.1665080492130425 0.0944947280164404
0.08413864491922017 -0.16595594656877516 0.09398803134490165
0.0841213894490109 -0.1653196821640341 0.09450162055682228
0.08345416247288841 -0.16451814898927897 0.09356997203762077
0.08378790452977604 -0.1648339057686117 0.09397299626929499
0.0827603300510558 -0.16294014933732803 0.0942066381622907
0.0830987515490481 -0.16296181853624714 0.0947309266462168
0.08338456352427641 -0.1635360591381976 0.0946068640222819
0.08362907575062338 -0.16422071314489115 0.09433944977741823
0.08187109295059347 -0.16184575512799046 0.09422958050077478
0.08231420211930722 -0.16211834587510723 0.094588319031765
0.08271467294091377 -0.16259480276541174 0.09456430402726529
0.08201446895452319 -0.16161272981998537 0.09471905463310513
0.08158801990242989 -0.161240953330714 0.09450528647198259
0.08123643723375973 -0.16055697948726425 0.09470147320441759
0.08088873456346911 -0.16012982468842193 0.09456298229657133
0.08033877933835434 -0.15937401380984684 0.0942705532154923
0.08056797501276003 -0.15963752606057774 0.0944664276716303
0.07963604386457357 -0.15797815402822857 0.09450767809872924
0.07996368720760584 -0.15843378601418595 0.09468941034943855
0.08037696612150139 -0.15900869664461267 0.09485636514095055
0.0797865156856126 -0.15776648559791692 0.09521696965834686
0.07933322087236254 -0.15726215577251457 0.0947392912573157
0.07903577652929304 -0.15655553877785944 0.09498257338007779
0.07874752802139086 -0.15606509371919774 0.09482236316509444
0.07816788686937857 -0.15498532698325057 0.09451273222409386
0.0784294477689232 -0.15546520035197303 0.0946950221708581
0.07828951090657084 -0.15481755095624214 0.09523267852846953
0.07798887137304342 -0.1543901313036243 0.0947359855019298
0.07743554873181581 -0.1530188598568787 0.09474458286832257
0.07772637927022426 -0.1535665096804415 0.09500896873609349
0.07752107150602953 -0.15279313645056442 0.09546046025751796
0.07722480996102642 -0.15238562948571033 0.09493623358308448
0.0766768595473359 -0.15099487548061916 0.09487980738400623
0.07696445178831939 -0.15151101719632729 0.09524801443777736
0.07676135637872991 -0.15081814581160205 0.09545131351330181
0.07650018249239897 -0.15030550311706872 0.0951317224138846
0.07595619824786107 -0.14886429753539543 0.09490775249841349
0.07621738995886236 -0.1493667366047186 0.09524621092078041
0.07603779719309382 -0.14862993093682694 0.09550180568670785
0.07576420574682766 -0.14807409636239482 0.09512488268482584
0.07561014577439534 -0.14733605988912618 0.09540171622068612
0.07517190382330229 -0.14603040937222675 0.09523183376933979
0.07545270439920605 -0.1465874121376396 0.09563548159375101
0.07527181462033507 -0.14577343940402973 0.09580320402676598
0.07499406668961485 -0.14520644747320052 0.09537365676636285
0.07485198536585508 -0.14445417274262423 0.09553022692187478
0.07446061359336238 -0.14313006771236556 0.09515623157758517
0.07471845900658616 -0.14368349896622903 0.09565065872501707
0.0745664979569729 -0.1428169347937047 0.09568756930545748
0.07433048705828897 -0.14232171885098335 0.09514617378791677
0.07430751116235429 -0.14135218952604195 0.09552586299792504
0.07427028774746204 -0.14030615096799523 0.09582974329072445
0.0741284672415525 -0.13939053471464502 0.09573583075960226
0.07413619734633013 -0.13876207163770496 0.09602879086952992
0.07375231438418205 -0.13710326859597188 0.09556842427086598
0.07400787535199142 -0.13790553270232137 0.09600230819470983
0.07371460907610744 -0.13634900557135216 0.09587920270498797
0.07396180951516658 -0.13684065249805763 0.09643718180438994
0.07380457896137409 -0.1360181586897909 0.09640104697001646
0.07353386704811163 -0.13548833856859874 0.09588140367927901
0.07338260233985622 -0.13472915126457224 0.09595388867012561
0.07288603566906202 -0.1332110513847023 0.09564718528687093
0.07322227618221853 -0.13396890921046764 0.09606191135737423
0.07280617571864059 -0.1324480480947926 0.09596796405783183
0.0730938080390447 -0.13286186198744376 0.09653643885730258
0.07288335087578614 -0.13205815023738737 0.09649972329608907
0.07260227944609303 -0.13161878069116556 0.09593621922980287
0.07248454526416757 -0.1305042630920434 0.09630683949555542
0.07228875360080572 -0.12957000358572493 0.09619299320563306
0.07222900693552073 -0.12879044769993847 0.09644973662410289
0.0721676444252277 -0.12808232507067832 0.09669047025192769
0.0718074861802977 -0.12622068187304666 0.0960419292833595
0.07202371038500793 -0.12717694478792418 0.09661619520068311
0.07173376021895937 -0.1254166130855598 0.09632244259203356
0.07192369995963055 -0.12605889143985397 0.0970044647575439
0.07176624406705172 -0.1251291934200955 0.09690096028776095
0.07155397241337484 -0.12441594345439118 0.09623098447831119
0.0713570422503662 -0.12344270873231088 0.09621016428100582
0.07122443867276868 -0.1227218854356287 0.09657270304244553
0.07106596529185265 -0.1220045394933098 0.0969047397704782
0.07052880655410565 -0.12055782155451551 0.09643199099662891
0.07080266305154792 -0.12119616193659606 0.09685749168690008
0.07051995880849554 -0.12030156260969839 0.09722165559812045
0.07022867150208992 -0.11974647949824369 0.0965052485822148
0.06998103472140724 -0.1189531305774751 0.09699533691088355
0.06937982092524558 -0.11744905411415045 0.0966063161983213
0.0696633605549559 -0.11805589828185013 0.09711945515125243
0.0693649990093705 -0.11717665964532291 0.09724561884116824
0.0690840587146468 -0.1165731328184702 0.09670853958009225
0.06880950735393138 -0.11569938054251948 0.09679618544870307
0.06862927510698602 -0.11502327909088121 0.0970723916046049
0.06844923383047333 -0.1143430758432731 0.09732521873679574
0.06785916183693452 -0.11255636240508252 0.09673741376671191
0.06817873370367811 -0.11347352025520224 0.09729240481879677
0.06766771099058347 -0.11175444716321675 0.0970596424289163
0.06789937934384185 -0.11236591569062443 0.09776085007038358
0.06762412337415555 -0.11142745096991394 0.09766793635964881
0.06739044437210676 -0.11076779169381755 0.0969306873062824
0.06707012484455666 -0.10963284622749143 0.09729563469551276
0.06676969975160621 -0.10864552733875331 0.09713064274913065
0.06654793925489932 -0.1079130372850923 0.09734678715380374
0.06625671090237954 -0.10698455097281794 0.09749892250011172
0.06591876991722748 -0.10602412135495227 0.09760794020657389
0.06558188480803144 -0.10505774476399063 0.09767766149108963
0.0651828450308069 -0.10407522805207815 0.09773917924435103
0.06471535374669785 -0.10308490817343022 0.09780667137495881
0.06415860700573454 -0.1021139654196625 0.09788209628430745
0.06368621568016275 -0.10124416543799979 0.09792277642702085
0.06345466986953584 -0.10082273614182816 0.09793536119831149
0.08241750068995435 -0.17214205674981758 0.09495270915813911
0.08255724604245476 -0.17187650651414385 0.09472771854248087
0.08276524954080765 -0.17129063207646916 0.09508452287778002
0.08300647927417157 -0.17062846009332536 0.09544140193814062
0.08341808084998459 -0.16991683110303105 0.09479831067930058
0.08373518638679574 -0.16919227360926783 0.09508842446386578
0.08397342935740325 -0.16844813381844012 0.0953814839494862
0.08411519851501992 -0.1677068309353415 0.09567091312833388
0.08423719763227915 -0.16708701387300823 0.09507031416948127
0.0843292378382147 -0.16647803155884508 0.09535008819548242
0.08431980339908943 -0.16590680762862864 0.09494307501293359
0.08432639785742638 -0.16544762549735337 0.0951546258591463
0.08426821491010528 -0.16511929730540384 0.09518661000358661
0.08439162470517293 -0.1653209587890521 0.09557848382683859
0.08433058932611386 -0.1649619778869974 0.09571932096902
0.08406094135351903 -0.16465809840888185 0.09500646698612225
0.08338864911442695 -0.16313559621271523 0.09505277886372844
0.08356748750511578 -0.16329118184786187 0.09535127234348563
0.0838441614734028 -0.16386655298426805 0.09542533503936078
0.08269471247369764 -0.1622627709729931 0.09499106940611718
0.0829836408593545 -0.1624555773000312 0.09526779516643258
0.08337362323883966 -0.16283096786418955 0.09557128392211202
0.08197891530523388 -0.16134082249910897 0.09502702367211696
0.08226787479423313 -0.1615414226092182 0.09529707776535272
0.0827016094017726 -0.16193828050816836 0.09556767414036586
0.08118517955398583 -0.16008986515316373 0.09519150557959698
0.08153082334352824 -0.16048797154443198 0.09539177887800503
0.08198163400361713 -0.1609784371778242 0.09562572108552927
0.08134763994411223 -0.15984325244745487 0.09591613739304271
0.0808672264214766 -0.15943332402275057 0.09541072992467935
0.08056703031754875 -0.15877247016651758 0.09565668340302533
0.08024363474119682 -0.15820313407803677 0.09570873075892584
0.07992072771575462 -0.157546789079421 0.09592466307897039
0.0795982148703111 -0.15711463242151397 0.09575431879746817
0.07895459002454012 -0.15610507947176705 0.09546801231897287
0.07924862644973113 -0.15656715218086664 0.09562806641310145
0.07908021949222092 -0.15590043033843853 0.09618857761946144
0.07866315770186573 -0.1553551548253304 0.09572761386479071
0.07838647158545432 -0.15458463548780715 0.09597114362134108
0.07809044293352531 -0.15402499418639243 0.09573152674843245
0.0778084297684159 -0.15316031161369864 0.09599788356883839
0.07760045122070781 -0.15252283656985632 0.09616907073741598
0.07732344364034636 -0.152018495632106 0.09588432379292171
0.07713455907152073 -0.15143839169333626 0.09601243685886876
0.07670611237627088 -0.1503450397725613 0.09585885454981169
0.07696537528126116 -0.15084509263996881 0.09614523767881822
0.076804642644834 -0.1500254362643781 0.09655285461789263
0.07652427140292678 -0.14965795340554533 0.09601208472984375
0.07599262559920694 -0.1481080906587195 0.09591820141487784
0.07628781789934426 -0.14864225426969058 0.09632820494901319
0.07608425583400759 -0.1478271540194061 0.09652279960674441
0.07580492051438091 -0.14728006601845348 0.09612750610201878
0.07565403160298341 -0.14651917190124078 0.09637099277717909
0.07523045256349278 -0.14521253465136644 0.09615965474383122
0.07550944906286244 -0.14574869279555125 0.09659094395288523
0.07532726068959221 -0.1449026622821401 0.09673185110600704
0.07505323420378764 -0.14435949844458268 0.09626088057154626
0.07492056588273092 -0.14358921186322052 0.09637553634631257
0.07454389167664999 -0.14205439089208202 0.09599784529735975
0.07479640657090394 -0.1428469655567373 0.09641579479366608
0.07451842330013944 -0.14111819375278917 0.09633387631346216
0.07474838599448506 -0.14183080009362098 0.09679876051236531
0.07450203054840725 -0.14032337103116646 0.09661400762980135
0.07472246116006204 -0.1408243011135936 0.09719546262252421
0.07459886793622353 -0.13997522891460368 0.09713160638629889
0.07436909600748297 -0.13938397764687002 0.09656993290295093
0.07424252116332751 -0.13844408072190145 0.09655439407531825
0.07421164288850454 -0.13766471140247988 0.09687596447422693
0.0741697630302198 -0.13689174312591265 0.0971980148146321
0.07375593679110494 -0.135447901166468 0.09664917462696862
0.07400341494232761 -0.13599258161887653 0.09719357631358932
0.07382433268918427 -0.13510781813785794 0.09718904543050438
0.07356811565884062 -0.13465221242574035 0.09662525882330959
0.07343777938645847 -0.13353466470423933 0.09712257120176578
0.07327692300828759 -0.1327652880795215 0.09721853107470749
0.07279119077537051 -0.1312959368752338 0.09679933068865673
0.07310041814023104 -0.1320425626635594 0.09725008676207844
0.07270116642371555 -0.13050701744742677 0.09711097199355735
0.07295536234711232 -0.13098727706930952 0.09768332752420078
0.07275664663151946 -0.13015647997030388 0.09766317588937666
0.07249853589154188 -0.12954454014874187 0.09709257969447152
0.07232840256324385 -0.1285862318573822 0.09710321517835942
0.07224603763873161 -0.12785249972257196 0.09731335667262092
0.0721411815610503 -0.12697558915069776 0.09751084059322555
0.07206523226762387 -0.12623210117356792 0.0978264766953938
0.07169208447094738 -0.1245200723854191 0.0971472093163208
0.07189120424174514 -0.12522510295270325 0.09780319540328972
0.07170277923820481 -0.12422466589442573 0.09774545992175646
0.07149336963006728 -0.12361187727225387 0.09707415322241782
0.07128796417374121 -0.12253348363808556 0.09758081409148152
0.07103040651183998 -0.12165021900708392 0.09754931064755978
0.07079370404494785 -0.12083489685614596 0.09795053749068472
0.07050078517489333 -0.12003586684670726 0.098010434709352
0.07022250694342455 -0.11941414036799734 0.09761862159222297
0.06993942416451578 -0.11864308395493672 0.09765867367677845
0.0697712817089754 -0.11808195610636356 0.09802958523328544
0.06921037959201132 -0.11658548060266785 0.0976211320699503
0.06947116836543171 -0.11720008908347747 0.0981495479543277
0.06918092130854518 -0.11629614908331479 0.09826021227918319
0.068919313650143 -0.11567649919731868 0.09770074607783236
0.06863876000287883 -0.11477851776791666 0.09776837233584672
0.06844449128055351 -0.11406233266321547 0.09802865130817214
0.06819783685448248 -0.1132111569773176 0.098283013818027
0.06801318464151479 -0.11247821948617268 0.09862857892006192
0.06739552262379224 -0.1106297875134233 0.09795259932858762
0.06772520082100546 -0.11155278333276711 0.09856082294224575
0.0671619043262615 -0.10985223007018922 0.09821291685186577
0.0674028870719685 -0.11045844289156757 0.09893586690301895
0.06709457521115765 -0.10954126828370545 0.0987705440574641
0.06685645224449759 -0.10890793633420441 0.09801866576432525
0.06654089443929538 -0.10790703179284494 0.09824536237307063
0.06619114644399562 -0.10693354458789991 0.09840370415256847
0.06580546814114571 -0.1059589547364487 0.0985189641414842
0.06542862069299256 -0.10497878474162876 0.09859547684150916
0.06500807612604338 -0.10398914199460055 0.09866082443862931
0.0645552819784278 -0.10300366927191099 0.09871879753802804
0.0640886584956402 -0.10209717964810079 0.0987311587802534
0.063765265737819 -0.10143056109578365 0.09859107584969924
0.08252225149676579 -0.171776600881963 0.09547531435064997
0.08272040303064378 -0.17127738951625718 0.09597878759637617
0.08295734243998423 -0.17063162401975945 0.09638851687963494
0.08328735751169276 -0.16992760913464297 0.09577812843743094
0.083613090975692 -0.1691880264014768 0.09605278218335085
0.08389834049382634 -0.16840692935073065 0.09638494521122282
0.08408088585736882 -0.16767818467337992 0.09640593641285848
0.0842419409647847 -0.16699972126080198 0.09612075455121781
0.08436885567713753 -0.16635223477512331 0.09592486406741325
0.0844039476447799 -0.16607226001458233 0.0955577701509033
0.08441988056735159 -0.16568473028512368 0.09558027006710124
0.08443521927275523 -0.1654722939699996 0.09625621432472187
0.08438094157743788 -0.1648626330794407 0.09634845004322962
0.0842161447797543 -0.16443320727718644 0.0959648179255899
0.08411533190718405 -0.16387835492058664 0.09663606761541885
0.0837336319629332 -0.16319456090147522 0.09617334932126498
0.08348999192101828 -0.16267627275912855 0.09628082166374215
0.08316854507384139 -0.1622489036320625 0.09622116851125243
0.08285077811872396 -0.1617374627516313 0.09634986537096042
0.08249753193453224 -0.16129425533707453 0.09630582980153216
0.0821490222455381 -0.16073782631900033 0.09646433046148772
0.0817842353619686 -0.1602269174914968 0.09645923379871064
0.08146148228039946 -0.15960559830832027 0.09663560162340637
0.08114442125198053 -0.15921651112544769 0.09643078792197476
0.08054390351858869 -0.15845358939005308 0.09607869999598363
0.08078037627495585 -0.15874487168071316 0.09625779563691246
0.07982983519625848 -0.15709632019000516 0.09639254961362852
0.08015238229811025 -0.15751739842178722 0.09656162616966099
0.0805525740418129 -0.15807810335672262 0.09671120063945492
0.0799571496356296 -0.15685903085629682 0.09710276166345409
0.07951719887593385 -0.15638870022076223 0.09665247246678638
0.07919992367870302 -0.15567439912336362 0.09691039189892764
0.07890847289552413 -0.15522363987394483 0.09674685696879146
0.07830424851198724 -0.15410833339053862 0.09642788809614093
0.07857432248080554 -0.15453348496735686 0.0967179419833364
0.07835886472732562 -0.1538892198413094 0.09697376593961898
0.07810031027300186 -0.15342961476397193 0.0967220761824875
0.07753520778626524 -0.15205051789138718 0.09658747882878582
0.0778058906963727 -0.15252455089662956 0.09689215852217753
0.07762594359362703 -0.15182372424409551 0.0971678197762817
0.07732620732163692 -0.15132259247595997 0.09678982024207622
0.07708893870827292 -0.1503653838546445 0.09709330857544451
0.07690352884883994 -0.14968099908258603 0.09724924465216286
0.07664336445262249 -0.1491616775220823 0.09696454607129745
0.07647989633157662 -0.14849621819818645 0.09712242308559563
0.07602978791970044 -0.1472594116542125 0.09691894516059747
0.07631474037241509 -0.1477618982058809 0.09733792585307471
0.07611972787994041 -0.1469404594888243 0.09751993105514581
0.07584905530525049 -0.1464172831453906 0.09710764242488949
0.07570287670615856 -0.14564011360322782 0.09732898002374424
0.07528832297309046 -0.14431052201093356 0.09706417990822593
0.07555484947512535 -0.14484775558271418 0.09752238953254208
0.07538221733194181 -0.14398125393695863 0.09762729157992658
0.07511491593335136 -0.14343606654135008 0.09711657087313771
0.07495402890638411 -0.14246208832733775 0.09718703762512065
0.07494259170580898 -0.14165544303360883 0.09760297420058915
0.07491909150797822 -0.1408779458110472 0.09794455869051226
0.07458128350095958 -0.13937623830625354 0.09736625047056527
0.07478835479970967 -0.13996150534873908 0.0979298337194058
0.07465697207492519 -0.1390438303808998 0.09790342882801069
0.07444368879528974 -0.13851405248901422 0.09731807140969924
0.07438081015013173 -0.13741512838689826 0.09778252947148983
0.07423617583725113 -0.1365604317323707 0.09774831626576887
0.07418276543210525 -0.13596573718712765 0.09801314934934617
0.07373925631517379 -0.1343360717228098 0.09754678093074924
0.07400727860084443 -0.13513235303358223 0.09797977939354931
0.0736476403286351 -0.13355316473737266 0.09791808964272332
0.07387837132622252 -0.13406466917041446 0.09848375195653364
0.0736934285086312 -0.1332130729448672 0.09850743154255612
0.0734335678210854 -0.13263288634730358 0.0979730986313763
0.07321425407433119 -0.13168043022253884 0.09804662641945845
0.07314022085635898 -0.1310558072436186 0.0984245457184448
0.07268300007815211 -0.12954989954344887 0.09793795759981441
0.07292679558506411 -0.1301535112901887 0.09848555055327939
0.07272399788231029 -0.1292489314034779 0.0985019520769381
0.07248790346670761 -0.1286094060512756 0.09793878739964584
0.07231846080777242 -0.12761895649799948 0.09797462693883871
0.07223784237603231 -0.12687571497337527 0.09830386097005767
0.07211201930059362 -0.1260041424323403 0.09849574547941774
0.07200517907221207 -0.12526749852182745 0.09869014095419208
0.07156823850047452 -0.12342880338619171 0.09808547015029999
0.07181782938309357 -0.12434809394952027 0.098627730828985
0.07141863134048962 -0.12263508305822961 0.09845286510340462
0.07162403545235313 -0.12321456647498687 0.09908853245920882
0.07139425261270596 -0.12232774306504768 0.09906554570290106
0.07113588649862568 -0.12167897083961574 0.0985102987989496
0.07088397184591984 -0.12086431942846276 0.09869763990330632
0.07033394587517584 -0.1195009447462818 0.09841385083605082
0.0706223529339977 -0.12008307664753705 0.09888399883476906
0.07031206761161217 -0.11924495163165158 0.0990292996307571
0.0700339227706533 -0.1186607888457111 0.09854911819974208
0.06973457683128084 -0.1178059798693258 0.09867275044694514
0.06957398630974529 -0.11722185128355915 0.09905369625053895
0.0690201681043002 -0.11569155348987054 0.09862203985993423
0.06927692297734084 -0.11631507494582531 0.09916552934568605
0.0689805079285546 -0.11539988958189332 0.09925106263564265
0.06873337397106236 -0.11476326161203985 0.09867339627087754
0.06843352442242677 -0.11379773324000902 0.09875726634127384
0.06823416894806014 -0.11305992226884708 0.09913044813824164
0.06798905532755975 -0.11217388774174189 0.09934120569811994
0.06771897102592649 -0.11129712177436965 0.09951852181231793
0.06750123041068712 -0.11056755671463073 0.09979610893779327
0.06683305897331769 -0.10876054706061992 0.0989630924805031
0.06717725114733078 -0.10966629052061665 0.09963744940840885
0.06649680531827275 -0.10781413594973052 0.09914244353623593
0.06680678514820132 -0.1086414322914011 0.09985551391808228
0.06607523468701075 -0.10683503488254407 0.09930330387198316
0.06638614881752386 -0.10766984215496425 0.10004445913888008
0.06562771426962515 -0.1058564913362344 0.0994257147739957
0.06589757099064115 -0.10670418637214606 0.10020598401562267
0.0652462380179877 -0.10486623768137066 0.09950327230852385
0.06548830719991737 -0.10571185091385102 0.10032432082514325
0.06484523667329439 -0.1038707153078974 0.09956030829709955
0.0651115162151367 -0.10470456545325825 0.1004064774103267
0.06446847023641047 -0.10294245143956109 0.09955630717654518
0.06475977539677531 -0.10376004844063404 0.100405387437533
0.06415654134337995 -0.10224564822356902 0.09937702525620873
0.06449759208315349 -0.10305511857308933 0.10021279212022714
0.0825687899965137 -0.17159193082038646 0.09621545234208431
0.08277186265618333 -0.171106225215468 0.096818689356264
0.08297256866880612 -0.17056761553057964 0.09714123709780925
0.08322082387285898 -0.16991144317137752 0.09680932851160665
0.0835649064477385 -0.16916414574001865 0.0968335680470056
0.08370965711835268 -0.16875477488711205 0.09721131238291028
0.08413733350566563 -0.167432398498518 0.09672926461499921
0.08397462750126738 -0.16798751512060994 0.09715779367148165
0.08443173046716261 -0.1659682680125495 0.09598656144552466
0.0843683734584469 -0.16627629657129683 0.0966062661282406
0.08420419099789679 -0.1671244812084447 0.09723904034647692
0.08442767292032168 -0.165739765841337 0.09710514689030317
0.08432396126699962 -0.16449150116338285 0.09669827514283347
0.08443738964377977 -0.16505128178330541 0.09713003555203412
0.08417086865416491 -0.1637364850573386 0.0976377191533287
0.08393862469309023 -0.16324633634438682 0.09716513027694221
0.08433324247535517 -0.16435819932712106 0.09744521601236512
0.08343033268674088 -0.16246011943805222 0.09663816068955337
0.08363674465216113 -0.1627441697360294 0.09687506061580732
0.08278720654536043 -0.1615015989221738 0.09673455621731941
0.0829943412861517 -0.16176662672683456 0.0969508728956842
0.08334020704803347 -0.1622503186347087 0.09723394172308675
0.08207118285266293 -0.16045808582271623 0.09687614423234546
0.08231462643217427 -0.1607431177194139 0.09708669968648213
0.08269351411548385 -0.1612459416123256 0.09734335716042954
0.08133720928184451 -0.1591659255497938 0.09709352961521936
0.08162412227349995 -0.15956804985740886 0.09730609322837744
0.08199914990302042 -0.16013110601078923 0.09752620131663378
0.08139522480416173 -0.15893886464551332 0.09781799635460653
0.08100383612007708 -0.1585026006775191 0.09730192132369332
0.080706049446819 -0.1578185891961619 0.09755327231098751
0.08037736827554813 -0.15726305941640714 0.09757905279162887
0.08007826889844318 -0.15661040817404506 0.09783724080798967
0.07977833843382129 -0.1562080830152689 0.0976611781585201
0.07910168563941412 -0.15522146122226427 0.09734380517406822
0.07939744890520142 -0.1555819350266151 0.09762567320949891
0.07914466309937493 -0.15497598480222535 0.09786476619090569
0.07886427176674918 -0.1545857062683731 0.09758899079073395
0.07829248038318655 -0.1534365447293966 0.09740053802926865
0.07853656394704922 -0.1538892790968999 0.09756511532042844
0.07838729268490892 -0.15316232657906112 0.09809612669607189
0.0781100044523823 -0.15278687836380808 0.09761236687858008
0.07757687896487993 -0.15134894797768292 0.09758267963472368
0.07786412721622608 -0.15183694308513113 0.097949499642394
0.07765936900760849 -0.1510966437185368 0.09815632063492138
0.07739602755145929 -0.15061512771305482 0.09783465207071522
0.07685523396944728 -0.14914752622291771 0.0976600547881635
0.07711876549509826 -0.14963356522261703 0.09797994606197108
0.07694704673484966 -0.14885852117316115 0.09824372702706431
0.07666550252125715 -0.14836074727632934 0.09786241045224434
0.07650337539106736 -0.14762034003780353 0.09809206337712512
0.07607520934981978 -0.14635946856653662 0.09791050180252936
0.07633961116254637 -0.1468620237774043 0.09832344512079635
0.07615035286265252 -0.1460257024397217 0.09850440811797356
0.07588164951285757 -0.14551003017084083 0.09807047654831329
0.0757332200721056 -0.14471970549040916 0.09826614738592278
0.07533824741490926 -0.14337550956597991 0.09794206690149311
0.07558567645465525 -0.1439232499631971 0.09842751405037092
0.07540418170885065 -0.1430222464016109 0.09850542025334437
0.07517457964044229 -0.1425141193327489 0.09797011977741368
0.07510997321606731 -0.14140555811993927 0.09849490439210822
0.07498682009543926 -0.1405448057435155 0.09848435627363979
0.0749501035483976 -0.1399502786317115 0.09874461957121079
0.07460571228383271 -0.13826041201915146 0.09823543533762795
0.07481241939242525 -0.13910048112013937 0.09869439691032746
0.07454651981398921 -0.13748023993763897 0.09858355666720484
0.07472383283535039 -0.13802486135579936 0.09917903382648537
0.07458343780296678 -0.13716022094083533 0.09916972255559697
0.0743851089850683 -0.1365446618556479 0.09859697517976462
0.07421883662262503 -0.13561989838012206 0.09858919602821
0.07411990431704106 -0.1348663681203342 0.09889360596051164
0.0740271581725441 -0.1341480974764947 0.0992420379951014
0.07361065508026858 -0.1326074953332497 0.09883622062657423
0.07383232388238428 -0.1332322947284709 0.09936286850731729
0.07362955997195167 -0.13230404632345624 0.09944127508254819
0.07338910993622345 -0.1316869457378296 0.09891387997877436
0.07317128008346839 -0.13077078940930598 0.0989961842877892
0.07307119131433018 -0.1301722460747971 0.09931276616227197
0.0726352925182183 -0.12864905619496697 0.09878509690837832
0.07285771411360259 -0.1292690508701817 0.09934280305809814
0.072656050879255 -0.1283278361998311 0.09935949566241273
0.07245820865435607 -0.12775537638602935 0.09876237788490132
0.0723157703021204 -0.12664332825076977 0.09921042280009647
0.07214732462506288 -0.12575224595673026 0.09914647708253213
0.0720262533938752 -0.12500612456099386 0.09938635929384244
0.07185817616097476 -0.12408297401392221 0.09959121721672662
0.07172785379475521 -0.1233310552555915 0.09988658559655833
0.07124871381497765 -0.12173618030393708 0.09938316826740529
0.07150045054318009 -0.12237169907019804 0.09995232220475467
0.0712412842928557 -0.12143594948651563 0.09999170249518033
0.07096490749298552 -0.1208326992807697 0.09948468277275474
0.07070322906236438 -0.12003466938701329 0.09967383197090052
0.07015173422417129 -0.11867736423414123 0.09941779552541534
0.07043402516088203 -0.11923956480792525 0.09988860392458215
0.07012694262241141 -0.11838134432072861 0.10004791618097421
0.06984582943824172 -0.11780932504594527 0.0995616096846775
0.06954462937190582 -0.11692897182746213 0.09969028064403086
0.06937523560907619 -0.11633220292353866 0.10006221742858468
0.06881414537990564 -0.11478675983796702 0.09959161023128489
0.06906822501661704 -0.1154115576041998 0.10015337451196679
0.06876056137821565 -0.11444446661221751 0.1002241779685059
0.06853508234540008 -0.11389574726430308 0.09959856784910558
0.06824487708351422 -0.112777069723107 0.10009005523059933
0.06795012424236137 -0.1118700219697277 0.10004577902839307
0.06772929255710988 -0.11113852967882988 0.10034046598103351
0.06743326492760517 -0.11026374672950774 0.1004714558586628
0.06709735346958348 -0.10937684844523703 0.10055625364492247
0.06670018242907508 -0.10845843164138415 0.10075148031863733
0.06621735169525929 -0.10751310455203647 0.10094323021110142
0.06577854729793411 -0.10654437144506494 0.10109579028046699
0.06539026730460021 -0.10552991916235861 0.10123789665997741
0.06503410151865101 -0.10456579476345072 0.10126722693761797
0.06479217609055787 -0.10384639801231604 0.10105978947725688
0.08312097661013855 -0.17015005397083183 0.09756504919318942
0.08300811108005658 -0.17056437359034282 0.09759724200617012
0.08327864881311746 -0.16990589317608268 0.09816037467128863
0.08339693717208037 -0.16945407966276244 0.09763553495544249
0.08369801177342408 -0.1686635729409425 0.09797391705423217
0.08396972807564493 -0.1678392851198807 0.09812469859152903
0.08419852436530487 -0.16704219832078937 0.09830914987947392
0.08434209230203679 -0.16633641566601395 0.09762414789360435
0.08442444551290856 -0.16564554767045037 0.09791154772334325
0.08441213776463453 -0.16493391156816486 0.09815431372832754
0.08400897875047016 -0.16328651381756906 0.09788926008204776
0.08410885084728592 -0.16359543183555106 0.09829723658881025
0.08427253105394143 -0.16418665806033536 0.09844454665031892
0.08390570419312283 -0.16319135155141726 0.0985512244533898
0.08371069400199234 -0.1627802904499491 0.09783870336134855
0.08331820670533409 -0.16220209213795 0.09833432443532705
0.08300958437790278 -0.16170184139431568 0.09785897920643656
0.08268025267396391 -0.16114346128103474 0.0984531638787318
0.08236648734692624 -0.16062090138698398 0.0980313667250661
0.0820523420716776 -0.1599788386612087 0.09862274312326176
0.08171016163459989 -0.1593467097551273 0.09833753940754633
0.08145125085738515 -0.15872759266820013 0.0985514117158846
0.0812125696719383 -0.1583276094864796 0.09834996834313366
0.08065771310337194 -0.1574943567074407 0.09794467962522219
0.0808943080286324 -0.15773574766566542 0.09826560733443271
0.07998708768428946 -0.1561667416177432 0.09828450743831475
0.08031087102290174 -0.15651129123770033 0.09861698006009266
0.08061720853620546 -0.15715524900496405 0.09840259565054779
0.08001905400779577 -0.1558931609318875 0.09882555661192248
0.07971021353939214 -0.15557207400077402 0.0985169313020877
0.07904034854993384 -0.15449119131477593 0.09831099189967105
0.07932801301230359 -0.15493872224124636 0.09848240857317661
0.07913834034486261 -0.15422427481514747 0.09905691564671175
0.07874085288143208 -0.15368403585787566 0.09858211225939978
0.07846112645691715 -0.15283891052524576 0.09882835421522586
0.07820406783487477 -0.1523073388773405 0.09857207049639478
0.0780267786394904 -0.15168712082255406 0.09871917174345667
0.07760123100497442 -0.15058584686886892 0.09855238342186197
0.07784510349241222 -0.15107713579820595 0.09883732014731024
0.07766905594295433 -0.15024539772837128 0.09921111350866979
0.0774199825964837 -0.1498958772649596 0.0987005040694361
0.07688221122433564 -0.14830225306917066 0.09864230186332751
0.07717470311200708 -0.14882427752070557 0.09906207084892812
0.07693857716731274 -0.14795986850640308 0.09922857667240073
0.07667120362416066 -0.1474756791358029 0.0988286993920934
0.07650555200579337 -0.1467191533779904 0.09906698746888142
0.07608550892157637 -0.14543300624124592 0.09888088008754575
0.0763305732619983 -0.14595201975086683 0.09929788070069155
0.07613481452343185 -0.1451105456317642 0.09946857384887157
0.07589107166034854 -0.1445853202398995 0.09902108122856032
0.07573317511443786 -0.14380384970296373 0.09918093059183149
0.07533379598908041 -0.14224023546425607 0.09888929679420998
0.07557471286071447 -0.1430495878136251 0.09927470496701365
0.07527087278383118 -0.14145765588534875 0.0992725189810421
0.07544408899470521 -0.14198944793323526 0.09980870722799191
0.07530273395362758 -0.1411413842630337 0.09985360157810899
0.075123182905956 -0.14052985506702137 0.09931756659555488
0.07498781648113331 -0.13960408164899488 0.09931602664172078
0.07491450476147316 -0.1388444020337551 0.09961518839368394
0.07484386925950035 -0.13812666217620995 0.0999640320427252
0.07451855605893434 -0.13654999008280302 0.09947492278931286
0.07468790948261665 -0.13720277978394724 0.10005119327263769
0.07453099172847287 -0.13626113614627025 0.10008866221911324
0.07434356397003142 -0.13560223012156558 0.09950825561230285
0.07417374658441139 -0.134652352913635 0.09959587429329882
0.07406018398902196 -0.13396154893678924 0.09990219605788776
0.07393284381500917 -0.1332746817787365 0.1002120388470156
0.07351770532753192 -0.13169754859986132 0.09978078041987277
0.07372310099683427 -0.13233566225253146 0.1003251004206557
0.07350560000733412 -0.13140067344118977 0.10038492366468471
0.07329728104878185 -0.13078262826097548 0.09984464728167687
0.07308266247068299 -0.1298774093919283 0.09989376906327972
0.07298090821605042 -0.12928061636677746 0.10019354644393558
0.07254714143604053 -0.1275312325989269 0.09971390731477206
0.07279002648424869 -0.12840862201121903 0.10017503951862368
0.07243085855370973 -0.12674318629206507 0.10004134212751084
0.07261909985441285 -0.12730549554740586 0.10066589919896025
0.07242515644345641 -0.12639348604144346 0.10060128789355005
0.0722448924254817 -0.12584262243442912 0.09994423079230419
0.07206738426683693 -0.12474647856537621 0.10030253222192136
0.07188250770127218 -0.12385297048053383 0.10026379031748348
0.07176143035164105 -0.12314443274401801 0.10054747988248341
0.0716225940135152 -0.12237436201607607 0.1008665367376666
0.07109227099235331 -0.12082233145630787 0.10034927735381075
0.07136047985007174 -0.12139109639702353 0.1008959007103792
0.07108033806151184 -0.12048789335879251 0.10096498014307506
0.07079551219656718 -0.11993747927111809 0.10046904062882737
0.07052192334244181 -0.11913897631969551 0.10067957355420862
0.06996133086840695 -0.11779433724686526 0.10043677678034457
0.07024515280949425 -0.11833962465957147 0.10089658105450187
0.06993516049714087 -0.11747296397547287 0.10105469705387649
0.06965429597761859 -0.11692658991295221 0.10055542710878462
0.06934691978471491 -0.11603859905921071 0.10067817855624726
0.06917168803105089 -0.11540781445282743 0.10108487507678512
0.06854317907095475 -0.11363481012961223 0.1006052735200847
0.06884981356210207 -0.11448805719542714 0.10109445027660201
0.06832579552961567 -0.11284021705371615 0.10095446171695976
0.06851990854924422 -0.11336673010740421 0.10157642581335345
0.0682261780589399 -0.11248503359758452 0.10154416763056154
0.06802925898146431 -0.11195849193875944 0.10088054639852514
0.06766899818228338 -0.11087189255147974 0.10126727995936098
0.06733033065373098 -0.10996815716595007 0.10114634038595718
0.06699565107964295 -0.10921478539701741 0.10141185553801244
0.06653502575540052 -0.10830211817330036 0.10164184266052283
0.0661086100858396 -0.10735004809255114 0.10181813693812386
0.06571458688590705 -0.10635987280342488 0.10199192926446583
0.06537895527834343 -0.10539822091242505 0.102177741279618
0.06511251355250325 -0.1046093061717264 0.10190193598885708
0.08348572474890875 -0.16954676722563497 0.09878101136197022
0.08353418885344592 -0.1692589540809808 0.09853972386420584
0.0837890122485887 -0.16843313085378633 0.09899532250866717
0.08402390622356871 -0.16764327860083475 0.0989762739350416
0.0842010694874152 -0.16698288465774844 0.09926453159551687
0.08433577303563233 -0.16629672282792762 0.09858374408893472
0.08437830685217514 -0.16557023531191367 0.09887259711850427
0.08434762593405733 -0.1648718307617566 0.09914209481134413
0.08420032647615124 -0.1642747735213853 0.09948217412015727
0.08406473996702693 -0.16368561575017426 0.09901444055561731
0.08377790538955708 -0.1632115677682963 0.09943138229740332
0.08358340964074981 -0.16270208606660774 0.098890074230818
0.08319146451937336 -0.16219735495707116 0.09936230303132114
0.08294412906233155 -0.16167123653263918 0.09888144484729755
0.08259539203094722 -0.1611444171840199 0.0994499408982742
0.0823190119705776 -0.1605012106005326 0.0991653617011
0.08203837703965529 -0.15988443127105 0.09943218351152898
0.08183790193962556 -0.15938506330749808 0.09928202781388747
0.08135315142392367 -0.15831169786701524 0.09899061252739866
0.08157284356150252 -0.15868773981738937 0.09931035981477387
0.08138182833800432 -0.15807921833614758 0.09957657312432963
0.08114960502999627 -0.15772501745672476 0.0992244337869669
0.08059482239735351 -0.1567988002038703 0.09893383922591534
0.08082079492432508 -0.1571171024267645 0.09912027855296937
0.07987486462934822 -0.15543774248440173 0.09922107443497881
0.08016559603129651 -0.1557564928280091 0.09951917519857775
0.08058403905047755 -0.1564005780384838 0.09962824754344887
0.07989566201053187 -0.15520742356366782 0.09972037313122474
0.07957259607895532 -0.15474105935919497 0.09956149664009746
0.07920701535622156 -0.1539676403129907 0.09979700856895898
0.07892800572722827 -0.15349910715265586 0.09962143395946374
0.0783726329755346 -0.15228864411466167 0.09927347354065114
0.07861259110757163 -0.15273990237425877 0.09960826674785597
0.07840644792906575 -0.15200842695639952 0.09985545709123422
0.07815272193623264 -0.1515282234143755 0.09947970142287124
0.07789064064554378 -0.1505680911524041 0.09974089116709767
0.07771304376220185 -0.14988949329286755 0.09987215103534117
0.07751137287786053 -0.1494614471055957 0.09955282676367085
0.07739371064096277 -0.1486585193829002 0.100121479793892
0.07686068319463227 -0.1473716457689472 0.09961651562327342
0.0770993685107774 -0.1478208858494129 0.10002047478445845
0.07689620539099268 -0.14704591532389671 0.10019673255898463
0.0766482974280204 -0.1465732353287353 0.09980514995920949
0.0764618193208049 -0.14582430140133226 0.1000399251747606
0.07605223233731127 -0.1445298161455843 0.09984125398207118
0.07627654285067427 -0.14507085313287207 0.10027311571557301
0.0760719897408976 -0.14423362596183842 0.10044040243191246
0.07584266595577936 -0.14366955920133462 0.0999661132487358
0.07564233367571364 -0.1427223587240248 0.10012105411110593
0.07556831077491145 -0.14211713512189753 0.10055374897700119
0.07523435019656428 -0.1405479263543514 0.1001748508121282
0.07539301709314757 -0.1412009070716451 0.10069592632619283
0.07523820548706887 -0.14026793739460783 0.10078894872765332
0.07508346448315606 -0.13959545985032315 0.100235533128287
0.074957832362058 -0.13863459153930102 0.10034094646628634
0.07486608502355686 -0.13793862900940257 0.10064568402496292
0.07476476683974079 -0.1372494446287831 0.1009339301837967
0.07444589378105976 -0.13565058896173157 0.10042289867368123
0.07459646165216655 -0.13632664999818436 0.10100674875020899
0.07443099806915728 -0.1353804472634134 0.10104761734313784
0.07426129355747373 -0.13471020557179447 0.10046720393488237
0.07407921374335155 -0.13378076016492213 0.10057431098390515
0.07394805763546952 -0.1330734834388542 0.10093778659430505
0.07379413122028199 -0.1323279085986977 0.10126238089877766
0.07339403686733614 -0.13079039866471306 0.10071038934618015
0.07358575213560585 -0.13140146782028234 0.10127868684555175
0.07338657905043207 -0.1304858063293816 0.10131389836720019
0.07318717573447386 -0.12988657698535008 0.10074489321169167
0.07298277023898853 -0.12895979110998812 0.10076933439954823
0.07286066554466093 -0.12818941655455798 0.10112407769595594
0.07274558455756935 -0.12739797177692208 0.10151180467026955
0.07230286794349201 -0.12561089970791092 0.10086002490233943
0.07253824402090259 -0.12646136406466918 0.1014246553969876
0.07219445811168682 -0.12483306972828971 0.10110733997503206
0.07237792538064884 -0.12536750556263843 0.1017440814450189
0.07219394649105221 -0.12448216280106864 0.10164088480152862
0.07200240794842638 -0.12396145531681915 0.10100825387254089
0.07183703247651317 -0.12298272432385987 0.10134275946945485
0.0716514720779394 -0.12198291304564299 0.10165850081596108
0.07145382711376579 -0.12123939603373876 0.10166659569106393
0.0709160023717664 -0.11987325437839831 0.10132195491688915
0.07120163419614471 -0.12040664911491733 0.1018292179252574
0.07087955424116635 -0.11951038104978012 0.1019150048369832
0.07059986770801495 -0.11901213446894858 0.10144936252089325
0.07031587720668221 -0.11822579002717146 0.10166170645635278
0.06975632760329697 -0.11687940207926645 0.10141154865110202
0.07001267897995075 -0.11739685737049312 0.10190439532868883
0.0696640198967598 -0.1165055093884456 0.10200955979663855
0.06945453675640116 -0.1160739239097968 0.10146259979741003
0.06909605802496452 -0.11500143988385389 0.10196238598377082
0.06878680368574466 -0.11410605319518853 0.10197042396499933
0.06856783615609624 -0.11346800856553911 0.10240197506998792
0.06796097066147504 -0.11171587831675693 0.10185148275944779
0.06824340529927102 -0.11255282413077627 0.10238812124804653
0.06767294780362412 -0.11095627584047428 0.10214200556154349
0.06782774302750014 -0.11148131121363593 0.10280973911991491
0.06750642849579293 -0.1106158749858614 0.10271161937371906
0.06734802403551726 -0.11008675249266071 0.10199410927019771
0.06685753647737812 -0.10909024170778141 0.1023060356939795
0.06643815317031655 -0.10813103687948156 0.10251539766092181
0.0660648020278983 -0.10715565063441244 0.10267540403846462
0.06571308959382334 -0.10626076013431915 0.10281245125856406
0.06554657629654684 -0.10570660241058863 0.1029524811373433
0.06539586350454782 -0.10524041774081527 0.10269649047962799
0.06564820862933657 -0.1058343467929042 0.10338148141510894
0.08366837933978637 -0.1690374652858249 0.09915149622173168
0.08387414353896146 -0.1684504627064824 0.09972305601671351
0.08401506947768457 -0.16816429173509248 0.10024790617770606
0.08405971161172332 -0.16771854803155117 0.10005785779113509
0.08423031766471438 -0.16684986390228487 0.10005253583405588
0.08432108923949001 -0.16623678899684333 0.09952561943007493
0.08432329724225653 -0.16551868546451015 0.09994938083014324
0.08426680323088268 -0.1648248879634572 0.09996668357994222
0.08408598177623136 -0.16439692408112908 0.10042147462876387
0.08395458641872092 -0.16377665534197272 0.09993451120255811
0.08360824111265414 -0.16330192676494748 0.100398273691521
0.08339658653337644 -0.1627346557149248 0.09987550782168814
0.08297552528144449 -0.16225762989190498 0.10036097123099229
0.08280222746608186 -0.16169532330128603 0.09987473618940221
0.08243958838457806 -0.16118182159636835 0.10038684041210222
0.08230988162761528 -0.1606934225191377 0.09999750528740965
0.08188315413738367 -0.15950819233923041 0.0999265987341853
0.08204824512466223 -0.16005040894311795 0.10019427879398496
0.0817817179998695 -0.15932041205278472 0.1006842439242632
0.08170170968726878 -0.15891102453267092 0.10010536735530921
0.08129223255918482 -0.15762273142902242 0.10001253478918479
0.08148895916492188 -0.15806443194117903 0.10039068865886656
0.08131352824007546 -0.15739288590566156 0.10058330250657041
0.0810295413148434 -0.15687574057523562 0.10032199893764328
0.08070404219333596 -0.15609103784679873 0.10054733679943884
0.08040415517100108 -0.15565132865133188 0.10040081532709531
0.07983053703586616 -0.1549080302503393 0.10006140616208117
