# .PCD v.7 - Point Cloud Data file format
VERSION .7
FIELDS x y z
SIZE 4 4 4
TYPE f f f
COUNT 1 1 1
WIDTH 790
HEIGHT 1
VIEWPOINT 0 0 0 1 0 0 0
POINTS 790
DATA ascii
0.06981577582163516 -0.13095294140250147 0.07821027975529138
0.06964199309247034 -0.1301321625065431 0.07840305263719069
0.06950113583071962 -0.12932679886684467 0.07860543983173073
0.06937452265363744 -0.12852321258230073 0.07878832647878153
0.06905903614526623 -0.12764751831805252 0.07798783271792102
0.06897429780709172 -0.12682492768107653 0.07811978744638806
0.06888879103949044 -0.12598105630234424 0.07824662610011401
0.06879048023241414 -0.12512581787811555 0.07837314901692491
0.06867935307821232 -0.12427369078730524 0.07849633139107132
0.06854452371045303 -0.12344116250871293 0.07863674608757187
0.06837654500317542 -0.12263902729967696 0.07881785593516828
0.06797792719993094 -0.12184749356621669 0.07805960636148718
0.06777322057344737 -0.12109414077938686 0.07830140998428928
0.06755635584943873 -0.12035047864510572 0.07856874853851888
0.06735673532334066 -0.11960135446719455 0.07883863092779847
0.06695774019320763 -0.11882822159557326 0.07812626272524514
0.06680026754298073 -0.11804342948089462 0.07836299239720103
0.06667150692971313 -0.11723360110788673 0.07855428571532473
0.06656668287321214 -0.11641157662807608 0.0787104989993427
0.0664634675090904 -0.11555707583130884 0.0788006767200267
0.06640003580005746 -0.11479709182165405 0.07895232670786176
0.06576465445088807 -0.11278552928914234 0.07800005304673549
0.06618362026506464 -0.11378757845890053 0.07871972300485873
0.0657095923999862 -0.11197271187388101 0.07825347498296456
0.06611769566321413 -0.1126069978647821 0.0790250121832109
0.0658721374394935 -0.11163771978655507 0.07882528230471496
0.06544602393311577 -0.11105657940447876 0.0781029024073706
0.06532793088051063 -0.10998230063034921 0.07845389154027588
0.06505515725795603 -0.10913291000080635 0.0783351927909414
0.06493398390885545 -0.10841024147978785 0.07850760154319994
0.06471654743111513 -0.10748731079186347 0.0785738531225069
0.06450640576236057 -0.10657548049121426 0.07865600106211523
0.064330757968552 -0.10565887495422434 0.07874255311931554
0.06414076788524115 -0.10467219097341283 0.07875257079498789
0.06394754911299039 -0.10367399099765857 0.07875729615502784
0.06377200348112597 -0.10269809896803309 0.07878366342104878
0.0635454186034866 -0.10171250487191939 0.07877519745422268
0.06330859489421257 -0.10069010594770758 0.07879727452291052
0.06293348699255574 -0.09968071656277654 0.07866175545848862
0.06273218415191295 -0.09901067614182263 0.0787653757755781
0.06232471210449047 -0.09824393231989532 0.07874553677876693
0.06288522767875428 -0.09889346184843929 0.07931633875647613
0.061933488527123555 -0.0973029417748762 0.07885290383488287
0.06248794574263702 -0.09800605214828374 0.07944155498467738
0.06164792840256364 -0.09656205785961115 0.0790038178310246
0.06207014220676927 -0.09702935099138059 0.07963920946898073
0.061667988295639235 -0.09627849139372922 0.07944771599855813
0.06139723358053976 -0.09610603025341566 0.07892265092444216
0.07425815670986888 -0.1652429922538837 0.07743771995635523
0.07420591054631023 -0.16479803935900325 0.07717232584665702
0.07444392435158721 -0.1641553485922218 0.07745674146304243
0.07454213691207122 -0.16338160997956552 0.07725306766361734
0.07474660870073356 -0.1635063735209602 0.07803069808384401
0.07468412686275948 -0.16275710907120353 0.07742154233277936
0.07486076814895622 -0.16188925177232696 0.07755300073784892
0.07505867953455783 -0.16092437321706624 0.07769046149925056
0.07522498216375875 -0.15990847055350194 0.0777629650722934
0.07527678098054966 -0.15915379849442815 0.07755952549769334
0.07535221356064628 -0.15943216777368716 0.07812216480696736
0.07542608746239793 -0.1587312390081759 0.0779227213625824
0.07552820528876109 -0.1578558102550019 0.07794594700506408
0.0755647196010055 -0.15696044235108644 0.07793760153747938
0.07559086106219338 -0.1560340294669598 0.07793719746570377
0.07557051110733637 -0.15527508650373176 0.0777621641098263
0.07559161497652636 -0.15565474004623892 0.07833319967130942
0.07554852349983152 -0.15490656684584014 0.07814349460873007
0.07548059680189713 -0.153993836770118 0.07814637197533186
0.07537058199687856 -0.1531145417334722 0.07814767369029821
0.07525491272264835 -0.1524244639914553 0.07794309782281142
0.0753150143883441 -0.15272576665653745 0.07849098694564778
0.07516704062712591 -0.1520116386647427 0.07830481471454925
0.07493291446001057 -0.15109132902171973 0.07838566327945916
0.07471866950230947 -0.15032106478470675 0.07814973247885422
0.07479971045391878 -0.15057518728122177 0.07885252340174284
0.07456364482772346 -0.1498123687796237 0.07834501480819751
0.07432448229086554 -0.1490517024888422 0.07852409230826148
0.0740684807843708 -0.1482915782624321 0.07831464894882229
0.07419293475601378 -0.1485373532352579 0.07901309592367387
0.07390343573372365 -0.14777121022090967 0.07851329043541348
0.0736291720048898 -0.1469656350353563 0.07869826564369437
0.07334588454056443 -0.14616894734043764 0.0784675720936365
0.07345281726594496 -0.14641294601990779 0.07920758801822715
0.07318044799736854 -0.1456651457486849 0.07864677768751378
0.07295589635653511 -0.14495592614516326 0.07876624133367154
0.0727543010874092 -0.14425265028579712 0.07890319522631395
0.07259221283856647 -0.14374153328391637 0.07905857939678758
0.07234133070133336 -0.1429418449065587 0.07879712241765995
0.07207686786472851 -0.14196934376049877 0.0789318653555078
0.07188455759157532 -0.14114643664558219 0.07868984993090852
0.07196917533420696 -0.1414594058625261 0.07939969671760409
0.07179898513070967 -0.14065578924800007 0.0788827592230717
0.07167104625415162 -0.1399022593161254 0.07897960342026285
0.07153420194214745 -0.13900422515212577 0.07902940222005118
0.07138664247917416 -0.1380805422973517 0.07905941064283954
0.07123628956192096 -0.13716876191304317 0.07907294019711641
0.07110128316528819 -0.13642298334794867 0.07886722698822962
0.07117813468223573 -0.13678347939051494 0.07941212508469953
0.071033664362804 -0.13601357819565543 0.07919043931786161
0.07084744357844931 -0.13505461445176714 0.07919769452203568
0.0706649765999009 -0.1341498907804754 0.07926601655509516
0.07050750900595201 -0.13335435570484117 0.07929516248506126
0.07039852549841015 -0.13277277785622552 0.07936381297226835
0.07017834351830961 -0.13195880592453985 0.07905731988234843
0.0699836619739392 -0.13105556378774355 0.07922165399600077
0.0698244044519245 -0.13022317767808406 0.07940473726724874
0.06968341386886294 -0.12940454278897054 0.07958697166804625
0.06956900976823248 -0.12858658867411746 0.07975059453409913
0.06927463158743238 -0.1277058860733201 0.07894182374124256
0.06918911787015311 -0.12686892278871678 0.0790841479307535
0.06909504966950712 -0.12601485137232715 0.0792069157675596
0.06899935846297021 -0.12515657176434042 0.07932615767129371
0.06889215888683023 -0.12430838023638272 0.07946043622862535
0.06875002597446195 -0.12348086371680222 0.07961641197404748
0.06857723551614102 -0.1226839801652611 0.07979702168615183
0.06818485636251022 -0.12186957579090207 0.07903833971998507
0.06797926566186875 -0.12112239216039027 0.0792823764629773
0.06777154723819336 -0.12038177712681535 0.079554868030751
0.06756256343356852 -0.11962135708073057 0.07981887087773559
0.06717251562644397 -0.11883032758246045 0.07909076194394256
0.06701428768449165 -0.11802714947545312 0.07930410275046498
0.06688205262542161 -0.11719554412657292 0.07946380751622788
0.06677113374636892 -0.11634126662195456 0.07958181709876999
0.06668543168983163 -0.11548055814126194 0.07967473052858877
0.06659084270949288 -0.11457513928417488 0.07971377522588928
0.06649352560331194 -0.11361062375928112 0.07977944560915379
0.06645565404099887 -0.11281518768875806 0.07998306149382035
0.06580157999876969 -0.11085448315328877 0.07906677618093438
0.06623779446524858 -0.1118144725323985 0.07976285031819996
0.06572378176430285 -0.11007732925574952 0.07930240761192739
0.06612471763759906 -0.11068589327167855 0.08006240181257886
0.0658617465339803 -0.10975180066406348 0.0798601153296515
0.06542627281349005 -0.1091927296130652 0.07913021709093813
0.06526745563967666 -0.10810180942485038 0.0794128071573577
0.06494946449210545 -0.10717714317072662 0.07923507134293241
0.06484190906501613 -0.10642231280825319 0.07942470518624681
0.06467920245102746 -0.10549542552618993 0.0795230707771565
0.06450424857914192 -0.10453418105228997 0.07955809546058817
0.06431525552325794 -0.10358109504085647 0.07958002571067349
0.06415960412790854 -0.10260618071517352 0.07965452386341734
0.06385320025445913 -0.10160260369107602 0.07947643399145995
0.0637262373226418 -0.1009653252680698 0.07950249205318295
0.06343615782784098 -0.100251153077756 0.0793155979741333
0.06385783188177367 -0.1008469710327201 0.08004152637577146
0.06313503385302965 -0.09953727673434705 0.07915929328016076
0.06343870469258567 -0.09983616117529323 0.07991833597708872
0.06302396024931205 -0.0988483521471206 0.08009251577838503
0.06261793519835743 -0.09792318002234891 0.08024416418754626
0.06230970585948592 -0.09717544637959981 0.08045468978674353
0.06158024774616187 -0.09602607343271226 0.0795373072828533
0.06193451292556727 -0.09646644981370957 0.08027042024957128
0.07449174882619025 -0.16552225402568096 0.07810411295575306
0.07480375134184607 -0.16553614384134785 0.07883547964590071
0.07451311767114964 -0.1650847366783843 0.07811512779737377
0.0748163914341959 -0.16431637043086145 0.07861756222408389
0.07504324460531876 -0.16352604894390899 0.07904045986898998
0.07497053689485296 -0.16271970657582724 0.07834375026642672
0.07517982396574242 -0.16182517509810299 0.0785832271938468
0.07535401882762409 -0.16082746447455598 0.0788004262980912
0.07539046874414096 -0.15995117118542498 0.07857434103937938
0.07551469428032556 -0.16019270526765836 0.07933577035816729
0.07545960174382468 -0.15941349428196994 0.07874448240209242
0.07554155543404519 -0.15868238897199854 0.07881532449730015
0.07559258467621664 -0.15783168974799758 0.07887992346104104
0.07561995116416693 -0.15693576409435653 0.07889819607488
0.07562552261578831 -0.15621401653874628 0.07870599506002007
0.07566215026923041 -0.15656195915634447 0.07927423495709963
0.0756301531717929 -0.15582856073161064 0.07908863057332169
0.07557919577889984 -0.15489717621796115 0.07910932525673185
0.07549828263719127 -0.1539503938151702 0.07910771346110576
0.07540023134376188 -0.15322849893998253 0.07887820350104326
0.07543237711140813 -0.15351985755205358 0.07943783380092989
0.07532187799726661 -0.15284247260688363 0.07922760408176141
0.075163382811286 -0.15201588542493308 0.07927508286303152
0.07500362089031407 -0.15130787051109726 0.07936875102140624
0.07490202107781163 -0.15083946428329525 0.07955749522910723
0.07468615201905116 -0.15007305250550784 0.07935023559052043
0.07445028840025093 -0.14929208710381142 0.07952128370995781
0.07430276329402975 -0.14878199153538646 0.07971026071190239
0.0740394900759902 -0.14802235000863678 0.07951672303708186
0.07376586510368491 -0.1472433472549323 0.07979265249397732
0.07355362177317085 -0.14661804249184346 0.08009758312925087
0.0732544258805414 -0.14579447748659533 0.07951485909545321
0.07302368887160304 -0.14501682582519773 0.07977814265814027
0.07276354022797574 -0.14424915964534266 0.07954609809077695
0.07286550938005211 -0.14446782047381074 0.08026463799586427
0.07259480063132305 -0.14371351237613655 0.07967622204415735
0.07238811181460224 -0.14297156826294272 0.07979153109838423
0.07218250492755574 -0.14225021491982187 0.07994095932425366
0.07205546828711572 -0.14172710830248395 0.080091696571328
0.07188371699968778 -0.1409138879161066 0.07982495117658107
0.07172051090066206 -0.13997366708589423 0.07991077111224495
0.07155750426839835 -0.13905079021022246 0.07996432466614611
0.07140787799965306 -0.13812029910819515 0.0799786298434768
0.07127600024803336 -0.13735839228229946 0.07979226573317919
0.0713598221182174 -0.13775428137530638 0.08034119817724032
0.07123140209357487 -0.13698943534694255 0.08015100038359935
0.07107855808510281 -0.1360449018537932 0.0801593891144847
0.07092007380282521 -0.135107790661277 0.08019202508050903
0.0707572263036779 -0.13413289875717144 0.08024373220084652
0.07056169255374864 -0.1332879701709739 0.07989276784091297
0.07068608602372684 -0.13349574058352695 0.08062036930167327
0.0704524370022731 -0.13270855153536334 0.07997046925388922
0.0702976283246001 -0.13194671346484926 0.08005478469574584
0.0701497292434727 -0.13112388244564716 0.08021573413236067
0.07000403566329924 -0.13029319301187825 0.08038674503208001
0.06987169632504826 -0.12946704068931997 0.08054766238130068
0.06976875256523773 -0.12864262585673444 0.08070833927262355
0.06947565592662291 -0.1277584968937436 0.07990296409135507
0.06937728554587745 -0.12691360457065157 0.08004050961351834
0.06928490800132527 -0.12605962914714003 0.08016860413191007
0.06918686202781645 -0.1252040601461731 0.08029711066277205
0.0690675382470453 -0.12435956985259146 0.0804383905497724
0.06892180039984608 -0.12353721602619241 0.08059517994919144
0.06875808869667928 -0.1227470458673002 0.08078098305539863
0.06838663127704346 -0.12191906900451638 0.08001654168952355
0.06817421616179378 -0.12117059035227584 0.08027662843918551
0.06795360253621872 -0.1204158268343526 0.08055172104423881
0.06774511859346811 -0.11963691600882434 0.08080778113164434
0.06736785497422555 -0.11883079424912335 0.08005618093943608
0.06720364544882336 -0.11800546022975991 0.08023934826690302
0.06707076956412156 -0.11715814805656176 0.08037116208767306
0.06697013452650469 -0.11629375762811306 0.08047686174753811
0.0668821305582285 -0.11540061849582728 0.08056080664936942
0.06680260715468775 -0.11447153774928506 0.08062811657729348
0.06673245048890679 -0.11354834993722535 0.08069968881478706
0.06662639581400664 -0.11261503207935515 0.0807295422958271
0.06651526295755919 -0.11166294558748968 0.08079494829389779
0.06644821320927229 -0.11088610907612456 0.08099542024796177
0.0657518485860221 -0.10898086613321 0.08008124463512489
0.06619443493844546 -0.10991213054302786 0.08078152005042279
0.06565927513866553 -0.10820652326138051 0.08028640895675145
0.06605623202914787 -0.10880698746221545 0.08105999915916759
0.06578112181363341 -0.10787837399043186 0.08081793440300006
0.06535237826795715 -0.10731063023780336 0.08006189988758462
0.06519324707592344 -0.10630644944836544 0.08024305403145188
0.06500512505078428 -0.1053490347119781 0.080325448265403
0.06481795523445019 -0.10440485761709468 0.08034393237398117
0.06462837424804586 -0.10353113605753422 0.08033809002252301
0.06452321248185096 -0.10291325278984667 0.08042323507552289
0.06427237755854372 -0.10219560029916237 0.08021625619241891
0.06468439036171623 -0.10281827268752372 0.0809884067210835
0.06402336432250932 -0.10148524946828723 0.07999471446880854
0.06432798754562694 -0.10180525830820103 0.08080792410928266
0.06397212925171954 -0.10078276137893712 0.0808581218791669
0.06353997081711754 -0.09979135775703783 0.08089219957814642
0.0631148525188368 -0.09879461504058049 0.08098434383459832
0.06268560669320847 -0.09784524264970017 0.08109937615599355
0.06227025621793679 -0.0969674550930883 0.08120100992286473
0.06197262806536281 -0.09625439090554244 0.08149781093247359
0.061823947836731945 -0.09575365453465216 0.08196127362807312
0.07533960967880705 -0.16568192531122633 0.07992939551286157
0.07499777339655238 -0.1650900722881197 0.07924311444701965
0.07522104742207003 -0.16432204117681395 0.07967437184416257
0.07543959578440353 -0.16350653774452023 0.0800490059773189
0.07528364254694707 -0.16270024020431373 0.07935399376080611
0.07547559599115372 -0.1618479130184735 0.0796322331125894
0.07563454327837779 -0.1610605904715803 0.07994547853178183
0.07572999257456005 -0.16034096993394412 0.080277853497963
0.07561061710485556 -0.15949793951490718 0.07959893672509048
0.0756771264811219 -0.15869852151153904 0.07977382348700075
0.07570550503663273 -0.15780387156810136 0.07985619303398266
0.0756909634407953 -0.15708503527015635 0.07965867595597097
0.07574343364763376 -0.1573836564288261 0.08020758828355122
0.0757107232471597 -0.15668299759103835 0.08000915745591503
0.07568154287629439 -0.15580647834461664 0.08005056311396092
0.07561773195441719 -0.15485945043446503 0.08013674825004428
0.0755062347633239 -0.15404271763261274 0.07988188071905483
0.07555943659041711 -0.15432992445377208 0.08059794832043175
0.07543407658422424 -0.15356171594360926 0.0800631497386979
0.07534563143060205 -0.15284678743008295 0.08015876744153605
0.07520321751674809 -0.15200359491946253 0.08018849000489052
0.07504330115834607 -0.15133089089254143 0.07997145900385146
0.075125492806138 -0.15158238719672115 0.08048383384497208
0.0749499979212991 -0.1509083405763997 0.08029081509735778
0.07468947542405717 -0.1500224596748538 0.08039755490901974
0.07445997644581565 -0.14927411314375377 0.08016353773030001
0.0745274293923042 -0.14949542338186575 0.0808571222187358
0.07431009116426773 -0.14877191794759198 0.08035032505295861
0.07408187334854249 -0.14807301013292976 0.08053402774162043
0.07384229456283874 -0.1473569263394627 0.08066892258241537
0.07367677072308752 -0.14682341553244452 0.08080194776508043
0.07340838430944265 -0.1460559759317947 0.08057942699652956
0.07316772729608179 -0.14527784387526768 0.08084916768676535
0.07299801556599754 -0.1446551238570547 0.08114772219141758
0.07269091891163822 -0.14383210475740316 0.08056136416995002
0.07245453089517297 -0.14302858569762267 0.08083311199264732
0.07220541786978353 -0.14224326129663745 0.08058193778176397
0.07231253229454995 -0.1424481510394809 0.08131422888555245
0.0720859726215803 -0.14168194380956292 0.08069533325710285
0.07192884327135407 -0.14089769390780407 0.08076812446319101
0.07175315138700909 -0.14001269892729795 0.08085377480706774
0.07157976731743329 -0.1390886922258009 0.08089767503118882
0.07146020556556426 -0.13833510757801956 0.08071346767387783
0.07152490987233953 -0.13872069183205685 0.08126710261131877
0.07140995364722905 -0.1379639283912682 0.08107776215248694
0.07127531824449766 -0.13703163863911888 0.08109022230914421
0.07114913434456922 -0.13610739196382296 0.08111662384209824
0.07102408557777194 -0.13519680906162626 0.08117298395268358
0.07091087714310747 -0.13437659247590023 0.08130812752946212
0.07081055950699303 -0.13368548477748843 0.08151306712449659
0.07057805665170334 -0.132818882068277 0.08084539578343224
0.07044946526853185 -0.13204337005689482 0.08104016745447615
0.07030667279037221 -0.13119710178644173 0.08120137947079113
0.07017326150868575 -0.13035518005646618 0.08135273250189405
0.07006068728257803 -0.12952316489885995 0.08150195936655032
0.06995062288651746 -0.12869106117103016 0.08165954865403866
0.06966345754948144 -0.12780752944635018 0.08086035256073318
0.06956127771807984 -0.1269626906116883 0.08099820810271888
0.06946355267144014 -0.12611169460599614 0.08114071655576628
0.06935483089756588 -0.1252597858313447 0.08127175293670066
0.06923351378743323 -0.12442212653591105 0.0814111169424934
0.06909111319356881 -0.12360635503681078 0.08157608141664267
0.06892106701912518 -0.12281713170440021 0.08177606974450677
0.0685662750985322 -0.12198257052054247 0.08101643847117802
0.06834901366012118 -0.12122285281650759 0.08128138436538795
0.06813525969929175 -0.12044843550066213 0.08156817201297664
0.06791123553546022 -0.11963635438682178 0.0818048366159103
0.06755210716194843 -0.1188212731773407 0.0810355094956744
0.0673719763640778 -0.11796869459160646 0.08116305527022621
0.0672373050585914 -0.11713200228398665 0.08126217414248946
0.06715520984447058 -0.1162833598248288 0.08138987954355739
0.06707600710354207 -0.11537379543176064 0.08148749973811872
0.06699914720564318 -0.11443381787937977 0.08155937976234873
0.06692289265025751 -0.11348417899096097 0.08160736642371753
0.06682630572428805 -0.11252869964044313 0.08164146216385908
0.0667265070555423 -0.1116116297330554 0.08170957159974236
0.06659682989389452 -0.11069376465632697 0.08173894894822376
0.06644874505141393 -0.10976285852934071 0.08180402887261748
0.06636304148268297 -0.10899924730247373 0.08199316986964766
0.06565429594783091 -0.10710167998435734 0.08097015387249458
0.06609914012252978 -0.10803591688765653 0.08172939093573935
0.06548393846907775 -0.10614511216924526 0.08108385117531398
0.06592646757075883 -0.10697799094028226 0.08187030735079864
0.06527658046652951 -0.10517708062154779 0.08111901840143133
0.06572581243787953 -0.10598422875150433 0.08193110671479722
0.06505374774313288 -0.1042263885014586 0.08107127282420146
0.0654972623901651 -0.10497879701148864 0.08191663104814377
0.06482899058884604 -0.10345533253640743 0.0809177361097827
0.06517386598226467 -0.10383981012507795 0.08176082989721448
0.064902726987176 -0.10279134382804646 0.08182424733780673
0.0645320218364213 -0.10176629359716546 0.08181225896734347
0.0640931234839991 -0.10075196080002045 0.08182887171653078
0.06362988628615018 -0.09975908714664344 0.08187051942383576
0.06316046659746866 -0.09874567677395867 0.08193600141373204
0.06265752146326553 -0.09776275511586412 0.08201879649341053
0.062211750163010886 -0.09685301345658165 0.08214092835804816
0.06194138841269241 -0.09607164741867795 0.08231637906577932
0.06183835967009302 -0.09570260720921216 0.08241571109857876
0.07639937262150218 -0.1668707224052923 0.08125270405915647
0.07588194832196986 -0.16630345570253302 0.08071069200975739
0.07586416823375529 -0.16575576536153222 0.08084555489213972
0.07549312442967637 -0.16507812843124706 0.08026368616439718
0.07568836675137916 -0.1642864194990373 0.08066971587585033
0.07586806344397443 -0.16345829268491466 0.08104749641654921
0.07564477648595548 -0.16268526874998535 0.08036728917082103
0.07578503698223762 -0.16189811528024695 0.08065563087403421
0.07588299772979883 -0.1611482982694704 0.08093823373510475
0.07592151948580232 -0.16045950502823508 0.08122592273697254
0.07580022073445802 -0.15959544572466985 0.08058965702720151
0.0758344665303255 -0.1587027679672418 0.08087130415522104
0.07579066080238814 -0.15789350517194317 0.08063910708642844
0.07591830563062002 -0.1581191181169734 0.08139128006990216
0.07581031325618516 -0.15738444294416065 0.08080820105588993
0.0757879382778946 -0.15666142262659452 0.08090391259062439
0.0757698848590467 -0.15584450588232124 0.0810254788624141
0.07569903300858268 -0.1551035463344843 0.08114800960403488
0.07565276506946683 -0.15458155267774817 0.08129215911339975
0.07553663890752141 -0.15379430351846254 0.08103233110656895
0.07540067133159634 -0.15285053300606433 0.08117835258924727
0.07524278253107855 -0.15206775404424447 0.08091806252001983
0.07529187230808103 -0.15230494037541062 0.08166539413830658
0.07512431240071794 -0.1515822724380391 0.08108853721075056
0.07494580306248734 -0.15090386005218917 0.08122617564556055
0.07473690025620229 -0.15021690329963278 0.08138422136737009
0.07460043589999524 -0.1497178763261927 0.08154263268234747
0.07440718846672768 -0.14897535706177237 0.08131710325256485
0.07414472048690456 -0.14806949158384344 0.08151721747837615
0.07388057903659313 -0.14730274052121553 0.08127349196253777
0.07400105919242403 -0.1474880913466806 0.08198367628359302
0.07371862910541915 -0.14676592530887472 0.08141384896111066
0.07349385034223771 -0.14606555772895846 0.08156932811759156
0.07328578113064284 -0.14537318803286403 0.08171783916284392
0.0731387047543486 -0.14484523416756417 0.08185783329280305
0.07286193228912548 -0.14408226487145007 0.081632452590912
0.07261638355015203 -0.14328646385352592 0.08192012241825852
0.07243548747480888 -0.14260266047630857 0.08222731571202072
0.07215467254329935 -0.1417592396613796 0.0815582613456001
0.0719743181709916 -0.1409493946171948 0.08173395572335963
0.07176957336024219 -0.14003398848248824 0.0818253293201061
0.07161729813097936 -0.13928301046610003 0.08163796133472725
0.07167362482607585 -0.13961869670238436 0.08217204575395941
0.07155643627545705 -0.1388864900243057 0.08197478264969196
0.07144712582524844 -0.13799528976973272 0.08198828803634678
0.07133833082316822 -0.1370920940511024 0.08202306794784314
0.07123604256885985 -0.13618438362529214 0.08207262410238529
0.07112034839925323 -0.13529492205619154 0.08213624980056637
0.07100282410052243 -0.13449349861224297 0.08217028164570708
0.070917044991293 -0.1339089096649623 0.08223875304746237
0.07074498129974394 -0.1330742154834496 0.0819213675843865
0.07059567847766861 -0.13213894348121663 0.0820496352267345
0.07046655496153069 -0.13126741239287515 0.08217663781767467
0.07035452036597101 -0.13041616120791563 0.08231315809505588
0.07024555721313695 -0.12957397228157042 0.08245725667319025
0.07013912041380657 -0.12873461924712035 0.08260950271323865
0.06984444648958271 -0.12785373421251112 0.08180997815519382
0.06973717618331245 -0.12700882331592056 0.08195685838111329
0.069631010826063 -0.12616010992643115 0.082096742178848
0.06952183959156671 -0.12531630614280648 0.08223134220655921
0.0693989603148881 -0.12448644545123386 0.08238614229019624
0.06924969989561496 -0.1236736067593727 0.08256134075237029
0.06907504926989944 -0.12288386690987778 0.08276217180491253
0.06872278308381619 -0.12204673252457145 0.08201601817229358
0.06851992620696032 -0.12128196957849745 0.08230214405098589
0.06830482439467252 -0.12045888552007206 0.08268412160107708
0.06803037090422517 -0.11961332221497946 0.0826258566465428
0.06771228423835306 -0.11877307253986778 0.08207789494155784
0.06748990222434538 -0.11787445004585435 0.08192745062598109
0.06742780973580673 -0.11720119292378932 0.0821754888716339
0.067341210467798 -0.1163208713026527 0.08234230848674041
0.06724980297694609 -0.11538759957403846 0.08245028405062634
0.06717112948874084 -0.11443119043307709 0.08251550330055135
0.06708616153297622 -0.11346308671191156 0.08255139146585404
0.06700177274672464 -0.11250279389393762 0.08258222102310495
0.06689393886004677 -0.11155061110565852 0.08261335257270712
0.06677201026183294 -0.11060965129420522 0.08264854036862886
0.06664301777849069 -0.10970388313384423 0.08271091925047265
0.06648412197546986 -0.10878753891354409 0.0827226759061194
0.06630838405279156 -0.10782273812726882 0.08273025269929421
0.06613421452903014 -0.10683904577646781 0.0827862294002558
0.06592349859095706 -0.10585749621939518 0.0828157187875328
0.06568945162234159 -0.10484384400445103 0.08280126543785565
0.06541002469012631 -0.1038083078711459 0.08279327171347522
0.06511006082017101 -0.1027779525704383 0.08280374120018717
0.06470998429210839 -0.10177337208075563 0.08281783190927777
0.06422080033980643 -0.100772065431781 0.0828444422411755
0.06369936205962506 -0.09977806908102305 0.0828896689817571
0.06317924812738467 -0.09873952721981506 0.08293872336477637
0.06264005491442912 -0.09772890791226445 0.08300549888354491
0.06220930543374752 -0.09680735951214843 0.08309992006065482
0.06199924583299774 -0.09615180768878376 0.08321036835719636
0.07882174910817126 -0.16897460779828577 0.08203809325761763
0.07770278480235164 -0.16785240299589324 0.08208570963466104
0.07699263649317817 -0.16737746892694885 0.08170824214224845
0.07680393432427726 -0.16693456325489942 0.08187569384440208
0.07630799460092187 -0.16637661435587728 0.081385539384828
0.07632318594892028 -0.16568070381285466 0.08179252783470288
0.07596280197495296 -0.16501917715135156 0.08125179495956533
0.0760907127936704 -0.16422701067154455 0.08165953912095007
0.07621218876892838 -0.16342249818978064 0.08202946428025029
0.07596768330648813 -0.16266143867575458 0.0813693171914847
0.07606280410776622 -0.1618916740247512 0.08164075215809184
0.07609229493861004 -0.16116827720710628 0.08182019093715169
0.07611192320265255 -0.16060482358502104 0.08196788645735763
0.0760235783136526 -0.15980288838840848 0.08172392551197687
0.07606456068410139 -0.15894640547539476 0.08201960730028858
0.07609835292784481 -0.15823134125820462 0.08232686586014279
0.07594710503602144 -0.15745250078888376 0.08164774631392328
0.07593393344620875 -0.15669699780972451 0.08184115609600426
0.07589669407140245 -0.1558433534602347 0.08203590811992344
0.07577756173996171 -0.15507997685720265 0.08177669595794654
0.07591099723416057 -0.1552555898646085 0.08250578630346546
0.07573529552044724 -0.15452946625673267 0.08190238378238997
0.07562540398229181 -0.15379796327009906 0.08202294588211481
0.07548456308288483 -0.15309914904301344 0.08225603376692733
0.07536116292878371 -0.15251063327796738 0.08254535196355572
0.07515585572572062 -0.15171046884506978 0.0819604441808319
0.0749759736839243 -0.1509575650877811 0.08222554122658685
0.07475906440594973 -0.15020626336480772 0.0820040949005965
0.0748629197364205 -0.15042226524977415 0.08270995512956716
0.0746448944731461 -0.14969353712628986 0.08214583878854848
0.07447441750450556 -0.14899264900835327 0.08230414174953934
0.07428086304499305 -0.14828063256103488 0.08256173082929105
0.07410743663413477 -0.14765053760109118 0.08285868998378018
0.07381396719295522 -0.14684944132579864 0.08228910234772192
0.07359275045416186 -0.1460577720112107 0.08255475450638816
0.07333987676268305 -0.14530855236496362 0.08232098120697716
0.07346288427530105 -0.14546692233113584 0.08303410827673217
0.07317493408208617 -0.1447737774654071 0.08246412662456559
0.07294530273286556 -0.14408802196931575 0.0826214807026054
0.07273953915790403 -0.14339689612370465 0.08285743648410177
0.07254738086502197 -0.14275045891586105 0.0831376158386073
0.07224601805301437 -0.14188577519628812 0.0825256363035869
0.07202438941623351 -0.14100843726647683 0.08281230873638534
0.07179299452204835 -0.14016533992176017 0.08259875314865953
0.07189813865604307 -0.14043382960866715 0.08333923653977059
0.07170345318412255 -0.13964382200164815 0.08276293168667621
0.07160613465186594 -0.13889783517609489 0.08283151533969192
0.07150921650053439 -0.13804886687866705 0.08290079269896194
0.07141035464892731 -0.1371593068574723 0.08296404649335241
0.0713090980411352 -0.13624929203149136 0.0830277376674275
0.07119115686690301 -0.13529055257731049 0.0830820030974657
0.07105288492733582 -0.13445149994838193 0.08275602551004424
0.07114050383236041 -0.13470687570970086 0.08345801490951996
0.070970078040066 -0.13388774840056628 0.08285570754887019
0.07084417143605627 -0.13309501557924913 0.08293906422313617
0.07071670317371732 -0.13220643734102225 0.0830401154191905
0.070610590618496 -0.13133161787262818 0.08315135538819773
0.07050812592354537 -0.13046819765939657 0.08328080778719245
0.07041335205304439 -0.12961346254450046 0.08341512717833563
0.07031221105611883 -0.1287576330710051 0.08356793714273426
0.07003052944743082 -0.12789035471882368 0.08276567244135415
0.0699140388474287 -0.12704034718447244 0.08290878940732602
0.06980704225501391 -0.1261954255477242 0.08304264759290739
0.0696945732167113 -0.12535970211905417 0.083182292950518
0.06955763814473846 -0.1245349518182325 0.08334084814196335
0.06940307376201033 -0.12372649449783926 0.08351956619800333
0.06923332206999043 -0.1229398322629889 0.0837295038485865
0.06888970558336176 -0.12211890225652178 0.0830046663104942
0.06869946078377691 -0.12138512307487662 0.08329584279025333
0.06855309491719197 -0.12080304545589181 0.08362528859010021
0.06796390395042197 -0.11916183917996613 0.08299762024025152
0.06827994377448708 -0.11998008756482577 0.08353630145338616
0.06808379127195688 -0.11912282469835217 0.08381484393612368
0.06773761464223646 -0.11825296309286219 0.08289541202093934
0.06761031751594733 -0.11729827512228573 0.0831742094377982
0.06750163378915144 -0.11636716180535739 0.08333213355363307
0.06739683881230202 -0.1154176987469594 0.08342783053547327
0.06731256077703701 -0.1144555197557369 0.08348602327823809
0.06723810730935183 -0.11348602996085456 0.08352065397391256
0.06714935828270154 -0.11251064516906105 0.08354517191270668
0.06705045856633733 -0.11153845950362025 0.08356199211529797
0.06692965205466662 -0.11058481382036495 0.08359125924687388
0.06679536875200794 -0.10963451845513711 0.08361825406224867
0.06663731112552977 -0.10867987498489387 0.08364285270403538
0.06648261422525442 -0.10771942290707275 0.08367940359479487
0.06629591565899544 -0.10674870046365131 0.08371703526344643
0.0660829020261059 -0.10578204617050328 0.08374868181138646
0.06585887130292052 -0.1047878133746472 0.08376471560805804
0.06558089471335958 -0.10377852362033542 0.08378373440780511
0.06525268112534405 -0.10277973087491084 0.08380762082713489
0.06484440801534047 -0.10180246640600894 0.08383988744375942
0.06433698193744437 -0.10080932333723568 0.08387878711758293
0.06376751294836173 -0.09980172585699414 0.08392589516078756
0.06320283199017741 -0.09876151663290235 0.08397235163047456
0.06265264990866486 -0.09775139615753183 0.08403116093242378
0.06224258326459404 -0.09686596379948607 0.0841250729465553
0.0620814893069851 -0.0963729489075135 0.08439678226905922
0.08001955190712334 -0.17042597809813295 0.0821126688472092
0.08016019646258185 -0.1704664266366651 0.08227221300984126
0.0790842521355258 -0.16934519042966686 0.08193955577852816
0.0795084368512036 -0.16963926397389711 0.08215796948647934
0.08006673523171615 -0.17015562299140205 0.08240370133055315
0.07901043993087613 -0.1687506361871964 0.08249185697453651
0.07843493084925406 -0.16839900803800814 0.08227216707196208
0.07926885633632512 -0.1692358475238345 0.08227729683918907
0.07830025266441157 -0.16789708912761883 0.08274480758467981
0.0774590601937273 -0.16741806782322594 0.08231911947962726
0.07730036668452651 -0.1668155434025066 0.08276900643342039
0.07675297626399485 -0.16628816881070782 0.08229083332749759
0.07675463048792613 -0.16556706397657564 0.08276188015674557
0.07637079605552703 -0.16493049410350297 0.08223385029776227
0.07648328532052132 -0.16415354769607865 0.08263794978310823
0.0765528439081439 -0.16337051367130925 0.08301197922532343
0.07629251752556421 -0.1626231349827458 0.08236033294842154
0.07634012519355467 -0.1617587274680925 0.08266378201650222
0.07626280898498687 -0.161039658776877 0.08244855138233834
0.07644116844518763 -0.16111263637216924 0.0831776636099034
0.07627129126877331 -0.16046347328931773 0.08259873398131098
0.07625001838162676 -0.15973510100683136 0.0827495825625042
0.07627798802197684 -0.15900135845782937 0.08298866725937461
0.07627977027841809 -0.15828946253307982 0.08325177066462484
0.07610550326141638 -0.15751490391873185 0.08257907023868495
0.07609705514435328 -0.15676303870752337 0.08282646768376047
0.07607910877446648 -0.15604465580802906 0.08311691660962862
0.07603471982092351 -0.15535874650083795 0.08342878049927695
0.07583080230959295 -0.15458842825333088 0.08276219587895922
0.07570184787281001 -0.15387759990459424 0.08297608086109248
0.07556377302843273 -0.15321459098983012 0.08311768424911473
0.07544723018546837 -0.15271247774188765 0.08324653585288157
0.07525677853909558 -0.15197238825839746 0.08301275344673183
0.0750919473394156 -0.15121532963141007 0.08328452769908515
0.07494431646869407 -0.15059755368539787 0.0835958856614066
0.07472543424772579 -0.14981069662221938 0.08301486800615256
0.0745537680087107 -0.14909764697933084 0.08327809082457034
0.07435311985188513 -0.14837656206235447 0.08343435854893158
0.07421246158528821 -0.14783471494337874 0.08356655838854682
0.0739837684261316 -0.14706955416343628 0.08333643695071884
0.07377304963150039 -0.14626035736530432 0.08363106977081126
0.07358244820279933 -0.14556485539050254 0.08394339915135252
0.07327032122587615 -0.14481870497139268 0.08329936361179832
0.07305590540360049 -0.14412679734046724 0.0835247410058812
0.07283463304791053 -0.1434567497487889 0.0836909812489601
0.07265602149716875 -0.14293127591398985 0.08384166983364001
0.07239003503126136 -0.1421456676072977 0.08362666715572747
0.07217016295866122 -0.14131432400367558 0.08394095666382
0.07201216842426014 -0.14059566799815176 0.08424639250442564
0.0717858773860362 -0.13975050130432487 0.08357675199533345
0.07168092306309314 -0.1389645359816064 0.08371759039270235
0.07158642965571262 -0.13811417401577603 0.08382060923571015
0.07148885163559855 -0.13722644821030824 0.08390753046381015
0.07138890372978561 -0.13632564594300287 0.08398501962294697
0.07128696583523662 -0.135527604623797 0.0840524155330214
0.07121333571608625 -0.13496788474398538 0.08416086678425268
0.07107384418757202 -0.13413040953378672 0.08384886988594396
0.07094442513351903 -0.13317904938195865 0.08392381434045236
0.07084111828884367 -0.13227800666489567 0.08401483589835541
0.07074902386870179 -0.13139221007111979 0.08411868622305632
0.07066618550612519 -0.13051428859830644 0.08424019955976737
0.07058532505190282 -0.1296347011468574 0.08437753499270668
0.07049029835933314 -0.1287450106180928 0.08452282097811864
0.07020152960860351 -0.12789511808028234 0.08371778219060656
0.07009272449872365 -0.1270377264940148 0.08384613806036773
0.06998002814024068 -0.1261968043264552 0.08397139003660353
0.06985492946414794 -0.12537224162521407 0.08410808380116859
0.06972199494086596 -0.12456204052295385 0.08426984508580541
0.06956665598792372 -0.12375778328424364 0.08446246038524978
0.0693874885868363 -0.12296331005249873 0.08467888752486379
0.06904880443139509 -0.12217784027070183 0.08397150511163443
0.06885670134844675 -0.12145217641957445 0.08421597172640291
0.06864213839557552 -0.12071407473626848 0.0844002486146189
0.06842404087004342 -0.11992008459371085 0.08457961163221783
0.0682182765105676 -0.11908790792416973 0.08480661937336517
0.06790477306250432 -0.11823802014641471 0.08400315352007959
0.0677581582716994 -0.11732694722423197 0.08418827155229354
0.06763405662976726 -0.11640197310088593 0.0843188020022324
0.06753068190267245 -0.11546400127574713 0.08440752275546069
0.06744455039580022 -0.1145090108982346 0.08446868701696462
0.06736544286303474 -0.11353439130007478 0.08450736118348995
0.06728158779456227 -0.1125479774680528 0.08452479803931057
0.06717948222054869 -0.11156111974328267 0.08453823526749812
0.06705655478584253 -0.11058278094620673 0.08455675038631895
0.06691910868939385 -0.10960705366566822 0.08457740321574032
0.06676813209594047 -0.1086400097138545 0.08460747439783095
0.0666098953679534 -0.10767498766928238 0.08464263047538773
0.06642114066481 -0.1067169550948722 0.08468257639202643
0.06622975030959098 -0.10575235144168299 0.08471827280442695
0.0659992514715968 -0.10476217682131753 0.0847492245600612
0.06571361649199169 -0.10377830083345532 0.08478738020162241
0.06536622696345123 -0.10280038509315907 0.08482795880593709
0.06494404894243481 -0.10183438405020163 0.08487445046260522
0.06442233003571751 -0.10084857650580409 0.08492148117761124
0.06383614022733586 -0.09985012202832783 0.08497310858190787
0.06327081671235123 -0.09881736963074289 0.08501561983679119
0.06272497244011281 -0.09781290588496988 0.08506784469508864
0.06231510338459609 -0.09694053530953155 0.0851697522598328
0.06212494234936561 -0.09646484188319286 0.08544895912006771
0.08175235162373426 -0.17192064447525518 0.0839465453163178
0.08117569620684344 -0.1708108864047779 0.08359459246168491
0.08058627343206869 -0.17042859951732528 0.08291044073731928
0.08048809255376715 -0.1699596295871329 0.0831966211505714
0.07987897350983972 -0.16957450075845446 0.08271765365775097
0.07880256109358194 -0.16834988666378634 0.08273505041509266
0.07925211472801408 -0.16853175353479571 0.08307211509849909
0.0796831879758512 -0.16896288923380795 0.08311872034409534
0.078718254830232 -0.16766164483827908 0.08372740979796855
0.07800401099013081 -0.16727482969940635 0.08322193759516514
0.07902599679445063 -0.16815670611655265 0.0833655237409833
0.07780628476116677 -0.16663796658686875 0.08375181083758801
0.07722060508872026 -0.16613614877971555 0.08326993837335897
0.07717004192994165 -0.16543392815596522 0.08374349789402256
0.07680375058359486 -0.16481919865868822 0.08321065739029844
0.07683835770045472 -0.16406155691835825 0.08361689784767609
0.07686631077530147 -0.16329844995568552 0.08399115823552632
0.0766032817322699 -0.162572379176097 0.08337977626063342
0.0766474168593108 -0.16181010364339252 0.08376362373326078
0.07669059457955328 -0.1610908416474584 0.08408673745349866
0.0764716849077967 -0.1604212270591999 0.08345959902680143
0.07648082241935229 -0.15970295522273556 0.0836517391928292
0.0764934591342266 -0.15901320601841906 0.08386487172250495
0.07651188156831476 -0.15831996057286488 0.08415367218393763
0.07629630765323057 -0.15757122487752098 0.0835165204164772
0.07629057699976244 -0.15684407790843283 0.08378911262218526
0.07625909170087325 -0.15612848536507767 0.08407003461465362
0.07619261549221468 -0.15541728513517994 0.08435902492144488
0.0759350532800716 -0.1546451635048534 0.08369549455420525
0.07579909732003584 -0.15385980858221862 0.08394674048495852
0.07559986342246791 -0.15316045417736374 0.08371981110218468
0.07570269557868013 -0.15330181309680174 0.08442786839964478
0.07547460908898505 -0.15264461091440273 0.0838484716508268
0.07532009857153127 -0.15196858452096337 0.0839907515494129
0.07516384020908588 -0.15129871255130617 0.08415275500466046
0.0750313569746289 -0.1507771379235016 0.08430005536854636
0.07483071029963938 -0.1500117352617725 0.08406069555325182
0.07462418410980073 -0.14907588808642458 0.08427593735572333
0.07438851003067024 -0.1483072263696294 0.0840388587540799
0.07450478901057492 -0.14846330791944354 0.08474404601407151
0.07425835529491441 -0.1477600222847232 0.0841712125321031
0.07408042659967537 -0.14705734696673003 0.0843324756302809
0.07389579697633472 -0.14633845318575503 0.08459080051647239
0.07371356268796216 -0.14563578266943586 0.08487200279225902
0.07338007961238625 -0.1448638010669206 0.08421308586714277
0.07313389138671887 -0.1440836633442578 0.08448222904694892
0.07285337232938648 -0.1433807633231879 0.08428818694795855
0.07297244089682715 -0.14352079380966637 0.08497676384453312
0.07268648787152722 -0.142853455344412 0.08443987036283038
0.0724785583133296 -0.14215634618950126 0.0846301577725568
0.07228719300861566 -0.14142172326919575 0.08490779659130919
0.0721388689022912 -0.14067479272343306 0.0851652679599157
0.07188961301112493 -0.13984003619712493 0.0844652591868854
0.0717848762670157 -0.13902700770656068 0.08462418277925943
0.07168095008650696 -0.13816803043867648 0.08474938939338117
0.07157392667321272 -0.13727925161585977 0.08485506930515517
0.07145019638972508 -0.136338740680972 0.08495619213695928
0.07131155694345358 -0.13551578840906897 0.08466016681261943
0.07139109881307974 -0.13576260884640248 0.08534563291892312
0.07123906484834976 -0.13495073683527037 0.08476329552018952
0.07113870308451897 -0.13414371747451972 0.08482006366905893
0.07103442214055711 -0.13323793022740898 0.08489257737643995
0.07094817472606807 -0.1323379071266862 0.08498190654446308
0.07088328827843822 -0.13144414035446797 0.0850830216925617
0.07082218056684857 -0.13054342638061753 0.08521455033251071
0.0707542764616 -0.12961787881172374 0.08536917133870514
0.07067077731120788 -0.1286730720980502 0.08549294571694721
0.07039094184715784 -0.12784888068933065 0.08466258329169576
0.07026475070406316 -0.12696985462909646 0.08475280252158023
0.07013151587943077 -0.12614777848741293 0.08484598264952102
0.07001156351516696 -0.12535658780703735 0.08500080325254235
0.06987754837223786 -0.12455600531602683 0.08518758571089094
0.06972011752932261 -0.1237480781416116 0.08540113876535516
0.06953699472477597 -0.12294050011717614 0.08562114537041737
0.06919224035362485 -0.12218715655618648 0.08490718100905842
0.06898630580795556 -0.1214241251195995 0.08511956055855852
0.06876498520243272 -0.12065788601625067 0.08532704643227088
0.06854980600929447 -0.11987156197234036 0.08555572232538508
0.06834593931822913 -0.11905419849884044 0.08579117977602577
0.06803681817525518 -0.11822551002946574 0.08501281820978523
0.06788197962567641 -0.11733783504570419 0.08517581231601701
0.06775329627435722 -0.11643768518412852 0.08529356131175857
0.06764239188334094 -0.11552066754146297 0.08538648846586651
0.06755316817150955 -0.11457384163681715 0.08545742788402676
0.06746989013814697 -0.11359849766534516 0.085499193478698
0.06738009299676406 -0.11260889733786805 0.08552482093473623
0.0672842131024501 -0.11161176909523408 0.0855375199878065
0.06716560030634411 -0.11061974913127257 0.08555224765017796
0.06703461764911972 -0.10962928299598106 0.08556935098192614
0.06687657528462121 -0.10864664934806938 0.08559414542536098
0.06670490028161268 -0.10768318007072729 0.0856315430141638
0.06652618818383266 -0.1067260611570674 0.085673487853082
0.06633119182753681 -0.1057532596318504 0.08571292994748736
0.0660935502480967 -0.10477562576124202 0.08575815415363568
0.06581154939021998 -0.10380725345770038 0.085806607743562
0.06545660477194958 -0.1028342536605196 0.08585258094305766
0.06503081735517091 -0.10186774109321349 0.08590249140106966
0.0645170170709619 -0.10088509320287603 0.08595189930577543
0.06393064215460598 -0.09989484760858093 0.08600447158896289
0.06334483925309443 -0.09889045165774436 0.08605362670669257
0.06281645535641106 -0.09789044691734511 0.08610211364197169
0.06237027899271354 -0.09701999358712562 0.08620246112767987
0.062166445653172454 -0.09654364842132901 0.08647920311308196
0.08188117249148387 -0.17213168154593778 0.08418757873518704
0.08184110450229387 -0.17185388147631142 0.08435774335706733
0.0816119712266105 -0.17139013551333235 0.08404853410403135
0.08151851541246191 -0.17076745038737265 0.0842756068411186
0.08105064663115166 -0.17033051063205837 0.08375352039825736
0.08094137484171463 -0.1697506694551786 0.08410871602838091
0.0803936084505288 -0.16937377893504738 0.08361719481359303
0.08027583319305688 -0.16883864010841257 0.08414466238568914
0.07964128736307231 -0.1684680100016046 0.08376293226068471
0.07916443897553747 -0.16747715575322947 0.08470534285524642
0.07847071434494851 -0.16708466982974304 0.08421865619201645
0.0794166968343344 -0.1679980615198963 0.08423042100671924
0.0782289311143185 -0.16647077847475933 0.08475159139570516
0.07762935167366937 -0.1659765216387119 0.08427269032785986
0.07754637731796286 -0.16529361825055014 0.08469609847215953
0.07718045126618604 -0.16470350962663732 0.08418376973177887
0.07718088692969916 -0.1639458022866767 0.0845763821679465
0.07720263049133583 -0.16319423639262562 0.08492115596579067
0.07693676329732503 -0.16252205937530775 0.08438726518326269
0.07698527988973619 -0.16172694149540232 0.08481211644632992
0.0769296045624455 -0.16102180226630808 0.08484203929160483
0.07675657208394554 -0.16034152157705436 0.08442671673772464
0.07668461823577817 -0.15960239692739894 0.0843928458118281
0.07673470719059994 -0.15903081695750498 0.08474378233507311
0.07677177141055998 -0.15829903134326162 0.08507899442546447
0.0765261425703808 -0.15759282210198944 0.0844416531567219
0.07651435200025318 -0.1568625452896039 0.08471756633744906
0.07645827695903855 -0.15614077750228153 0.08498933849167964
0.07637192778781855 -0.15543274686726066 0.08528320997365314
0.07609421927251836 -0.15469879505287124 0.08465533296044449
0.07596908405122456 -0.15401660997149125 0.08499297310877182
0.07584882341580565 -0.1533697186721875 0.085331875113174
0.07557286540063168 -0.1526677377562687 0.08469675463334901
0.07541698366184839 -0.15191133197146006 0.08495190898895684
0.07520419986917432 -0.15122273035047717 0.0847517657264364
0.07532097589865512 -0.1513389973396342 0.08544769679823983
0.07507709237075653 -0.15068569796923587 0.0848932764286165
0.07492011450311911 -0.14996552040465908 0.08504974127144801
0.07476760327072372 -0.14923682301952754 0.08532842598924094
0.07460959773471848 -0.14855109673080694 0.0856351388258243
0.07435161713088224 -0.14780416612735228 0.08501065172393589
0.07418362743162749 -0.14710533773749485 0.08526056363811271
0.07401792971040821 -0.14640136257102088 0.08552743542475952
0.07383434623975021 -0.14569952707831596 0.08581775649557352
0.0735087554055543 -0.1449285421231322 0.08516503539694152
0.07330244473434235 -0.14425175175792357 0.08550924338649644
0.07310884729503381 -0.14360152576804966 0.08586045744004507
0.07278700005341188 -0.1428902716817904 0.08527546500251612
0.07259239522539403 -0.14219444160493944 0.08555891642738303
0.0724183410391594 -0.14146149065257793 0.0858319436634909
0.07227829512993308 -0.14069184586685374 0.08608070874610148
