# .PCD v.7 - Point Cloud Data file format
VERSION .7
FIELDS x y z
SIZE 4 4 4
TYPE f f f
COUNT 1 1 1
WIDTH 791
HEIGHT 1
VIEWPOINT 0 0 0 1 0 0 0
POINTS 791
DATA ascii
0.08175237871050846 -0.16593395219713658 0.0960204030819119
0.08166498169894601 -0.16532539130340487 0.09558741224484323
0.08164025259188373 -0.16483063619485497 0.09580351189912019
0.08155914540420779 -0.16447834629213817 0.09583244638787515
0.08170894651960892 -0.16468199756438065 0.0962473960563325
0.08162995904506505 -0.16429143147182795 0.09639115210381637
0.08131814761016713 -0.16397860372781062 0.09563187468793835
0.0805703795069552 -0.16232698501654355 0.09562998571956954
0.0807676055849557 -0.16249278674958242 0.0959579361376975
0.08107423220643327 -0.16311280656975077 0.0960547272161609
0.0798549913774553 -0.16137036524049486 0.09552304388554389
0.08015331043227453 -0.16157918067505933 0.09582866396922658
0.08056311316718436 -0.16198795868471796 0.0961737497355854
0.07913572393277375 -0.16037846776150047 0.09554102978298953
0.07942810864252614 -0.16058777110684339 0.09583528202763802
0.07987083607284481 -0.16101288664985397 0.09613443959047512
0.07835246054238733 -0.15904540476617934 0.09567949854856533
0.07869697625391715 -0.1594649561182912 0.09590657118939822
0.07914850043932588 -0.15997941925500514 0.09617297943955416
0.07852432530387624 -0.1587679616311459 0.09644810961815584
0.07804444442264462 -0.15834479054070275 0.0958961373768039
0.07775262920922447 -0.15764551203085778 0.0961395910130699
0.07743836447058054 -0.15704649856457156 0.09617850643579712
0.07712579304750086 -0.1563544673620751 0.0963909887656061
0.07680926762439154 -0.15590965507827978 0.0962042482948365
0.0761830615942426 -0.15486386563128549 0.09589002251210264
0.07646886817483683 -0.15534302951880158 0.09606306955466608
0.07632041700352402 -0.1546274448467572 0.09663877167726388
0.07591218865190166 -0.15407181397501973 0.09615093230663034
0.07565559536214449 -0.15326188850697692 0.09639156961753709
0.07537109287757741 -0.15268747898401935 0.09613353577510643
0.07511063434063085 -0.1517860144804953 0.09639608484440132
0.07491936619498109 -0.15112223382621912 0.09656031399442164
0.07465314143735008 -0.15060749672072016 0.09625768160634375
0.07447850957873288 -0.1500086125782088 0.09638103012663443
0.07408203896292571 -0.14888201229360928 0.09619930653616794
0.07432834323117367 -0.14939296650334244 0.0965055545815795
0.07419468417650678 -0.14853936029060769 0.09691405211075632
0.07392029304711652 -0.14817403429517406 0.09634657840745585
0.07342839090974353 -0.14659159250965859 0.09622065388224978
0.073713317212612 -0.14712796031689357 0.09665528776947628
0.07353229342022308 -0.14629149335990185 0.09684279609332153
0.07326678346552201 -0.14574122203607562 0.09642015653125251
0.07314123025185289 -0.1449587689294608 0.09665653510534389
0.07276165772688102 -0.14362278207256887 0.09641411034991818
0.07302567956534278 -0.14416437199505552 0.09687013397440344
0.07287236564139482 -0.1432962882471893 0.09699963398474344
0.07261221620014185 -0.14275209141079073 0.09650378643986342
0.07250656181122536 -0.1419651366709572 0.09660869211988055
0.07218024958797478 -0.1404099361337479 0.09619297752429998
0.07240954967376932 -0.14120717487880685 0.09663847103704239
0.07218693019924823 -0.13945378321377935 0.09652520267001942
0.07239939730761553 -0.1401655739102867 0.09701790064185101
0.07219949782282746 -0.1386415192872392 0.0968014187143439
0.07241199475338489 -0.13913521309380814 0.09741141794404459
0.07231416084315168 -0.1382771615018762 0.09733067198059808
0.07209889313753566 -0.1376889698570804 0.09673865320268575
0.0720079510952053 -0.1367359486002249 0.09670451237955684
0.07200992251463385 -0.13594129060254798 0.09702119408413211
0.07200183341201134 -0.13515241415928378 0.09733895705378146
0.07164277137327077 -0.13370124423500987 0.09674374073543208
0.07187497426683857 -0.13423973996388341 0.09731512976947317
0.07173270330284634 -0.1333448146374985 0.09729276482967071
0.07148812079199728 -0.13289842287201542 0.09670263736360259
0.07141372976458833 -0.1317553013309679 0.09719312370358456
0.07128634781627824 -0.13097408464037572 0.09727847303292214
0.07085619204068488 -0.12949646641948612 0.09682951902225628
0.07114143850633342 -0.1302415381335412 0.09730021737938224
0.07080145201247624 -0.1286947576779417 0.09713689668680173
0.07104535215171627 -0.12916706058747884 0.09772762335266866
0.07088045302441016 -0.1283288444221705 0.09769549624822846
0.07063715160256238 -0.12772679993724725 0.09710363835768153
0.07050643032295105 -0.12676483789273477 0.09709925871659696
0.07046099181122378 -0.12602444440699104 0.09730105023258535
0.07039356458037156 -0.12514275454513227 0.097488270738491
0.07035265138274224 -0.12439323006891573 0.09779800227687506
0.070040850986573 -0.12269493558127109 0.09708002838211076
0.07022020597207076 -0.12338717799661642 0.09775791849944966
0.07007551155587814 -0.12238786019473272 0.09768156967665656
0.0698815144844602 -0.12178621028369216 0.09699240456755177
0.06972855297866383 -0.12069358664568956 0.09749065483629975
0.06950592426600366 -0.11980768361500604 0.09744613118388885
0.06931053610000991 -0.11898107256383732 0.0978407937270407
0.06905326953624719 -0.11817765880712924 0.09788928611762317
0.06879321819731062 -0.11756246132575601 0.09748313188382658
0.06853827374109824 -0.11678790801203955 0.09751348095473414
0.06839588277134447 -0.11622038516796852 0.09788058102886094
0.06788324115982494 -0.1147371612490356 0.09744265589522653
0.0681302428121332 -0.11533898972000034 0.097987622673497
0.0678738969432661 -0.11443712814471496 0.09808459300262234
0.06762677223733193 -0.11382876303379615 0.09750902381949517
0.0673802549801363 -0.11292987709449806 0.09756439208208824
0.0672171237335838 -0.1122119356957625 0.09781546162857334
0.06701040617710247 -0.11135899065435453 0.0980569954966228
0.06685919708577372 -0.110622499867989 0.09839332169903943
0.06630681174709907 -0.10879239864718544 0.09768312051708206
0.06660740380292977 -0.1097019278752612 0.09830937763138664
0.0661120330676755 -0.10801347814572324 0.0979313828239915
0.06633873814609892 -0.10860466506300215 0.09866705817445164
0.06606681134234899 -0.10769512739257447 0.0984855709091621
0.06584456111496687 -0.10708004828395774 0.09772030498026835
0.06557555147009644 -0.10608013944796091 0.09793231436391915
0.0652717230034987 -0.1051112581831363 0.09807558023787524
0.06493393459881808 -0.10414177292545289 0.09817528431167398
0.06460220447947262 -0.10316650580887403 0.09823789774723214
0.06422879667423255 -0.1021825365782312 0.09828962748691587
0.06382423929181993 -0.10120454307756648 0.09833386307267969
0.06340549410952753 -0.10030545468509978 0.09833319737610757
0.06311426588341928 -0.09964859238822993 0.09818321104796907
0.0807463030997426 -0.17145881151370837 0.09610555665406405
0.08089660857117377 -0.17093499902207568 0.09662974662469125
0.08106493481685799 -0.17026018806217286 0.09705911900561964
0.08124897985750514 -0.16955353064211653 0.09644216481335552
0.08145812195784621 -0.1687724767084282 0.09673588261501748
0.08163716126381415 -0.16794756612818554 0.09709055576600459
0.08172459834486141 -0.16718999932310835 0.09712116261014556
0.08177708027127137 -0.166473918062463 0.09682692720338032
0.08180679146605048 -0.1657831438234919 0.09662119247143527
0.08178630015267212 -0.16548964200257182 0.0962346059997429
0.08176695010489693 -0.16507026766844338 0.09625358877093619
0.0818012495393443 -0.16482182876413942 0.09695959070514852
0.08170356674481695 -0.16416757737850396 0.09704984070175411
0.08149283198357114 -0.16371656067807439 0.09663843622954814
0.0813903629163902 -0.16310187336576554 0.09732908603783588
0.08096082307413931 -0.16237053714435634 0.09682855472004968
0.08070294452572872 -0.16180311462037542 0.09693195178536247
0.08036619614674678 -0.16133873437119717 0.09684969114762919
0.08003873341815246 -0.16078149491632995 0.09696691537492119
0.07967901204243019 -0.1603007230800627 0.09690445532465099
0.07933318681172256 -0.15970093350564535 0.09706229380942075
0.07897026659572816 -0.1591631215293694 0.09704171814297444
0.07865431802949707 -0.15850061134478702 0.09720845361960935
0.07833682596849555 -0.15809374051542252 0.09697623360550266
0.07773712801737546 -0.15730227682688186 0.09657867608459714
0.07797430329456297 -0.15760348897409054 0.09677792928782328
0.07704641815960855 -0.1558757506394839 0.0968767082784324
0.07736559319729919 -0.15631115611710755 0.09706560308634436
0.07776173718351431 -0.15689426248225774 0.09723905692432223
0.07718941732247248 -0.1556122274230381 0.09762145820902211
0.07675160495247656 -0.15513009897530178 0.09713511728650456
0.07645265075443676 -0.15437634584953333 0.09738939982612388
0.07616962409931606 -0.15390976353570077 0.09721011192417203
0.07559000467883262 -0.1527525586301433 0.09685870319274972
0.07585272116653882 -0.15318987747598026 0.09716790339257715
0.07565442189474539 -0.15251444979769893 0.09742127585601343
0.0754022822805615 -0.15204744758687572 0.09715259902461286
0.07486724090927026 -0.15062898304836372 0.09698444464437606
0.07512889261653764 -0.15111371348872576 0.0973108264978908
0.0749690884115354 -0.15038538371589993 0.09758289701612227
0.07467945676414461 -0.14987468480010704 0.09718335731666128
0.07447326165380652 -0.14888053937063692 0.09748067859385547
0.07431031584391923 -0.14817004967175343 0.09763048291890604
0.07406085700968525 -0.14764443961352455 0.09732670425186728
0.07391663592566389 -0.1469613227642576 0.09747673875034182
0.07349779317124812 -0.14570275351682863 0.09724352783851291
0.07377506986136471 -0.14620561811995206 0.09768569391895823
0.073605291845494 -0.1453637379628038 0.09785983005544024
0.07334675034395925 -0.14483875765279725 0.09742106423187356
0.07323014786028703 -0.14403820492542474 0.09763534520936822
0.07285621705242062 -0.1426864414372074 0.09733366546565433
0.07311124959142434 -0.14322461434620368 0.09781995711829104
0.07296974837977138 -0.14233790802401317 0.09791125376576723
0.07271598037563981 -0.14179086487458162 0.0973736553063853
0.07258892188394689 -0.14079669473791562 0.09743176639651553
0.07261097952056089 -0.13996790649905885 0.09784768006777275
0.07261950993133255 -0.1391711118092082 0.09818554782688976
0.07232169064098014 -0.13766477660542772 0.09756119814000232
0.07251840691325032 -0.1382446132182951 0.0981536796663179
0.07242028552562389 -0.13731436433541436 0.09810871356361515
0.07221624380557365 -0.13679085637592092 0.09749543093522346
0.07220094288717342 -0.13566933698938305 0.09795289253172854
0.07209085848498681 -0.13480432735965975 0.09789936606773085
0.07206572638569045 -0.13419680294307695 0.09815909137367675
0.07168745812328195 -0.13255648990158708 0.09764390686638232
0.07192748243208555 -0.13335273736827008 0.09810596990590191
0.07163553361355687 -0.13175541248949763 0.09801046038839899
0.07185456601903953 -0.13225919037038816 0.09860094556065446
0.07170601101138444 -0.1313983791555275 0.09860770651774735
0.07146184809587389 -0.13082425502424952 0.09804903679766068
0.07128271928859528 -0.12985960352348944 0.09810890418893985
0.07124133666376384 -0.12922072629517684 0.09848550466380568
0.07083506728092838 -0.12771257052510993 0.09796697001955956
0.07106596225506898 -0.12830884196314507 0.09853405434751494
0.07089740466778742 -0.1273989803022502 0.09853746187166955
0.07067876405877162 -0.12676990289888307 0.0979524243360114
0.07055197571378484 -0.12577779508592482 0.09797072906364185
0.07050812161124762 -0.1250268985428487 0.09829356386546326
0.07042067582110394 -0.1241501041472578 0.09847548068050196
0.07034690836445961 -0.12341117160332701 0.09866007298055778
0.06998164959037752 -0.12158137384321878 0.09801461037790318
0.07020247055587969 -0.12249329010284063 0.09857856681171283
0.0698688827049582 -0.12077810592535848 0.09837580011941251
0.0700659477529187 -0.12134724110290518 0.09902728671683206
0.06987218724308962 -0.12045649071069076 0.09899163791292913
0.06962868041004715 -0.11981685213990668 0.09841997070094276
0.0694148466090866 -0.11899437388204674 0.09859739115038885
0.06891605333813791 -0.1176320386696054 0.09828960164499938
0.06918731177885629 -0.11820676861587705 0.09877409432150636
0.06891384814950668 -0.1173644928875349 0.09890734093393937
0.06864860002172055 -0.11678894804561978 0.0984137489954064
0.06838149399088858 -0.11593338312735613 0.09852575010258345
0.06824768883289262 -0.11534434437191343 0.098901091634558
0.06774168332083177 -0.1138275498243247 0.09844005840451549
0.06798471799805514 -0.11443911371648997 0.09899938756207223
0.06772424151959604 -0.1135239035995382 0.0990708696445657
0.06748993363979536 -0.11290006844754026 0.09847683327255771
0.06722965149665601 -0.11193693532264623 0.09854468060999619
0.06706680353416493 -0.11119453710863914 0.09890809689960751
0.06685823364263042 -0.11030862270241543 0.0991053456929237
0.06662821172428654 -0.10943241922246895 0.09926730975463012
0.06644596624161454 -0.10870185563603826 0.09953245491262187
0.06584369381385502 -0.10691629620105052 0.09866524992305806
0.06615932830311017 -0.10780664043825176 0.09935662966846467
0.06555248102650733 -0.10597188059650454 0.09883005881284604
0.06583890404230623 -0.10678301570982253 0.0995574355305052
0.06518170707605667 -0.10499851267582143 0.09897401505833525
0.0654697334258904 -0.10581614836994516 0.09972885267710553
0.0647863947315068 -0.10402529351315744 0.09907981203519216
0.06503744685277651 -0.10485471039842403 0.0998724954446648
0.06444892165537436 -0.10304046043309481 0.09914354522923853
0.06467616641485632 -0.10386918507775925 0.09997474116770211
0.0640931580788405 -0.10205276508666568 0.0991861973354496
0.06434283809989903 -0.10286991836753699 0.10004193289584622
0.06375715359708992 -0.10113235714806049 0.09916974549472979
0.06403081449651768 -0.10193410035354525 0.10002730648522366
0.06347589813840196 -0.10044404449670571 0.0989809884170359
0.0637944669561658 -0.10123697226524915 0.0998259341661783
0.08080532886500094 -0.17124646712100086 0.09686640476973528
0.0809708962675079 -0.17072828943132795 0.09749095515184417
0.08111380251716833 -0.17016374897745304 0.0978306116180741
0.08124383713260139 -0.16949737173419233 0.09750125225133999
0.08145539945594531 -0.16871738469182795 0.09753852987024243
0.08155581480561651 -0.16827348361664882 0.09793177033277008
0.08176246108353478 -0.16691472370169946 0.09745468805665437
0.08170037842243827 -0.16747479533141993 0.09788789175397995
0.08182615811615974 -0.16536385395146694 0.09668288287308877
0.08184143082670524 -0.16567601549679067 0.09733011745606344
0.08181742595585076 -0.16655480316437893 0.09798069436342177
0.08187054442174548 -0.16508434864329488 0.09784431369549372
0.08163761711146134 -0.16376363146331527 0.09740743301513127
0.0818129552317094 -0.16434571239619436 0.09786367125290261
0.08148567808503364 -0.16291380876231196 0.09837653556934538
0.0812073379079882 -0.16239786884558918 0.09787351421039164
0.08167336693508803 -0.16359302514116913 0.09818323295674164
0.08065167503934173 -0.1615568709776615 0.09730534368373639
0.0808764729725881 -0.16185902006308617 0.09756082045887385
0.07998501588443284 -0.16051351760663476 0.09736800714522628
0.08020899151742962 -0.16079678611834822 0.09760749075575148
0.08058271194131464 -0.16131206908603207 0.09792373293254705
0.079268087973721 -0.1593939505089856 0.09749297099769944
0.07952066677216771 -0.15968834181535083 0.09772039691872329
0.07991632363068597 -0.1602186547667048 0.09800463988228492
0.07854590227803851 -0.1580260454380927 0.09767857381734821
0.07883717239211846 -0.1584488223212463 0.0979175497468395
0.0792203587370011 -0.15903456919699252 0.09816716739079645
0.07862973154501914 -0.1577746954808112 0.09843776157671529
0.07822395485446587 -0.15732648696500665 0.09787653586132845
0.077937269171953 -0.15660155457800615 0.09811900615235386
0.07761552840321881 -0.1560215691341158 0.09813211220168791
0.0773318522973362 -0.1553342976144485 0.09838690364897319
0.0770352917936723 -0.15491635305836393 0.09819107696769933
0.07637160531747637 -0.15389375370486494 0.09783597551782086
0.07666663598292746 -0.15426187280637804 0.09813944920412437
0.07643046030836241 -0.15362541147298545 0.09837747469522427
0.07615310576209429 -0.15322660831658366 0.09807956366050588
0.07560006014000505 -0.15204342275003985 0.09785703503818438
0.07583928883463638 -0.15250526486792462 0.09803832705656532
0.07571182809545587 -0.1517475393233638 0.09857878616400528
0.07543368305374368 -0.15137295579636706 0.09806503286861402
0.07494002491840676 -0.1498835101387513 0.09800739725862907
0.07521844488628716 -0.15038322199595838 0.09839688382800581
0.07503755831022542 -0.1496114228057356 0.09859825073077623
0.07478157476238893 -0.14912349082545429 0.09825685263652476
0.07427913767386767 -0.14761740297369497 0.09804617018545102
0.07453392236755214 -0.14811129851363042 0.09838723474391863
0.07438650260082295 -0.14731202353394884 0.09864607499868203
0.07411408765937284 -0.14680920650519932 0.09824144507586446
0.07397753417934129 -0.14604669996819933 0.0984646428075176
0.07358753109034799 -0.14475985005693212 0.09825297225169571
0.07384248259473297 -0.14526512337825706 0.09869089625728987
0.07368452382880161 -0.14440397805473237 0.09886150603714844
0.07342477133291456 -0.1438872918337895 0.09840333806491566
0.0733046422012007 -0.14307775314628188 0.09859056784985953
0.07295401278252513 -0.14170983865825348 0.09822658037967279
0.0731902043291961 -0.14225879028309255 0.09874063487616952
0.07304480851537935 -0.14133307433133482 0.09880626657331092
0.07282109644523692 -0.14083039294570887 0.09824214314992796
0.07280575258794007 -0.13968984410310342 0.09876635142558056
0.07270938212192037 -0.13882026366716432 0.09873755803948887
0.07269996281625285 -0.1382116837793124 0.09899448910249606
0.07240243581653058 -0.1365142620266489 0.09843542607452732
0.07259001891833716 -0.13735314900338766 0.09892588983503658
0.07237972499665987 -0.1357170127179192 0.09877841460677597
0.0725497640245505 -0.13625511314553634 0.09940144976190317
0.0724432824819015 -0.13537867000328682 0.09937333563258162
0.07225572775626644 -0.13476931195080946 0.0987733020930972
0.07212648373317034 -0.13383486392466656 0.09874464695747734
0.07206779489476103 -0.1330639586865517 0.09903923303872664
0.07201335570953506 -0.1323283681266956 0.0993803088615417
0.0716556466081918 -0.13077924030015758 0.09893166619993052
0.07186252855561764 -0.13139815952469194 0.09948478936144053
0.0717009968805706 -0.13045835508932918 0.09954541647341297
0.07147432337915353 -0.12984657911085437 0.09899540075656409
0.0712980546312785 -0.12891881003607103 0.0990646307979112
0.07122883752351307 -0.1283076627833831 0.0993786392156512
0.07083962674760415 -0.1267905184109385 0.09881700958675536
0.07105055092555904 -0.12739976684046517 0.0993944689290809
0.07088430335648081 -0.12645656328610708 0.09939608506738452
0.07069895225376809 -0.12589790403193207 0.09877658293325044
0.07061332257561317 -0.1247764887718134 0.0992103214926883
0.07047837240871073 -0.12388601118196575 0.09913116847774049
0.07039703748532875 -0.12313521633737591 0.09936055258306169
0.07027594086352694 -0.12220621996379866 0.0995514241562807
0.070183690242784 -0.1214472938158907 0.09983767910879049
0.06975885774023997 -0.11985385945606233 0.09930569708566771
0.06999744581059704 -0.12048149017373053 0.09988986138903072
0.06977481810328197 -0.11954035976401799 0.09991673536537896
0.06951331671037292 -0.11894610808392818 0.09939331774045185
0.06928465816718225 -0.1181430924063918 0.09957190558250006
0.06877925023123838 -0.11679154941243511 0.09929044830613902
0.06904857940523568 -0.11734600293867331 0.09977457180497111
0.06877473134433783 -0.1164870692257514 0.09992105476720226
0.06850699859470548 -0.1159231910580914 0.09942177669428386
0.06823868920332662 -0.11504251126774659 0.09953850411119164
0.06809857702270344 -0.11444130034056084 0.09990347275040935
0.06758718242703537 -0.11290730446667428 0.09940384527997656
0.06782904540956322 -0.11352079521831815 0.09998018078073237
0.06755949399854085 -0.1125574503898615 0.10003419573388643
0.06734354402089358 -0.11202089795586617 0.09939382114777164
0.06710368271060933 -0.11089899890070837 0.09986871835667177
0.06684437254540958 -0.10999548781157735 0.09980792307480621
0.06665893226671138 -0.10926256865458038 0.10009037928495916
0.0664030644570737 -0.1083902121922935 0.10020444963103874
0.06610993211534458 -0.10750570803637584 0.10027172672628465
0.0657615842110487 -0.10658988848543537 0.10044951264193079
0.06533523012017052 -0.10564818703931436 0.10062240613393232
0.06494843403026312 -0.10468504696155657 0.10075745478553466
0.06460676531523606 -0.10367991131353561 0.10088250593771697
0.06429114717823686 -0.10272446165860599 0.10089724864763876
0.06407335904297813 -0.10201355301873533 0.10068061708720416
0.08122685116646666 -0.16971640200275945 0.09826961391170655
0.08116803238794952 -0.1701418490643428 0.09829486059087297
0.08136791675677839 -0.16943086960932238 0.09888062743431061
0.0813925308654244 -0.16898394461182115 0.09835359280871099
0.08158497928966209 -0.16813661290835544 0.09871359448085883
0.0817403135421686 -0.1672619160966522 0.09888029921514407
0.08186710420341312 -0.16640970415076795 0.09908119986108124
0.08188418127025135 -0.16570091253435512 0.0983823720033052
0.08190395359824972 -0.16494799727360207 0.098680211815493
0.08183786277162083 -0.1641751580924682 0.09892795729655884
0.08131495144669852 -0.16241720370485993 0.09863242862982445
0.0814562323759785 -0.16273421667718171 0.09906398337659608
0.08166135731997974 -0.163362177211944 0.0992228420030458
0.08124983907464786 -0.1622818786558579 0.09932174525388913
0.08099721741985426 -0.16186632792295658 0.09856995980364136
0.08061741865685948 -0.1612157046178762 0.09907704258459755
0.08027038578828731 -0.16069403677514058 0.09856484649805347
0.07995908923951714 -0.16007350207259766 0.09917065680259066
0.07961387488477381 -0.1595326800012608 0.09871159316308956
0.07932408444706701 -0.15884263110969812 0.09931684229381413
0.07896607345811879 -0.15819105996921234 0.09899907851287448
0.07871783490661974 -0.15753558805030377 0.09920654392552179
0.07846970907385453 -0.1571226095203928 0.09897923021134128
0.07790139980408838 -0.15625476722571097 0.0985199022722172
0.07814804387258584 -0.15650348325057817 0.09886602601904763
0.07726049369484421 -0.15485715871357378 0.09884225022256167
0.07758792528526919 -0.15521450067042347 0.09920009889434159
0.07787833061524402 -0.15589422881036186 0.09899238424665847
0.07731252345158217 -0.15455874031756478 0.09940031475104877
0.07700104693409031 -0.15422986066810215 0.09907004714514941
0.07634734714303452 -0.15310906995150456 0.09883324195384337
0.07662980689318674 -0.15357166565556957 0.09902161857849555
0.07646908527992657 -0.15281584733775755 0.09960555657314728
0.07606952520383017 -0.1522687355443993 0.09909848478220948
0.07580828430269167 -0.1513979389416211 0.09933682342304606
0.07555692940081311 -0.15085765724683478 0.09905632416854199
0.07539900820798275 -0.15021270529771122 0.09919462199456476
0.07499737278283128 -0.14908113609445758 0.09900068542132756
0.07523639372537438 -0.1495794964999341 0.09930597479209331
0.07508782290589934 -0.14871923063767503 0.0996807586139023
0.07483707148257064 -0.1483709074242338 0.09914209120900669
0.07434659285335674 -0.14673127989860243 0.0990515697452894
0.07463279562615317 -0.1472590695418649 0.0994956621505767
0.07442619103639979 -0.1463662815863787 0.09965348846686176
0.07416499306637472 -0.14588090515488442 0.09922824930641423
0.07402899849946537 -0.14510115267768967 0.09945981696119582
0.07364439200694338 -0.1437916330761645 0.09923995669790399
0.07388422490894127 -0.14431037509774203 0.0996837172660412
0.0737182961582272 -0.14344861694197428 0.09984325448462655
0.07348340943532154 -0.1429222426369286 0.09936882625552197
0.07336050523662764 -0.1421156609938907 0.09951845142431864
0.07301081178151689 -0.14052641599016885 0.0991897855204569
0.0732328143028852 -0.14134080586589387 0.09960254037012341
0.0729825284073754 -0.1397228639593332 0.09957019461347522
0.07315402024745825 -0.14024781184304796 0.10013517207163126
0.07303999677490929 -0.13938847215180009 0.10016374030262554
0.07286711979166677 -0.1387829801529023 0.09959791387600252
0.07276367763195882 -0.1378465934977007 0.09957617259668619
0.07272131406922909 -0.13707387429220594 0.0998668135261486
0.07268568862053205 -0.13634099809421094 0.1002074800071632
0.07240758886894258 -0.13475469650091823 0.09967321906401655
0.07256761092559112 -0.13540261060888867 0.10027743354262825
0.07244617907473935 -0.1344505191270361 0.10029489351617038
0.07227178259721308 -0.13379585239944916 0.09968676464710995
0.07214583172220305 -0.1328310102126433 0.09975513510446708
0.07207199495288236 -0.13212264245130803 0.10005381110168837
0.07198596858433196 -0.1314173754014515 0.10035641112585822
0.071625628810953 -0.1298361385758748 0.09988163537270278
0.07181911221995284 -0.1304662606488596 0.1004519213109694
0.07164422933600521 -0.1295203808640968 0.1004939368617463
0.07144489313542671 -0.1289112688724414 0.09992992674574654
0.07126582943210745 -0.12799891606842914 0.09996475888611167
0.07119327315764797 -0.12739329538843575 0.10025953145816958
0.07081619917298901 -0.12565454877144686 0.09973912724203983
0.07103366001902313 -0.12652088823491034 0.10022468901316102
0.0707429991174234 -0.124860057901998 0.1000547082447571
0.07092271874893284 -0.12540708602392345 0.10069951980023509
0.07076913302848169 -0.12449692133725117 0.10061438206821449
0.07059473871294386 -0.12395974733547421 0.09993971694486953
0.07047481549851613 -0.1228514822795203 0.10028440314457726
0.07032573542222088 -0.12196028951492624 0.10022897872659661
0.07024073406963478 -0.12124480596099953 0.10050364788218352
0.07013960011517323 -0.1204662056187185 0.10081366859162318
0.06965727501843252 -0.11891991659544973 0.10026666628601968
0.06991518985721656 -0.11948113744278868 0.1008270461636724
0.06966936969020858 -0.11857664228305587 0.10088123269525172
0.06939401041739228 -0.1180338422851392 0.10037242961964164
0.06915362886367825 -0.11723400632651763 0.1005701340090811
0.06863746261320647 -0.11589619280984563 0.10030265943651098
0.06890890315675648 -0.11643404113795686 0.10077503024121409
0.06863366539244704 -0.11556825599538936 0.10091875912521087
0.06836405710036979 -0.1150279051271342 0.10040875444179022
0.06809313713752518 -0.11414018640956478 0.10051759520476153
0.06795053257441509 -0.11350606843926976 0.10091536928203351
0.06738034221377723 -0.11174626109827981 0.10040230823804733
0.06766611119632665 -0.11258774359847018 0.10090955042598233
0.06719914938586231 -0.1109503249729299 0.10073877179512171
0.06738832867769841 -0.11146408141781347 0.10137390186584329
0.06712787065120168 -0.11058693562978857 0.101324529863764
0.06693690302139668 -0.11007170396048628 0.10064786091670426
0.06662901325797846 -0.10898365127735642 0.10101528023362562
0.0663274983217768 -0.10808531902965432 0.10087568597318805
0.06603636020146508 -0.10733294725344521 0.10112511300388713
0.06563109303700489 -0.10642234962713351 0.10133524477922486
0.06525606930199436 -0.10547484592660963 0.10149306607113266
0.06491187623506026 -0.10449539075993666 0.10164736330679741
0.06461999202200046 -0.1035414630506435 0.10181719569344089
0.06437806125204092 -0.1027624002648446 0.10153113256951136
0.08154360956994332 -0.16901961549456562 0.09952036426844749
0.08154247173496397 -0.16873008875609422 0.0992814780394868
0.08170443725605939 -0.16783875195523582 0.09975961765843949
0.08182036061788875 -0.1670034207169693 0.09975525134081765
0.0819227122150048 -0.16629095487332232 0.10006157187402846
0.08193101159343193 -0.1656045980999676 0.09937362225442473
0.08191350072195239 -0.16482019828631908 0.09967351092199567
0.08182988186221161 -0.16405943118707678 0.09994762183984494
0.08165861658941188 -0.16340310395672594 0.10029438476033029
0.08146103482450738 -0.16279458920930528 0.09980841485536583
0.08118095107025407 -0.16225437296710385 0.10023472735928922
0.08093030358672362 -0.16173118305801087 0.09966535666523679
0.08055246575911358 -0.16116535149049988 0.10014575795621841
0.08026156684339154 -0.160621982702777 0.09963512271289089
0.07993534390620759 -0.16003704291290966 0.10021553288429226
0.07962673960270264 -0.1593728665271504 0.09989857660935218
0.07935232384680552 -0.15872457225289832 0.1001615867518736
0.0791380452357233 -0.1582101653308274 0.09998975634948362
0.07863715221886093 -0.15709281737437278 0.0996531753603206
0.07887143309160675 -0.1574797377876569 0.09999652022645225
0.07868878333556921 -0.1568397578345723 0.10025329468154841
0.07844170772465683 -0.15647507817803574 0.09987362168143482
0.077877510851867 -0.15551191287987515 0.09953972499123225
0.07810938356095923 -0.15584134783401243 0.09974389549985642
0.07718821086123649 -0.1540746663361164 0.09980303097485167
0.07748495244366187 -0.15440137094395495 0.10012209808383801
0.07789835370305988 -0.15507839740411508 0.10025212810291373
0.07723021276361249 -0.15382272710708136 0.10031992210480332
0.07690981120892681 -0.15334099044475952 0.10014255002629603
0.07656531954936609 -0.15253146785822522 0.1003734871486165
0.07628834705583488 -0.15205342308119874 0.1001799636403269
0.07574415713945366 -0.15081991730390762 0.09978863863561235
0.07598550683071818 -0.15127466052951538 0.10014737345325835
0.07580283109086892 -0.1505139483652907 0.10038675816335425
0.07555096569484175 -0.15002739698336218 0.0999860102856685
0.07531812475416842 -0.1490349377636105 0.10023956695914765
0.07515855882904895 -0.14833901089721283 0.10036224023199791
0.07495957949496637 -0.1479075011959911 0.1000192220848225
0.0748827107511777 -0.14706799163247145 0.100591363596235
0.0743754754635195 -0.14575631254043497 0.10004188963057424
0.07461295266735973 -0.1462069561396593 0.10046885404023587
0.07444019808252562 -0.1454069161038067 0.1006352485528109
0.07419653627959794 -0.14493217515100787 0.10022029772760349
0.07404173189959254 -0.1441578685529431 0.10044933048417444
0.07366807705809097 -0.14284414596267744 0.10021670000797575
0.07388822622541764 -0.14338361926105123 0.10067423471078017
0.07372124932785393 -0.14252112826661248 0.10082840576827444
0.07349824932209398 -0.1419563114476188 0.10032797202120994
0.07333762817080261 -0.14098406340303196 0.10047072602845622
0.07329718530061607 -0.1403572066938769 0.10090552829543192
0.07300233233250225 -0.13877842425682904 0.10048323228281887
0.07315504093777722 -0.13942559815496847 0.10103431537043656
0.07303361109068421 -0.1384794658488985 0.10110914881117103
0.07288278032630663 -0.1378161617298857 0.10052354733700565
0.07279110456698197 -0.1368462871793597 0.1006057582756879
0.07273528729280229 -0.1361340163834852 0.10090158075404322
0.07266780084980748 -0.1354299756102323 0.10118091048270778
0.07239813393862313 -0.13382322655409434 0.10062194731560428
0.07253893501322323 -0.13449478045348265 0.10123408674195421
0.07241565671189579 -0.13353369509960447 0.10125339911184925
0.07225637618753954 -0.1328668422680125 0.10064778997290082
0.0721191126830531 -0.1319220422553675 0.10073693739370622
0.07202986840322731 -0.13119731854561065 0.1010924631536593
0.07191803335169106 -0.13043672056212974 0.10140762917506686
0.07156424790022523 -0.1288983640576078 0.10081432721081943
0.07174891000551409 -0.12950203281081762 0.10140384636544483
0.07158397312396989 -0.12858120554606856 0.10142046153259032
0.07139237554755862 -0.1279898416337963 0.1008306714578681
0.07122109205347238 -0.12705942426908257 0.10083873962261883
0.07114031471460693 -0.1262802597945005 0.10118177429213107
0.07106878841541055 -0.1254809221062449 0.10155679003017433
0.0706895401636273 -0.12370555932120873 0.10086164212683099
0.07090368389584259 -0.12454528030169537 0.10144784832891471
0.07061761136631768 -0.12292170955689662 0.10109823288384742
0.07079626037037114 -0.12344440476756426 0.10174952426421692
0.07064559455333146 -0.12256170145384364 0.10162900274470581
0.07045877430649358 -0.12205251167704714 0.10098302160447589
0.07034110394571129 -0.1210660107336425 0.1013041274070738
0.07020089434516333 -0.12006064400967517 0.10160528726681871
0.07003051312670013 -0.11931702596636334 0.101601115643805
0.06953415899626178 -0.11795757535235997 0.10123028442496033
0.06981243656764556 -0.11848343067178717 0.1017496617400426
0.06952439059300695 -0.11758689346306486 0.10182065062745624
0.06925122871840311 -0.11709723161448751 0.10134324285220121
0.0689997145807818 -0.11631121065398087 0.10154272765645857
0.06848348167013439 -0.11497230120175018 0.10126763787600934
0.06873404730009025 -0.11548195100033344 0.10177131423300123
0.06842194509250794 -0.11459192638843987 0.10186112797601092
0.06821448234913483 -0.11416754552907986 0.10130524221551795
0.06791217194961935 -0.11308891089846883 0.10178874222384734
0.06763747833581182 -0.1121933863555088 0.101782891757776
0.06745630117017132 -0.11154999790043955 0.10220427353962203
0.06690099338154407 -0.10981580666276974 0.10161802027536675
0.06716576733029997 -0.11063903123499348 0.10217361211517563
0.06665238160331632 -0.10905511033555092 0.10189359708600428
0.06680567794451017 -0.10956660184276569 0.10257380199318275
0.06651680569082505 -0.10870791866683059 0.1024567164211775
0.0663609872462309 -0.10819135832369411 0.10172739050748465
0.06593109755039821 -0.10719636296712413 0.10201623044057205
0.06556401590019145 -0.10624187601150088 0.10220483540870598
0.0652388713784344 -0.1052763732146253 0.10234456739064232
0.06493262070733843 -0.10439179046935589 0.10246301431069264
0.06479100788916003 -0.10384164066115902 0.10259385323911026
0.06465164209737327 -0.10338149380217267 0.1023324442561515
0.06489514001255763 -0.10396504965268358 0.10302430727797171
0.08166978786412804 -0.16846592127353074 0.099907076095661
0.08182118191923148 -0.1678141774531123 0.1004993175527088
0.08194420358896864 -0.16748096405816496 0.10103750309614357
0.08192694889589228 -0.16702115825433306 0.10085405954498139
0.08198183103319275 -0.1661053549093348 0.10086631825567036
0.08196675068359728 -0.16549113797937276 0.10033915053627149
0.08191724891627501 -0.16470382562090416 0.10077414631067018
0.08179669518101147 -0.16396234366626608 0.10079359362268508
0.08161604236917801 -0.16347817205387924 0.10125654884546142
0.08141498400855682 -0.16283857830009557 0.10075577120213661
0.08107898977817657 -0.1622966762049605 0.10122770791352789
0.08081182575040313 -0.16171654852008352 0.1006860655205131
0.08041120639808409 -0.16117795140227423 0.10117958745435518
0.08018433375252997 -0.16060313205583726 0.10066773437208265
0.07984263541091165 -0.16004440357020627 0.10118631593909977
0.07967421379999143 -0.159549015634629 0.1007733460972281
0.07922360598749571 -0.15832401000319074 0.10066823304878368
0.07941454388014318 -0.15887737171258867 0.10095933140536051
0.07916909598074696 -0.15811307768983263 0.10144767270890313
0.0790445768438214 -0.1577004468420848 0.10083255682106636
0.07861702415129562 -0.15635332391137396 0.10068862752094586
0.07883724670536 -0.15681001793863392 0.10109632567134952
0.0786638116948081 -0.15610372326968605 0.10127167203180543
0.07836862203047079 -0.15556614230845817 0.10098609414394767
0.0780574724046724 -0.15473469824486188 0.10119748737486273
0.07775708637628632 -0.15427265501047308 0.10103323754925812
0.07718074173694046 -0.15350408993738826 0.10066657354713664
0.07741202018568345 -0.15376142097054166 0.10091025932714442
0.07644902426328444 -0.15202877337651458 0.1008166733285236
0.07674110398473943 -0.15238972390495215 0.10115303622964501
0.07717168741612612 -0.15307182105744893 0.10132265945147909
0.07648290119637392 -0.1517693306418081 0.10135726080879733
0.07624072653008442 -0.1513761618517301 0.10105768771470093
0.07574508234634388 -0.14997834823180814 0.1008161843135931
0.07596090900778808 -0.1504595139770035 0.10116369981821846
0.07579361699642007 -0.14969542154840426 0.10144633394898499
0.07556762904604868 -0.14921326471043828 0.1010636947304889
0.0751017911862734 -0.14769939155050618 0.10083135862606703
0.07531229431667807 -0.1483434442556376 0.10103718923837288
0.07503683605313437 -0.1470657366233125 0.10128117037454636
0.0752237302162538 -0.14749591209357646 0.1017019053773104
0.0750761290144296 -0.14678076290392164 0.1018454075320314
0.07487444530361598 -0.14631013365053586 0.10145312768246038
0.07436709448288804 -0.14483974060461993 0.10102034331788923
0.07458054960935978 -0.14532528429916167 0.10141787276739461
0.07439355151936361 -0.14453541217737953 0.10161292704380098
0.07417669159993634 -0.14403131989941031 0.10121426242038548
0.07401158929465805 -0.14327849880999272 0.10145245086510032
0.07365554703166505 -0.14193062499552073 0.10120994130561749
0.07385542257457174 -0.14251736245661886 0.1016691493540842
0.0736823482317788 -0.1416563950622997 0.1018286196640176
0.07348158487978225 -0.141034285928943 0.1013573600012724
0.07333200314049305 -0.1401090150000611 0.10151339844036532
0.07326332942274223 -0.13951772584792616 0.10192756172935523
0.0729788450703847 -0.1378540125449237 0.10146673277361484
0.07310870006494533 -0.13854208286724548 0.10205369524153016
0.07297972311330243 -0.13757056367860188 0.1021273861864864
0.0728587026065545 -0.1368816194901274 0.10153257263839681
0.07275747327272203 -0.13592469548905106 0.1016107064080337
0.07268031901243294 -0.13522582612829082 0.10189066015527669
0.07259865356714339 -0.13453130837388905 0.10215884881806746
0.07234938589834651 -0.1329212369326486 0.10157006426402385
0.07247222203223702 -0.13359344396105868 0.10218755254283582
0.07234058805469283 -0.13261150291970028 0.10220371833549508
0.07220847050416977 -0.13203524602955946 0.101558064591989
0.07207016724058717 -0.13095007734444217 0.10207687350921071
0.0719128863948509 -0.13009194743423202 0.1020246832890771
0.07183692842772334 -0.12948849339305069 0.10231077320587986
0.07150866599779622 -0.1279706225962586 0.10171359062126367
0.0716821662682473 -0.12857125315643492 0.10231435457972703
0.07151460140647051 -0.1276211665985024 0.10230649069216856
0.07135308067655301 -0.12711497696888463 0.10165879287904865
0.07124223132972311 -0.12610073818898043 0.10206059034202308
0.07112004058598216 -0.12507658716157088 0.10235356978334595
0.07097821777795126 -0.1241804245595748 0.10221955846254228
0.07094283483423874 -0.12355545975433595 0.10252990557546392
0.07055889675142596 -0.1217701524219388 0.10186757649326791
0.07078222442207645 -0.12262477385804904 0.10244764401386285
0.07044463389664644 -0.12081623654008926 0.10213359011232721
0.07065802129187412 -0.1215145401724406 0.10274289136085342
0.0703388546897057 -0.12004936951535772 0.10236505346176465
0.07051192339890446 -0.12047120664238103 0.10299423532453102
0.0703372066880358 -0.11967510760766685 0.102880700427064
0.07014376442880871 -0.11925553075503616 0.10229269675421489
0.0699503167258355 -0.11830706126598493 0.1027896627086667
0.06936939937496056 -0.1169783232531973 0.10216845685751819
0.06961926674343322 -0.11741523973201481 0.10263945981654791
0.06932717165654143 -0.11657775772474922 0.10279906508879111
0.0690853911259302 -0.11621731615769636 0.1022474992672601
0.06880420158258582 -0.11523560844900681 0.10285730111216762
0.06819586182765625 -0.11381648691004827 0.10226048151562188
0.06847759021251618 -0.11449036852256844 0.10261383015601871
0.06796028506551618 -0.11306411371293554 0.10264088573006053
0.06814779645893881 -0.11346832635726375 0.10323990988535663
0.06784549050149227 -0.11266425191647904 0.10321687764401177
0.06768860824443539 -0.11224637025059978 0.10261242921803113
0.06736176354883383 -0.11118009725458274 0.10304712690159332
0.06705708523368857 -0.11029183051737328 0.10302157727986443
0.06684938065914375 -0.10966700153259325 0.1034113030821459
0.0662095914454499 -0.10794693128818718 0.10268488798447879
0.06651476328497966 -0.10877087924825868 0.10331531582062557
0.06584228927981096 -0.10700977970923069 0.10290513824436016
0.0661484394543482 -0.1077630459338407 0.10356218254711101
0.06554346525287479 -0.10601817152426807 0.10306164939727609
0.06585876395818242 -0.10678528337017525 0.10378620121808911
0.06523311912580625 -0.10506217436022927 0.10313157445752447
0.06554731503079195 -0.10575379021841702 0.10390122721045825
0.0649847683532971 -0.10434322591797379 0.10305032688349669
0.0652382592792806 -0.10482240361987848 0.10379511393113468
0.08202810208518165 -0.16719026305085297 0.10141695625657123
0.08198729637869197 -0.16547896118860178 0.10126825178979076
0.08206359450653425 -0.1661482088669352 0.10170345472066208
0.0821312302583913 -0.16665488438538445 0.10203454408261148
0.08193990154434681 -0.1649249947588528 0.10166988686049927
0.08203838075459655 -0.16541934073034062 0.10215706604633809
0.08196145384928695 -0.16476746645453197 0.10239241605509257
0.08182561868954553 -0.16422401277781548 0.10169706922270726
0.08157566452438583 -0.1635963768469781 0.10226702271848728
0.08132382134780565 -0.162929254174948 0.10175934372043502
0.08093488507936636 -0.16238980985775045 0.10226606501185859
0.08066574154553835 -0.16176874037249 0.1017188881947411
0.08022930356206902 -0.1612318939684485 0.10222301519709125
0.08001110712737666 -0.16062888630916708 0.10168510747310996
0.07965524049794653 -0.16004980254062753 0.10217669427784652
0.07953489401016182 -0.15943044549934557 0.10164499454708487
0.07925839392676956 -0.15864383337046498 0.10217894474501098
0.07909984255080028 -0.15786899672612356 0.10227100241577462
0.07900037527840938 -0.15728717872915157 0.10185804414778367
0.07890749817700177 -0.15667134368889843 0.1019346682313871
0.07861741139478118 -0.1557402779043413 0.10162268007658673
0.07878309251149461 -0.1560811272027488 0.10200039041198616
0.07796084362199646 -0.15419763081710447 0.10170873584746508
0.07823798798197139 -0.15456431976540108 0.10203557112088303
0.07858320047974687 -0.15523628752062735 0.10226618690681946
0.07802149169416038 -0.15394813891406134 0.10225503006799945
0.07767253060026662 -0.15348524107725636 0.1020537880753744
0.07728672440322557 -0.1527255098640605 0.10227051801594118
0.07697902256241132 -0.15227104832764887 0.10210898971432417
0.07639550297970356 -0.15131961748824263 0.10178020001085594
0.07664995713925492 -0.15171416276297064 0.10200638309677804
0.07646481042774515 -0.1510136676643538 0.10252713336639693
0.0761959791882125 -0.15067795321936792 0.1019673066695776
0.07571189188264338 -0.14914916587706506 0.10186247018854877
0.07593290829529938 -0.1496830815735337 0.10228393021426062
0.075732103802852 -0.14886303813154345 0.10245913959701293
0.07549909896994873 -0.14829891530046485 0.10203425717706871
0.07534584305119187 -0.14752583491838017 0.1023268621773754
0.07501438498673081 -0.14627002914463155 0.10220734338902204
0.07520421337009676 -0.14679215092655168 0.1025992825294531
0.07503214369878117 -0.1460008343586926 0.10277332284185761
0.07482770196382882 -0.14550731746503395 0.10238097096048863
0.07431389064010407 -0.14399496958531055 0.10202383179582153
0.07452292067215457 -0.1445097240604068 0.10240191680631575
0.07433584889201154 -0.14372312479166666 0.10264677984062318
0.07411151453949538 -0.1431926525546266 0.10222472252187959
0.07393486518882768 -0.14245729036878524 0.10243570543785223
0.07359779648969392 -0.14108803909441126 0.10224416742509915
0.07377917270208285 -0.14174160826347354 0.10261477739974073
0.07359815527248528 -0.14078276318321423 0.10305454784595096
0.07342514891424154 -0.14023530720745198 0.1023219261810197
0.07327940343629404 -0.1392867073492583 0.10269895867227039
0.07316669852697416 -0.13857142595795724 0.10299818389389583
0.07290782880416047 -0.13694675467558168 0.10248778054216966
0.07301827919574759 -0.13763826874407958 0.10308338264938778
0.07289441292546811 -0.13666372903056892 0.10313947061184923
0.07278384243610375 -0.135973594818492 0.10253009576004911
0.07266924566494437 -0.13502810328165823 0.1025929015168494
0.07259398851038547 -0.13432999824029904 0.10285153563577279
0.07251847615145918 -0.1336279492717383 0.10310465087959383
0.0722472497219232 -0.13181055511825282 0.1025886951493166
0.07239669855031315 -0.13271632153069027 0.10310972744720265
0.07214890140754834 -0.13101794163436145 0.10296079437171633
0.07226219431705504 -0.13156698746095336 0.10363884229620268
0.07212505837792833 -0.13069523227766686 0.10357161872064842
0.0719934624600948 -0.13010004278486964 0.10292358720513857
0.07184763956298681 -0.1292015129773439 0.10289858946675487
0.07177320528615401 -0.1285966950768143 0.10323131890037789
0.07141795492404465 -0.12681524167821775 0.10262365683437709
0.07160698538429401 -0.12766215490910707 0.10319511218885484
0.07130044145166156 -0.12586790001821957 0.10293108148260204
0.07145300644565004 -0.1265657934953429 0.10352398791303183
0.0712249181465057 -0.12509861751210868 0.10316608996199017
0.07134856911376895 -0.12556819228680832 0.10379853187136305
0.0712336673793705 -0.12472785901877635 0.10366923370758559
0.07110199369009372 -0.1242632232191356 0.10301128795070709
0.07099769968788457 -0.12326440512998998 0.10322448656958937
0.07087202500874075 -0.1222509178918557 0.1033953062213389
0.07071751672866199 -0.12117449067402448 0.10367498532770014
0.0705858615441887 -0.12042340005777202 0.10363843373464421
0.07019506539617709 -0.11895034400891687 0.10318269181588359
0.07041775555312478 -0.11969090202608317 0.10365651255979313
0.07003561715214805 -0.11823398742419428 0.1034877152008158
0.07016196444165869 -0.1185976471798939 0.10409979746957944
0.06993761426637653 -0.11782503148993914 0.10400188115210879
0.0697942013382975 -0.11754800723946245 0.10347871272406373
0.06909743859481778 -0.11582051184461858 0.1032261942727641
0.06941403123978046 -0.11646991954592718 0.10373857857733651
0.06884494941339418 -0.11507332299110154 0.10362433438709977
0.06900263570347799 -0.11536099596790857 0.10413310600358554
0.06872079241231961 -0.11463782708719146 0.1042501039488231
0.06853048419907189 -0.11430644898671728 0.10364422194134032
0.06817660916312329 -0.1133039107385698 0.10425172621188036
0.06760225169871287 -0.11192419103648628 0.10354847161855343
0.06785873967568797 -0.1125678375048807 0.10396837042877315
0.06737596318557049 -0.11119481868063873 0.10388919497944915
0.0675530048360717 -0.11162434866758275 0.10448467617099276
0.06727316389614811 -0.11083128996113542 0.10447327353652011
0.06709561749657744 -0.11037068512730007 0.1038557047757946
0.06674427066360017 -0.10929861410598156 0.10424310861365091
0.06638884094996059 -0.10839508442897146 0.1041287112963581
0.06618610039750766 -0.1075846600784752 0.10442382827702892
0.06591925933181511 -0.10656299797861467 0.10473700435238432
0.06558365838239268 -0.10551830673765496 0.10465048074429988
0.0654429884307453 -0.10503759680257849 0.10460018181596212
0.08225778352252786 -0.16632840271798582 0.1028653968852992
0.08220192067863885 -0.16593407736682142 0.10275381760855887
0.08211034713581422 -0.16516762072938906 0.10297293871196521
0.08198074357293421 -0.16464680052037597 0.10304330461767561
0.0818039024229812 -0.164214809720326 0.10270509811522678
0.08158076653771201 -0.16372845306253186 0.10335924565309408
0.08124340257799152 -0.16303578959772796 0.10280666078714641
0.0808124062776113 -0.16250064749257281 0.1033512751948955
0.08048822755649555 -0.16186002865738572 0.10278614695789294
0.08001499079270814 -0.16131580304433882 0.10331094689286248
0.07978992317583873 -0.1606797232607777 0.1027306504084064
0.07941015608474476 -0.16008038205209876 0.10320782564189124
0.07936120257095909 -0.15941292525948214 0.10264699632922632
0.07917064300705011 -0.15883910481503574 0.10311748635530678
0.07903346384995852 -0.15734651013549245 0.10269867613414552
0.07908576092522789 -0.1579746568139201 0.10326124343291665
0.07904967660205338 -0.15711133311127254 0.10338190831275579
0.07895894456483597 -0.15653048896956934 0.10282949174706818
0.07880057327251436 -0.15552159364600332 0.10305345779831195
0.07866255916203216 -0.15484009666834012 0.10321611051938043
0.07844848315693216 -0.15440183710277008 0.10302056314886528
0.0779705127973945 -0.15362472345937606 0.10261959401650644
0.07817866222584376 -0.153885364003263 0.10287809190838533
0.07715750920658944 -0.1522111309686681 0.1027885151346065
