# .PCD v.7 - Point Cloud Data file format
VERSION .7
FIELDS x y z
SIZE 4 4 4
TYPE f f f
COUNT 1 1 1
WIDTH 790
HEIGHT 1
VIEWPOINT 0 0 0 1 0 0 0
POINTS 790
DATA ascii
0.07609256408500607 -0.16046968092835975 0.08029440605044667
0.07597101705910524 -0.15962785967638043 0.0796174652459588
0.07604459197891723 -0.15883242401850114 0.07979245877881021
0.07607875929595238 -0.1579425717201168 0.079875374126324
0.07606637430223048 -0.15722703910230842 0.07967860369237115
0.07612207798503882 -0.1575256560543782 0.08022638194264056
0.0760906820994545 -0.1568279405185115 0.08002856517580838
0.0760647535646843 -0.15595621579536564 0.08007025053539644
0.07600385681434045 -0.15501459788645267 0.0801570270627653
0.07589135972107033 -0.15420136926252662 0.07990402782060534
0.0759494240374572 -0.1544892083250902 0.08061755024037116
0.07582115860509919 -0.1537232295251875 0.08008513469480205
0.07573493914494128 -0.15301278276187405 0.08018068332842582
0.07559372762894974 -0.1521745376579545 0.08021090277290974
0.07543218923526414 -0.15150463496248764 0.07999541625625047
0.07551835522439676 -0.15175674963518138 0.08050546329737632
0.0753404310962973 -0.15108605212246848 0.0803142547542311
0.07507823140641409 -0.15020570743830694 0.08042231166706731
0.07484500994471424 -0.14946061823062712 0.08019071173433245
0.07491731394266359 -0.1496828757148405 0.08088125281482607
0.07469437168417889 -0.1489619699611993 0.08037790852347931
0.07446444107908073 -0.14826717868972056 0.08056246000814336
0.07422301157815082 -0.14755429237082343 0.08069825355501344
0.07405632315784157 -0.14702340454297458 0.0808316854442185
0.0737832197121063 -0.14625866651453648 0.08061145851720729
0.07354095500224371 -0.14548460675587838 0.08088139590963131
0.07337052825826473 -0.14486541754889223 0.08117951157451321
0.07305706075767056 -0.1440431516187409 0.08059630198573597
0.07281852927422176 -0.14324362874715682 0.08086812272102772
0.07256508154880094 -0.14245958514928342 0.0806186148938756
0.0726761481960748 -0.14266730981227999 0.08134827412049278
0.07244348212743296 -0.1419006747645156 0.08073220993884378
0.07228282186695424 -0.14111908698681203 0.08080566247424703
0.07210308070362785 -0.1402365694432403 0.08089219266298485
0.07192519577088796 -0.1393147795800291 0.08093722827513476
0.07180150844926712 -0.1385616923783561 0.0807543621140139
0.07187018513179146 -0.1389493723684286 0.08130592665680045
0.07175088065467475 -0.1381927005047427 0.08111804262066089
0.07161174685357628 -0.13726179219331638 0.0811315721324679
0.0714809336380819 -0.13633889572810834 0.08115883353016631
0.07135134191140705 -0.1354299002517684 0.08121589864928293
0.07123409340280161 -0.1346116218063144 0.08135157659522234
0.07113083073229917 -0.13392212078731 0.08155669635544538
0.07089037358794652 -0.13305372848418187 0.08089203275566666
0.07075796928303626 -0.13228011306331916 0.08108718359152543
0.07061077437647718 -0.13143559365978874 0.08124904944274504
0.07047313027133811 -0.13059500256929218 0.08140088773633815
0.07035605189278564 -0.1297643175943307 0.08155040619699488
0.0702415239243071 -0.12893351896857544 0.08170833198999801
0.06994660113717675 -0.1280473438184928 0.08091189337464878
0.06983973261143378 -0.1272031841989613 0.08104980359295705
0.06973711521292295 -0.126353404864255 0.08119249530422327
0.06962376675196723 -0.12550231322612285 0.08132359402219923
0.06949762553910271 -0.1246657763520975 0.08146299749485823
0.06935100633065788 -0.12385150336180491 0.08162802942050433
0.06917660462056353 -0.12306395655472803 0.08182814008455128
0.06881505843814968 -0.1222269525231929 0.08107046345394756
0.06859391646973692 -0.12146884900645005 0.08133558922102747
0.06837636313449992 -0.12069634884823965 0.08162252730917743
0.06814807155424253 -0.1198856822988117 0.08185968874977295
0.06778238338824119 -0.11906757847767045 0.08109262485924203
0.06759778919162543 -0.11821515407898889 0.08122089086730513
0.06745856192966064 -0.11737846270033613 0.08132075898978312
0.0673722214579793 -0.11653017607400454 0.0814490002379565
0.06728791043147829 -0.11562075049306497 0.08154739392184344
0.06720602755941771 -0.1146807036851893 0.0816201851692839
0.06712491215181539 -0.11373087795727974 0.08166907101271437
0.06702309415455071 -0.11277460379516759 0.08170404941804979
0.06691812496391987 -0.11185721582549871 0.0817731498989065
0.0667834339168373 -0.11093868884201559 0.08180348815503721
0.06662980496616733 -0.11000736832986843 0.08186959591420993
0.06654016634434079 -0.10924412937734626 0.08205945930936102
0.06581962917860745 -0.10734164823999752 0.081039613852694
0.06627075929289994 -0.10827917248419147 0.08179701465208247
0.06564406489951406 -0.10638477217531093 0.08115437984839648
0.0660925197556265 -0.10722123846123026 0.08193904349901804
0.06543078949095785 -0.10541579779087652 0.08119072508474769
0.06588603592726575 -0.10622671108339682 0.0820010123213602
0.06520201672560515 -0.10446377802825059 0.08114419331918675
0.06565123047679981 -0.10522028789107384 0.08198784144075935
0.06497203513865106 -0.10369104070489533 0.0809917276579057
0.06532009726554328 -0.10407941747342049 0.08183375031057931
0.06504178191950483 -0.10302989502903312 0.0818985752483223
0.06466327081907584 -0.10200351742311042 0.08188799319800733
0.06421616509920186 -0.10098806342955856 0.08190596659861321
0.06374505127043588 -0.0999943877330436 0.08194896941671594
0.0632680917853228 -0.09897957641040074 0.08201581620841598
0.06275767680235102 -0.09799525449039524 0.08210004544770264
0.062305579654572035 -0.09708458290880409 0.08222357193651236
0.062031174184508375 -0.09630219375795103 0.08240025158292365
0.06192656466122051 -0.09593271821718248 0.0825001522728772
0.07672275403023125 -0.1669872114690002 0.08126296108159055
0.07619965512806769 -0.16642069583768013 0.080722953846518
0.07618938493698513 -0.1658746326748226 0.08085791372494357
0.07581437946591196 -0.16519675187222632 0.08027767938886897
0.07602399615431395 -0.1644066912160537 0.08068351001768047
0.07621671109057973 -0.16358009097679757 0.08106126074457569
0.07599075156852661 -0.1628074461261305 0.08038261218441059
0.07614125016948203 -0.16202292581310432 0.08067051785870216
0.07624767968030617 -0.161276028234501 0.08095298954852158
0.07629293533149323 -0.16058999400705562 0.0812404899573862
0.07617036792625188 -0.15972761426993026 0.08060621502096556
0.07621195566645689 -0.1588394363792178 0.08088792914303697
0.07617040330304424 -0.1580337875479305 0.08065670363493921
0.07630420897124646 -0.1582603618427217 0.08140657824069489
0.07619420808815645 -0.15752797903194635 0.0808254035743876
0.07617516120637369 -0.15680894291094474 0.0809210196266557
0.07616079737796938 -0.15599719586372268 0.08104246996332448
0.07609227436092084 -0.15526054364221883 0.08116513536675013
0.07604808306152992 -0.1547421137232847 0.08130910072362285
0.07593113146959651 -0.15395845807687125 0.08105065614231637
0.07579746968875835 -0.15302063471976202 0.08119661130028615
0.07563855908727832 -0.15224117037121773 0.08093765666405867
0.07569175906561963 -0.15247966187085463 0.08168241102907756
0.07552063620232839 -0.15175890874605544 0.08110815777491724
0.07534140948771409 -0.1510849728931598 0.08124653478375721
0.07513140601174001 -0.15040233246297452 0.08140537570116514
0.07499476495392159 -0.14990635497520685 0.08156387774595084
0.07479820842631207 -0.1491674427831714 0.0813403071590876
0.0745335267463974 -0.1482668367635442 0.08154144551269027
0.07426504938426837 -0.14750258979922626 0.08130026261989803
0.07439040328667239 -0.1476899190750411 0.08200705251387605
0.07410174122258399 -0.1469687668174818 0.08144102287758098
0.07387460781053799 -0.1462718979896792 0.08159726179146809
0.07366435287916615 -0.14558292222609706 0.08174631978899177
0.07351585220468682 -0.14505795087013354 0.08188644933935885
0.07323463145352725 -0.14429694974425694 0.08166302102422122
0.07298674711805893 -0.14350517083722025 0.08195079712688311
0.07280396872102576 -0.14282554267375905 0.08225772863027829
0.07251612405212146 -0.14198194795505886 0.08159224826729693
0.07233274645469924 -0.1411752405391233 0.0817682681135531
0.07212363717857839 -0.14026261643485782 0.08186069041354098
0.07196658507343762 -0.13951242344323636 0.08167505584831183
0.07202669432905351 -0.13984965097958588 0.08220714158065834
0.07190504962390268 -0.13911782202830256 0.0820114330048685
0.07179185266878083 -0.13822794583844875 0.08202571854323351
0.07167890519520624 -0.13732605162422867 0.0820612966549509
0.07157208573058364 -0.1364200684933102 0.08211158684187819
0.07145195746272345 -0.135532103979347 0.08217599837759433
0.07133005321601804 -0.13473183433682223 0.08221095646699453
0.07124131584472107 -0.13414830442109246 0.08227989174038655
0.07106287592953614 -0.1333135754750023 0.0819645266466031
0.07090867347008437 -0.13238016069355601 0.08209358380870374
0.07077502001035695 -0.13150997725296112 0.08222119736886666
0.07065840634219267 -0.1306602442711581 0.08235823530329554
0.07054504124070057 -0.12981933478446225 0.08250273706725765
0.07043376189511925 -0.12898120431270563 0.08265540701407575
0.07013097294069498 -0.12809718282429522 0.08185895728372242
0.07001877987135775 -0.1272532021955527 0.0820060951093992
0.06990760362503087 -0.1264054885392252 0.08214619967739017
0.06979353171330334 -0.12556280041363818 0.08228090670839916
0.06966600354435068 -0.1247346332362478 0.08243592076888534
0.06951251214274215 -0.12392329569650451 0.08261134326834783
0.06933316423896273 -0.12313485059773153 0.0828123307739023
0.06897400359662093 -0.1222951571670348 0.08206826715939024
0.06876730819402259 -0.12153232695822334 0.08235445531877987
0.06854836559065035 -0.12071157914587453 0.08273655942143449
0.06826894376034003 -0.1198659959037464 0.08267927420867043
0.06794463086110611 -0.11902358512616476 0.0821333199683225
0.06771695886333176 -0.11812416585446106 0.08198408023031904
0.0676515058176484 -0.11745201660173905 0.08223235362339701
0.06756028397301837 -0.11657228732647829 0.08239983138519907
0.06746340879854075 -0.11563904553560524 0.08250882862009157
0.06737973428721845 -0.11468249174527712 0.08257505021207878
0.06728952264250933 -0.11371373742704619 0.08261194693437869
0.06719995782298853 -0.11275289709164235 0.08264374834196991
0.06708672265603195 -0.11179985773128108 0.08267596140999027
0.06695930271523086 -0.11085813099523106 0.08271217343005535
0.06682492159339669 -0.10995191640460443 0.08277562138057643
0.06666094927706269 -0.1090348296668012 0.0827885034141362
0.06647992532076515 -0.10806954819841172 0.08279725135373246
0.06630040939094868 -0.10708549799403332 0.08285435269337058
0.06608353390436189 -0.10610337919187997 0.0828851345645887
0.06584314434615474 -0.10508890210605963 0.08287212057298926
0.0655566684002466 -0.10405205224526287 0.08286574226543067
0.06524973491434263 -0.10302041756023343 0.08287761807675896
0.06484172977974766 -0.10201473490006126 0.08289321730099083
0.06434405086854379 -0.10101230650768224 0.08292136275506254
0.06381423551559452 -0.10001743702896328 0.08296810759114437
0.06328608814157731 -0.09897708071464884 0.08301861921082818
0.06273902341286607 -0.09796463801236047 0.08308688781899579
0.06230208049055927 -0.09704183578706901 0.08318270045416438
0.06208884106031977 -0.09638548746330063 0.08329406068170823
0.07915260421190518 -0.16907193902926015 0.08203831121405657
0.07803809559298264 -0.16796240103865626 0.08208946153478022
0.07732162834207423 -0.16749197169231228 0.08171588000119805
0.07713809994848395 -0.16705204130883336 0.08188396299885688
0.07663777554765402 -0.16649514443077626 0.0813959695742261
0.0766639963992605 -0.16580129447023553 0.08180287675228934
0.07630062624160713 -0.1651398996481289 0.08126391417320429
0.0764410902593815 -0.16434918590204595 0.08167122857790475
0.07657377967125875 -0.1635463421644274 0.08204074149731888
0.07632629832708934 -0.1627852528699989 0.08138275950596227
0.07643032888111399 -0.16201856448334176 0.08165352995834052
0.07646614675234145 -0.16129794692319493 0.08183289875281191
0.07649065132661144 -0.16073686765004946 0.08198049597228001
0.07640378128834382 -0.15993722620682538 0.08173764887621512
0.0764521235299311 -0.15908544902673524 0.08203291689501625
0.07649216528118781 -0.15837489070224436 0.08233940209570413
0.07633842094950884 -0.15759824279545365 0.08166231319919198
0.07632935132985648 -0.15684750409031706 0.08185522505293266
0.07629597326272222 -0.15599949670395005 0.0820494605186
0.07617624453569716 -0.15523969588827122 0.0817915036555148
0.07631521454191414 -0.1554174069610248 0.08251777206582585
0.07613575269586872 -0.1546932779921398 0.0819170432006056
0.07602721640446437 -0.15396625787628146 0.08203764747969604
0.07588799208736466 -0.1532716087466663 0.08227037017855283
0.0757665020107485 -0.15268695293661005 0.08255886243760188
0.07555714205330998 -0.1518892040122543 0.08197691124984349
0.0753773812622825 -0.15114175181485814 0.08224204312928095
0.07515729727574152 -0.1503938872448164 0.08202275069590236
0.07526598604571916 -0.15061157458346286 0.08272512909168563
0.07504284224130524 -0.1498847061122254 0.08216449131978305
0.07487104503343654 -0.14918852321908177 0.08232326602451984
0.07467641241214713 -0.14848096122974255 0.08258110528134606
0.07450222862181154 -0.14785449686106913 0.0828780337267398
0.07420222374577028 -0.14705512692873868 0.08231251117156474
0.07397914423348183 -0.14626789539150534 0.08257831170376109
0.07372174923065467 -0.1455210989578226 0.08234680849210428
0.07384907807407333 -0.14568189770086412 0.08305659112431306
0.07355487017640207 -0.14498933282036383 0.0824903484995395
0.07332276019394217 -0.14430662724784085 0.08264823716414463
0.073114749370152 -0.1436193476336531 0.08288423253650704
0.07292049589182123 -0.1429766580526469 0.08316443570780452
0.07261234599037474 -0.14211223331466638 0.08255598820503669
0.07238712251313013 -0.14123879072987303 0.0828431356624024
0.07215040228229784 -0.14039692364714987 0.0826317921460199
0.07225962769298322 -0.1406678738307477 0.08336940096967997
0.07205873962973001 -0.13987718375078095 0.08279617387992466
0.07195809740070509 -0.13913275095215732 0.08286536478492144
0.0718575522032366 -0.13828533899993717 0.08293527369428337
0.07175479643643223 -0.13739724636425824 0.0829991561994834
0.07164885168243765 -0.1364888870192949 0.08306364212858836
0.07152617934404175 -0.1355318740488191 0.08311869017362426
0.07138211217380096 -0.13469263758511882 0.08279474244840045
0.07147333614098206 -0.13495105096689258 0.08349417864085296
0.07129628033369736 -0.13413025600057601 0.08289483843389583
0.07116560569152261 -0.1333389480148854 0.08297915783396627
0.07103335296678717 -0.1324517329372154 0.08308106019497159
0.07092247972251782 -0.1315783619506401 0.08319296759069736
0.0708154072642835 -0.13071633938576263 0.08332307380744132
0.07071608538568426 -0.1298627557787803 0.08345776437261049
0.07060977398895071 -0.12900826829464881 0.08361112603377348
0.07032040802407895 -0.12813814929747544 0.08281199465066508
0.07019883047389147 -0.12728883031392482 0.08295547817270393
0.07008666522989891 -0.12644504853787727 0.08308955546821929
0.06996942311809963 -0.12561078141629542 0.08322942896876422
0.06982760623864713 -0.12478731958801753 0.08338836853799873
0.06966824664256892 -0.12398009494518493 0.08356737043028903
0.06949367503536376 -0.12319496117591316 0.08377754671080534
0.06914357277515064 -0.12237157105570491 0.0830549143650628
0.06894980632983262 -0.12163959666179595 0.08334618105512462
0.06880050581091546 -0.12105908731299189 0.08367563058078029
0.0682003795806355 -0.11941622061276638 0.0830508846460327
0.0685221832931219 -0.12023631206076706 0.08358769219939005
0.06832117952150334 -0.11938092724989599 0.08386675223740057
0.06796854263236426 -0.11850724934668051 0.08294993382365827
0.06783614471670865 -0.11755394461857964 0.08322939652363509
0.06772252328588452 -0.11662318056990456 0.08338814214277923
0.06761208617420134 -0.11567337066676957 0.08348494707671938
0.06752259169214805 -0.11471098573532681 0.08354421795971946
0.06744296572052318 -0.11374124659611291 0.08357989362442479
0.06734888049801102 -0.11276508048550028 0.08360556347783477
0.06724462343401938 -0.11179190738056081 0.08362342180750766
0.06711791486974833 -0.11083740076949554 0.08365389979386947
0.06697818015775431 -0.1098861473602227 0.0836820773418586
0.06681446215862671 -0.1089306513254213 0.08370793235304891
0.06665455282397985 -0.10796984757984442 0.08374565125849742
0.06646208751378394 -0.10699844835448574 0.08378452938108838
0.06624282590989895 -0.106031380685155 0.08381762368089365
0.06601280024667099 -0.10503628689744207 0.08383508021264668
0.06572803119958424 -0.10402572397867167 0.08385563778811798
0.06539268108829163 -0.10302575131655307 0.08388107102653965
0.06497671592399505 -0.10204767108857088 0.0839149421601457
0.06446083593169674 -0.10105358507445188 0.083955439395053
0.06388247795864245 -0.10004476615793835 0.08400420322666642
0.06330927339167104 -0.09900269917498393 0.08405223025164127
0.06275106962125067 -0.09799088300751842 0.08411256633958332
0.062335017172891534 -0.09710454691652624 0.08420773139049906
0.06217112925439599 -0.09661163261272011 0.08448000595655296
0.0803390047336756 -0.17050603750499718 0.08211230682757553
0.08048165112406162 -0.1705454963049658 0.0822707712401212
0.07941073227492698 -0.16943812870148062 0.08193987472759413
0.0798366481136249 -0.16972788779532624 0.08215684282264928
0.08039409212641047 -0.17023776405584226 0.08240123897944576
0.07935192386775919 -0.16884955852335315 0.08248962967778531
0.0787729774166868 -0.1685026481955596 0.08227259627521588
0.07960238723126055 -0.16932886946241718 0.08227559996962834
0.0786497848086718 -0.1680058694330517 0.0827443777844895
0.07779964079854414 -0.16753243018084943 0.08232383596085714
0.07765069219398954 -0.16693329987734598 0.08277392972273787
0.07709774689294374 -0.16640789631272593 0.08229879104034653
0.07711094870965943 -0.16568861649798008 0.08276941494689762
0.07672319238137128 -0.16505276226419852 0.0822437394225694
0.07684793860920487 -0.16427753122525918 0.08264693873983892
0.07692708531537618 -0.1634966084901477 0.08302037753366605
0.07666343990067209 -0.16274957881455238 0.08237109981440459
0.0767194643472402 -0.1618885050387427 0.08267408685890722
0.07664445937069425 -0.161171499224459 0.08245960080306244
0.0768290579272314 -0.16124582743090302 0.08318682322578586
0.07665720691239811 -0.16059775931597126 0.08260983455870279
0.076640585485945 -0.15987247855314143 0.08276043707938492
0.07667447438434072 -0.15914294436642118 0.08299873390647719
0.07668110005644801 -0.15843528990344577 0.08326101266187047
0.07650420732922704 -0.15766309770519296 0.0825907321566313
0.07650000047000613 -0.15691641891364383 0.08283729962476544
0.07648602762243326 -0.1562033722470336 0.083126623891562
0.0764445757055613 -0.15552291708781654 0.08343764183651145
0.07623698484093418 -0.15475503341789823 0.08277382950527894
0.07610938249284926 -0.1540486083693557 0.08298744565824308
0.0759727165648325 -0.15338938533377153 0.08312851768501389
0.07585718938894412 -0.15289005686337326 0.08325689447108067
0.07566450831404556 -0.15215321453288438 0.08302478790805094
0.07549979836835417 -0.15140228583294366 0.08329631982861681
0.07535225711523139 -0.15078956213694117 0.08360723188443567
0.0751284346729512 -0.1500047488303205 0.08302966636710182
0.07495567852305758 -0.1492965500022371 0.08329308212284993
0.07475321916593063 -0.14857928039924595 0.08345013598584716
0.07461139333661328 -0.148040264971551 0.08358264802190986
0.07437871079220813 -0.14727802081216493 0.0833546473457606
0.07416571409610559 -0.14647417983784722 0.08364950440248828
0.07397318910504766 -0.14578306044626396 0.08396190303754125
0.07365463340825361 -0.14503730726077393 0.08332192998383375
0.07343785696102109 -0.14434901770540376 0.08354750976216578
0.07321380247957943 -0.14368252464633957 0.08371429894031941
0.07303310171406359 -0.14315938045509766 0.08386544361615278
0.07276208664840095 -0.1423755596172057 0.08365268172176263
0.07253875702813276 -0.14154832415990662 0.08396741934885016
0.07237805081067808 -0.14083275819879523 0.08427302117188366
0.07214467368383481 -0.13998697656128636 0.0836071122935184
0.0720366398443974 -0.1392028662964302 0.08374837187406375
0.07193847568903702 -0.13835418491957197 0.08385193193090024
0.07183678696746287 -0.13746820793242864 0.08393947663460583
0.07173226633758994 -0.13656944342925084 0.08401762730753219
0.07162618311747568 -0.1357730133142918 0.08408571556841052
0.07154948387418733 -0.13521478848999327 0.08419461061955423
0.07140438262203662 -0.13437727751716674 0.08388463550686363
0.07126942057671737 -0.13342727788369518 0.08396066284617365
0.07116105675720849 -0.13252780332332106 0.08405258305765201
0.07106429067728627 -0.13164322712248636 0.08415717622382554
0.07097656585694029 -0.13076651446087864 0.08427933734795148
0.07089096128407878 -0.12988818171130942 0.08441709975549479
0.0707907491801994 -0.1289995959872979 0.08456290101237966
0.0704942967107296 -0.12814679061663756 0.08376142952670997
0.07038021605704477 -0.12729044803681513 0.08389009183272501
0.07026225976898157 -0.12645099242063942 0.08401577767206994
0.07013262920474016 -0.12562750374354223 0.08415283922299371
0.06999458030227014 -0.12481858456446997 0.08431487269459081
0.06983412564700417 -0.12401570321754783 0.08450787346499421
0.06965011346891799 -0.12322243026049437 0.08472472498939226
0.06930511681168698 -0.1224346700120635 0.08401977786537078
0.06910926633134389 -0.12171029045621455 0.08426441188315296
0.06889014246820382 -0.12097345873450843 0.08444916238834232
0.06866747482182495 -0.1201810475074535 0.08462910632638057
0.06845693370994366 -0.1193501941586851 0.08485683565820087
0.06813728113372385 -0.11849743888062365 0.08405586515611471
0.0679855565337457 -0.11758695560209202 0.0842417717256995
0.06785627086939351 -0.11666210578456038 0.08437323139099506
0.06774743493815216 -0.11572420730153034 0.08446305163376573
0.06765601015656077 -0.114769178159361 0.08452539531718385
0.06757192728760943 -0.11379412032069319 0.08456524623583202
0.06748279483138969 -0.11280680601165528 0.08458378330553375
0.06737500805198789 -0.11181872951598533 0.08459843421722435
0.06724600592152394 -0.11083916876851023 0.08461830012107331
0.06710267232727607 -0.10986223498301859 0.08464028780809062
0.06694591210263375 -0.10889435135589308 0.0846717083769635
0.0667821281616239 -0.10792875431341832 0.08470812360029437
0.06658726981666226 -0.10697034406655874 0.08474944484824244
0.06639023038874971 -0.10600536029233021 0.08478649179061275
0.06615369797571816 -0.10501408711984525 0.0848188712030223
0.06586128859347028 -0.1040291506628646 0.08485861789031608
0.06550665153819847 -0.10305013518056508 0.08490086423166239
0.0650767751535466 -0.1020834274462023 0.08494902323910611
0.06454658426142633 -0.10109663428083887 0.08499774091178686
0.063951407870578 -0.10009703803963693 0.08505110969344437
0.06337757268269362 -0.09906263071995923 0.08509519911553884
0.06282366850092373 -0.09805659195005424 0.08514892837635428
0.06240756144822782 -0.09718323461015699 0.08525202751145934
0.06221401078915864 -0.09670786024446389 0.0855317820729209
0.08207128347241498 -0.17197794256192162 0.08393291379474797
0.08150962940353967 -0.17088125076814853 0.0835836094521366
0.08091773844785474 -0.17050595596112816 0.08290444840474155
0.08082908325128052 -0.17004120697723912 0.0831891222888038
0.0802169979482051 -0.1696619647811295 0.08271329416498817
0.07915118945820426 -0.16845369317744216 0.08273272438517812
0.07960573156911324 -0.16863261282352263 0.08306729112274713
0.0800337911229928 -0.169057021756697 0.0831124177799852
0.07908464310348956 -0.16777101348966442 0.08372303146499231
0.07836253668236581 -0.16738865914687 0.08322210566242665
0.07938566510356167 -0.1682618410331564 0.08336081569990489
0.07817430447452599 -0.1667555633699081 0.08375284434563969
0.0775822403918246 -0.16625624395072056 0.08327472389633654
0.07754187739712846 -0.16555604255501782 0.08374783547059869
0.07717164675192634 -0.16494267732534787 0.08321755672818174
0.07721599069591417 -0.16418701333008 0.08362304733604485
0.07725189880186545 -0.16342633274330856 0.08399653089158614
0.07698552780351546 -0.16270128997464123 0.08338786791859541
0.0770372378756515 -0.16194210583115123 0.08377089109598466
0.07708735522812396 -0.16122615108330854 0.08409287632493226
0.07686563303605595 -0.16055766309515762 0.08346806144074687
0.07688050732524945 -0.15984292727566632 0.08365913075731927
0.07689827366578851 -0.15915712196575488 0.08387111517931403
0.07692143136650346 -0.15846852435373068 0.08415872432450656
0.07670252485099201 -0.15772205852901894 0.08352454977215257
0.07670094305358292 -0.15700010615559148 0.08379597555761018
0.07667285437930804 -0.15628982021220864 0.08407576230894297
0.07660875309867235 -0.15558406841162223 0.08436391843299107
0.07634689467117545 -0.15481429331531935 0.08370367549942802
0.07621282748074255 -0.1540343011714652 0.08395408666526613
0.07601260854117543 -0.15333770035601796 0.0837280967040607
0.07611929289169744 -0.1534806340965546 0.08443330878210044
0.07588791280614282 -0.15282464829419448 0.08385643343368164
0.07573329810017497 -0.15215317519724136 0.08399866337470722
0.07557639622079172 -0.15148864894530883 0.08416079506423091
0.0754433495466351 -0.15097078327168056 0.0843081278108737
0.0752395641265813 -0.1502085680893643 0.08407071485862087
0.07503107764214913 -0.1492786214793036 0.0842864849686667
0.07479141075294474 -0.14851253031987388 0.08405203031055286
0.07491162392812077 -0.14867111585404982 0.0847535419048689
0.07465982524712439 -0.14796871799326705 0.0841846575807101
0.07447984788974812 -0.14727029513028447 0.0843463175412953
0.07429318429329244 -0.14655566039967055 0.08460483188137377
0.07410877367342704 -0.14585738100087006 0.08488609098142093
0.07376871881971865 -0.14508590837349264 0.08423159901739984
0.07351970409625425 -0.14431018147681052 0.08450103079684727
0.07323481875571357 -0.1436090626415551 0.08430919422615694
0.07335744451605343 -0.14375103847346726 0.08499463810977599
0.07306577019308914 -0.14308399734070168 0.08446126550256118
0.07285452265219163 -0.14239010338524802 0.08465232208213497
0.07265992110878051 -0.14165899458811154 0.08493048487227514
0.07250837509236231 -0.14091516713801414 0.08518831939909446
0.07225239156732133 -0.1400796976172992 0.08449220883519727
0.07214420183887324 -0.13926884970931064 0.08465158121669067
0.07203647157190719 -0.13841184955581773 0.08477737591419218
0.07192504503911987 -0.13752493524756443 0.08488370482857081
0.07179622668846845 -0.13658664010580351 0.08498564772280785
0.07165231068790885 -0.1357636712648407 0.08469162281599953
0.07173515472770611 -0.13601337515474224 0.08537430269406135
0.07157679266782849 -0.13520019542318812 0.08479510502561335
0.07147190311312794 -0.1343948430547579 0.08485269278871889
0.07136211755194838 -0.1334905316905604 0.08492638062271154
0.07127091510584639 -0.13259186135307566 0.08501668092359443
0.07120121790748002 -0.13169930482045844 0.08511845564002521
0.0711350399594874 -0.13079998902654444 0.08525064658531804
0.07106224103869162 -0.12987558204718033 0.08540567870295587
0.07097309037961225 -0.1289321454327082 0.08552997360048338
0.07068618170708721 -0.12810477966989156 0.0847030302343694
0.07055420811132393 -0.12722686620250986 0.08479399757124141
0.07041584579951708 -0.12640563119517095 0.08488794898951435
0.07029117844871648 -0.12561565648741022 0.08504312357814661
0.07015187494190231 -0.1248167264952974 0.0852303341762951
0.06998970908224829 -0.12401018013968701 0.08544432212551913
0.06980142031379492 -0.12320366654433798 0.08566475260906273
0.06945023750390351 -0.12244760492555797 0.08495340399343572
0.0692398795470875 -0.12168605730908139 0.08516613679904678
0.06901379280350206 -0.12092139984952432 0.0853742479243547
0.06879428938262305 -0.12013653163359062 0.0856035226683778
0.06858562248479266 -0.1193204854017997 0.08583962568939034
0.06827037307053535 -0.11848888761548872 0.08506381238056619
0.0681104080179207 -0.11760196075358063 0.08522765535757125
0.0679766760928525 -0.11670241214547791 0.08534642033484376
0.06786042918713399 -0.11578544013462602 0.08544057103900521
0.06776633621344669 -0.11483836396083794 0.08551268156078673
0.06767785247660793 -0.11386238554046647 0.08555561967848171
0.06758247144933857 -0.11287191497377137 0.08558253826761839
0.06748105768114102 -0.11187362828648416 0.08559647984041925
0.06735618560277827 -0.11088036347152483 0.0856126235379055
0.06721934324759836 -0.10988860264641621 0.08563110539832021
0.06705511525473895 -0.10890471749733263 0.08565734559132644
0.06687722168744062 -0.10794073489750039 0.08569619886677114
0.06669270550725907 -0.1069833071322285 0.08573956932958572
0.06649211542826891 -0.10600973488561417 0.08578040432901328
0.06624821005824073 -0.10503124892084942 0.08582711689932791
0.0659596276454801 -0.10406202630503224 0.08587716145901612
0.06559754015384715 -0.10308783002721741 0.08592478898149616
0.06516414307252033 -0.1021203396677415 0.0859763995444951
0.06464198785871775 -0.1011367324204647 0.08602749905701908
0.06404653450802596 -0.10014553060422085 0.08608183754322224
0.06345185993730346 -0.09914009556708904 0.08613265497126885
0.06291547120316222 -0.09813858246041343 0.08618264201183236
0.06246224671835776 -0.0972670952806706 0.08628425704564943
0.06225469991568375 -0.09679100341533854 0.08656154541462646
0.0821973658907837 -0.17218616214776372 0.08417236227101275
0.08216212213393945 -0.17191072743921726 0.08434166539029493
0.08194023193286275 -0.17145264874308094 0.08403437192542523
0.08185976370162219 -0.17083608047530555 0.08426004714957883
0.0813937200669789 -0.17040566279644503 0.08374169003109085
0.08129682586068869 -0.1698310345729703 0.0840950218000447
0.08074827954897966 -0.16946074939995975 0.08360712612973271
0.0806429130591815 -0.1689310146433712 0.08413269700805656
0.08000554694831688 -0.16856748482656253 0.0837546195016258
0.07954596412666746 -0.16758656524832602 0.08469690333189248
0.0788457857281314 -0.16719842342501592 0.08421480000669884
0.07978967167740218 -0.16810253038040046 0.08422178212029073
0.0786117928492755 -0.16658821972593257 0.08474861464442991
0.07800592765718538 -0.16609682908786785 0.084274176749579
0.07793177081686774 -0.16541617382998033 0.08469668815777542
0.07756198546097978 -0.16482782944799648 0.08418722375360184
0.07757058178921603 -0.16407261333536327 0.08457903405916661
0.07759965399956106 -0.163323934314566 0.08492296487270612
0.07733048992876126 -0.16265317238632074 0.08439184339093878
0.07738656226267117 -0.1618615523393874 0.0848155954116701
0.07733446775780053 -0.1611591968043643 0.08484515589422584
0.07716071513410831 -0.1604808564356482 0.08443117168419703
0.07709198179391029 -0.15974482146763969 0.0843969412322131
0.07714712834412002 -0.15917714470149308 0.08474612936650781
0.07718915257107543 -0.15845078875840096 0.08507978398831409
0.07694030190652112 -0.1577465585909325 0.08444534507660591
0.07693218934733033 -0.15702171532277243 0.08472004741035702
0.07687879651550104 -0.156305184544526 0.08499080215736986
0.07679439191876444 -0.15560234877332066 0.08528376392468094
0.07651232902868013 -0.15487105285594097 0.0846593208361895
0.07638904109069436 -0.1541936808253219 0.08499578881247366
0.07627074359891634 -0.15355164781837805 0.08533309220619806
0.07599098326914858 -0.15285093467014665 0.0847009512725471
0.07583553924434097 -0.15210085045688854 0.0849551976491155
0.07562007733425422 -0.15141587677844598 0.08475681224538126
0.07574073603048828 -0.15153489557385305 0.08544903225059254
0.07549222093267796 -0.15088254954936123 0.08489830611023895
0.07533370245692607 -0.1501670419655141 0.08505513311246632
0.07517994193031372 -0.14944350970144113 0.08533371550940785
0.07502057011475437 -0.14876223979117176 0.08564037294165867
0.07475690331380981 -0.1480162260515011 0.08502023998009531
0.07458693916885974 -0.14732165687553797 0.08527037321786753
0.07441920561067786 -0.14662204406689708 0.08553726413435837
0.07423328109377034 -0.14592449196349377 0.08582774159936617
0.07390170240623761 -0.1451541611572783 0.08517919130681996
0.07369319829459096 -0.14448121391324775 0.08552338306468787
0.07349760777970892 -0.14383473564848795 0.08587437637167543
0.0731695730859209 -0.14312389219475094 0.08529346201301304
0.07297184319335183 -0.14243178110408086 0.08557739805902878
0.07279465969766397 -0.1417018550901637 0.08585083344317196
0.07265099361077029 -0.14093545446181885 0.08610005873515564
0.07237835035477418 -0.14012906085791493 0.08539818393119493
0.07226208154709678 -0.13930091583102058 0.0855616168398787
0.07214413314087573 -0.1384452137055642 0.08569841981987406
0.07202662325058025 -0.13757871278790718 0.0858321238690558
0.07190666165407053 -0.13680307931354946 0.08594881604547107
0.07181747037345892 -0.1362364376979265 0.08606024501246383
0.0716725951577518 -0.13540206066153188 0.08573875152697408
0.07154921172006967 -0.1344395803066486 0.08578733356288447
0.07145754331304953 -0.13354181598974266 0.08586185674303647
0.07139311559108528 -0.13264909002031564 0.08595966573651044
0.07134024234419312 -0.13174400111467763 0.08607660574275351
0.07129179417880982 -0.13081770996989261 0.08623437523116408
0.07124924278033751 -0.12979924097048792 0.08649869153210168
0.07110678400845874 -0.12880390940077568 0.08635616191023163
0.0708651838692013 -0.12794976103122174 0.0857292323990362
0.0706709177251662 -0.12704904616090099 0.08554116994345888
0.07057981313073916 -0.12636311033058722 0.08574121598315206
0.07045073333003136 -0.12556951036267358 0.0859062991064973
0.07030461451753539 -0.1247755433758796 0.08613372009780676
0.07013834570461526 -0.12395396082234898 0.08637977332902508
0.06994402655042573 -0.12312897699874095 0.08659969584926092
0.06959521995040079 -0.12240514906627177 0.08589294531176547
0.06936660784870335 -0.12161806740189557 0.08607808840335157
0.0691363156172272 -0.12086297453501017 0.0862844556387054
0.06892258922567387 -0.12009578588228738 0.08656891774802736
0.06870046136988284 -0.11927578609303455 0.08681190781551253
0.06838959150775052 -0.1184688192862447 0.08605474838579984
0.06820999248705524 -0.11759018464674394 0.08618281888511778
0.06806350533862247 -0.11672802061435489 0.08628290157205622
0.06795054614557605 -0.11584934633333607 0.08640774286310775
0.06785148049399581 -0.11491025268590385 0.08649746069356623
0.06775803396112041 -0.11393880435188704 0.08655443896543707
0.06766633237665715 -0.11294552122971263 0.0865848541519008
0.06756586604155736 -0.11194328706696702 0.0866016593766836
0.06744292503381841 -0.11093888569736882 0.08661756531676994
0.06730290221053468 -0.10994006101810891 0.08663499950002612
0.06713763009216026 -0.10895833748986093 0.08666396405933288
0.06695605499082524 -0.10799714962824668 0.08670696372833026
0.06677033470973688 -0.10702087226930887 0.08674723978277157
0.06655136504971197 -0.10604286327055146 0.08679418600100548
0.06631232838487937 -0.10507388223604631 0.08684413267851308
0.06602129559559754 -0.10409799560159963 0.08689137309415564
0.06566625039379237 -0.10312937105306536 0.08693897743671017
0.06522638927356116 -0.10215951532534581 0.08699111124788601
0.06468896607106232 -0.10119626840888055 0.08704720169745421
0.06410017966302207 -0.10021925947214338 0.08710393469506413
0.06350295705562775 -0.09922302029452013 0.08715736938007401
0.06296816964301456 -0.09822603083661297 0.08720664077145598
0.06250990800606096 -0.09734236895780893 0.08730810651187441
0.062315897054901356 -0.09685844908182961 0.08758856033809079
0.08236426007077323 -0.17217541269971007 0.08487778723930232
0.08232585724819662 -0.17183455160315894 0.08496952321434746
0.08223265567897245 -0.17129576249904618 0.08487298342203621
0.08212454017208162 -0.17067105886227638 0.08493899629674885
0.08186042570557123 -0.170168383301251 0.08480011751397233
0.08160709635073113 -0.1696200447396241 0.08481328075637926
0.08121414112543696 -0.1693117798637123 0.0845015412455441
0.08119879819631212 -0.16883647405383773 0.0851626729260086
0.08047707768703388 -0.16844467948690153 0.08467376674844262
0.07998875529025729 -0.16744014357551604 0.08567579727822082
0.07928572326377978 -0.16703411613116842 0.08522183441481981
0.08024629136244525 -0.1679484767653383 0.08516463299257752
0.07905875815919776 -0.16644457854844733 0.08571450290438601
0.07845822255266548 -0.16588992877198394 0.08531311937864997
0.07823095953982587 -0.1652781246676905 0.0854329331378641
0.07797294929783838 -0.16468652924782928 0.08519912195322986
0.07791633188092274 -0.1638591608867387 0.08548251419663457
0.07787136980368259 -0.16322728825239088 0.08565709727216851
0.07768116315168616 -0.1625805062430191 0.08538290712000966
0.0776413890629409 -0.1619906331932654 0.08551938825442396
0.07743667537828404 -0.16074313846705354 0.08524151869292029
0.07761753598247557 -0.1613982726386661 0.08561421549968999
0.0777054367289732 -0.16061738295741185 0.08600520945792668
0.07737919124310037 -0.15997400285898514 0.08527274531305874
0.07745578633744032 -0.1591451353166542 0.08569497257625569
0.07747602944317762 -0.15836229630885473 0.08600870067328802
0.07718846299831549 -0.1577002046484073 0.08538155467169734
0.0771591879626597 -0.1569647268388528 0.08562415596118227
0.07707898222584011 -0.1562656334157218 0.08587641531046385
0.07699892978667956 -0.15558461933800463 0.08619719558776283
0.07669273823376214 -0.154910437674928 0.08561074855895534
0.07657917355399484 -0.1542332973934534 0.08594517551767547
0.07644015455804201 -0.15356382799322155 0.08627270412491454
0.07614144619792804 -0.1528854764431487 0.08564436099934822
0.07601457500918272 -0.15222371354995357 0.08599807502552745
0.07585831755768162 -0.15156948020286806 0.08634217804248775
0.07559599054279902 -0.1508937167785525 0.08573076330954432
0.07544874036809317 -0.15020223896373308 0.08598459360505205
0.07529278176689018 -0.14950701370856717 0.08625405337509262
0.07514069753621905 -0.14882237916802027 0.08653022255465516
0.07487230702784985 -0.14807799423741846 0.08591144568432071
0.07471748586094627 -0.14738123957840746 0.08618193923147942
0.07454215827794093 -0.14667968496568962 0.08646338703123935
0.07435786230131175 -0.14598343892067137 0.08676228228833407
0.07403049683085042 -0.14523479114227708 0.08613811481268416
0.07383452138610694 -0.14455643624145167 0.08647165893287372
0.07363181288227609 -0.14386809598831585 0.08680062906394619
0.07329811930182305 -0.14315809922504102 0.08619195447601596
0.07311002307774676 -0.1424436966939347 0.08648739109635788
0.0729524844026439 -0.14169058094308318 0.08676660112772867
0.0728032552707075 -0.14089392031466638 0.08701028801716826
0.07252182995090725 -0.14012332735989108 0.08631494655684996
0.07238972754267667 -0.1392796856306998 0.0864626777384833
0.0722591111985676 -0.13844218516705864 0.08661100392161197
0.07212236275181673 -0.1375343031754897 0.08683080385879868
0.07193844288821861 -0.1367337833331082 0.08656213177610238
0.07204110715165353 -0.13685013084721268 0.08726270431469917
0.07184280628828693 -0.13611704300168773 0.08663788922246496
0.07172242655556348 -0.13528979436766655 0.08662343697333405
0.07162396790548578 -0.13443483477830384 0.08666741733486265
0.07156492294302208 -0.13358244292991794 0.086775527769937
0.07151306135706086 -0.13268834958039225 0.08689573309612349
0.0714771299161046 -0.13178328773766357 0.08702353225387817
0.07145560311558587 -0.13089334310438153 0.08719981190631107
0.0714452583694699 -0.13016259470463254 0.08747134816210064
0.07108075006670139 -0.1282216820448645 0.0866634198278372
0.0713250969647076 -0.12908247155837815 0.08739722565079844
0.0711813074868451 -0.12803537378023586 0.08729735521020286
0.07090613506481698 -0.12721331626272836 0.086568789162483
0.07071073610931683 -0.12622254862607288 0.08650538830723362
0.07061363447134696 -0.12551506242480726 0.08677866516288238
0.07046645746038183 -0.12470176001835365 0.08702288347524467
0.07030986875860662 -0.12384183058511959 0.0873836299871785
0.07005518363109953 -0.1230211606720781 0.08736954190804022
0.06972707644319631 -0.12228523819718297 0.08690367686337956
0.06944678859262729 -0.12148037131215204 0.0868458773486616
0.06928500566900124 -0.12085948134172327 0.0872041974934588
0.06906629086320638 -0.12004020674235183 0.08761562818996489
0.06879057318692257 -0.11921601811122286 0.08760524788722948
0.06849003949831174 -0.118399506966978 0.08709368161751706
0.06826386106763492 -0.11749652777955967 0.0869587791449167
0.0681580000245056 -0.1168060784674302 0.08720866814904084
0.06803675737142952 -0.11591539572746565 0.08737337118644142
0.06792854445328719 -0.11497436955427036 0.08747639767396043
0.06782599874733597 -0.11400671813544608 0.08754258273493912
0.06773298977653879 -0.11302221340626574 0.08758402301146348
0.06763377832023013 -0.11202006342418236 0.08760788846125704
0.06750973062241535 -0.1110136552153688 0.08762651824786477
0.0673692649637659 -0.11002329156544162 0.08765162417078799
0.06720116379719927 -0.10903606829085712 0.08768374875006892
0.06700470578979671 -0.10805289717851986 0.08772402650082885
0.06680265774146543 -0.10707409619649302 0.08776762237908467
0.06658733989826365 -0.10610821616268366 0.0878168343952829
0.06635465807921849 -0.10513343511009747 0.08786053742791287
0.06605093003847881 -0.10415574577638478 0.08790466612546054
0.06567751761962966 -0.10320404742127251 0.0879541886478566
0.06522937727288802 -0.1022364167553774 0.08800556483413859
0.06469340002772604 -0.10127795254170775 0.08806001909313321
0.0641090833574306 -0.10028789520588158 0.08811195956725085
0.0634783934485209 -0.09928494526558317 0.08816563395013366
0.06293006080004578 -0.098296725506205 0.08822337635603208
0.06253592380002904 -0.0974089088743021 0.08833355769065857
0.06235435522824985 -0.09692151912377486 0.08862640119691653
0.08269859574963315 -0.17261865888798186 0.08626115276536228
0.08257897542292963 -0.17239320058042112 0.08572006111834217
0.08242582315514128 -0.17159622917993636 0.08533600989800538
0.08253442161122077 -0.17195347728350793 0.08566122542862938
0.0822049438786109 -0.17038390315169166 0.08528097236466994
0.08238259840958088 -0.1706779444358397 0.08555395029311183
0.08258981750455341 -0.17124336978473725 0.08593709221826545
0.08158376390049603 -0.16926828051708678 0.08516854697229012
0.08197184610191464 -0.16957035425192898 0.08548508000363944
0.0823613814644702 -0.1700435732110739 0.08584582460945697
0.08159265942190266 -0.16859028423814454 0.08614728979747323
0.08094998237828895 -0.1682909381720268 0.08564175622286031
0.08182381461625308 -0.1690635776836564 0.08585080345401362
0.08045603907222423 -0.16733081778357442 0.08656223378545261
0.07980560540623129 -0.16684652491144036 0.08635220299341362
0.08069970968765294 -0.16780123147171036 0.08612950196533416
0.07935094968957641 -0.16630011901111433 0.08644974444786581
0.07895005736636458 -0.16588882658057208 0.08624458104357673
0.07831720475407025 -0.16489969758474746 0.0858858345895254
0.07858307723636872 -0.16536066691603168 0.0860814472579664
0.07865710772670188 -0.16474366051779685 0.08660590567206049
0.07828227883558439 -0.16428898296393757 0.08610397543381784
0.07799640579120987 -0.16281785947097027 0.08608916942925378
0.07822725557830941 -0.16344309029093848 0.08637372355380471
0.07830609225769154 -0.16262897085123368 0.08683042236732387
0.07793805534510168 -0.16208177027405202 0.08618826972251382
0.07799462410481792 -0.16122937871667667 0.08660424232457202
0.078040095679518 -0.1604275235790009 0.08693866068698053
0.07774572686704706 -0.15980959982030257 0.08633427032316657
0.07779645644115259 -0.15896257255974258 0.0867325130909003
0.07772496233539387 -0.15823494534540142 0.08676611506063421
0.07748404572661445 -0.15756928426091116 0.08636881073447245
0.07734749869411203 -0.15682413171037332 0.08637486900345326
0.07732269453377569 -0.15623631075290811 0.0867598602927109
0.07722413364871526 -0.15553164793984098 0.0871028250837044
0.07690271374309056 -0.15489448708928893 0.08654471840813113
0.0767730300347318 -0.15419918079274234 0.08687738754886501
0.07662904589688946 -0.15352991094360802 0.08718482421991632
0.07631184928587445 -0.15290032868210918 0.08661911982234421
0.07615710091308571 -0.1522201160539556 0.0869498044986867
0.07598409822646866 -0.15154128324059768 0.08722909324964878
0.07571401243819684 -0.15089549017325948 0.0866340507596842
0.0755562166414265 -0.1502018848760655 0.08687726224692283
0.07539915800694427 -0.1495312876329879 0.08711901550261238
0.07527646921891146 -0.14886993952852356 0.0874128478057103
0.0749994972312104 -0.14813234484210153 0.08681084267449796
0.07483405801332822 -0.14742797310095618 0.08709897254859093
0.07466397651163684 -0.14672612352347825 0.08738486857901535
0.07448757211382134 -0.14602878390468277 0.08768964953948725
0.07416455859142515 -0.14528947604213185 0.08708121904494667
0.07397135554102345 -0.14458443053154363 0.08742313431827443
0.07377540640489427 -0.1438581178915631 0.08772417621707751
0.0734444445209167 -0.1431552709885755 0.08711326890387422
0.07327041490996876 -0.14241164433329245 0.0873881574135023
0.07312203754882972 -0.14161091219809305 0.08774498486634151
0.07292559410509405 -0.1408106352076219 0.0877716528859509
0.07267283621444713 -0.14003366516768703 0.08730534382582528
0.07248511399342122 -0.13916651162318674 0.0872273729602747
0.07241256660802732 -0.13849391302434272 0.08755830226760514
0.07231302056514219 -0.13764888737116643 0.08797778536978046
0.07214414549322902 -0.1368389301860309 0.08799409762423335
0.07193387927976252 -0.13604247497060562 0.08750381780633829
0.07178662244178402 -0.13516750668659103 0.08732894942236093
0.07173902784402432 -0.1344743371293538 0.08753919706607656
0.07168190500418807 -0.1335989960964143 0.0876806235808387
0.07164054942206574 -0.13270488926830282 0.08780238840943626
0.07162004601877443 -0.13181753668744348 0.08793265370807127
0.07159555244041663 -0.13095348304340138 0.0880905367705696
0.07155395163739056 -0.13008337458547914 0.08822294525577223
0.07152935491439162 -0.12932648683132583 0.08842631440699115
0.07114756984897305 -0.12740892893689873 0.08758770479704135
0.07140162414334086 -0.1282411208321185 0.08833980277667791
0.07124195233474376 -0.12717196553629712 0.08825426333965926
0.07095084312052466 -0.12637104777974267 0.08754484684229537
0.07074333306855314 -0.1253633777660012 0.08755764494355775
0.0706476380890931 -0.12468129847609064 0.08789538463412697
0.07054431432252008 -0.12405306546150183 0.08821286687546416
0.06997016389720692 -0.12254275849596671 0.08775121927693592
0.07030038061231204 -0.12325553971529048 0.08820143275786424
0.07007262104674114 -0.12238786301331592 0.08851286321169813
0.06968430250303902 -0.12171938084143202 0.08774805613335594
0.06944923846402593 -0.12088342767078902 0.0881335286818377
0.06928873675676746 -0.12029515984361255 0.08846352854903686
0.06869932153714775 -0.1187454660027675 0.08797858634760641
0.06901976110358243 -0.11951848202015136 0.08845037622672514
0.06878509100364792 -0.1186496510524514 0.08876157137927494
0.06844835745780127 -0.11784080057446396 0.08790029404011414
0.06827248095052894 -0.11687585878370854 0.0881739453327816
0.06812679907291681 -0.11595309162308454 0.08832855082934656
0.06800548539984565 -0.1150251753905009 0.08843510556638248
0.06789985520592683 -0.11407309576702815 0.08851556296290115
0.06779922490358423 -0.11309257266120937 0.08857086329584529
0.06768956409755325 -0.11209856698065218 0.08860780149270472
0.06756187537005225 -0.11110168563592812 0.0886387920358739
0.06741512857227303 -0.11011307835373202 0.08867335743058788
0.06724279643730892 -0.10911397445149315 0.08870603791987787
0.06703596847829267 -0.10812754370203008 0.08874815907681549
0.06683784070359979 -0.10715521843096955 0.08879079195980469
0.06662443914902007 -0.10617809312503204 0.08883277393069085
0.06636636876361492 -0.10520169907725395 0.08887562733335014
0.06604026428819902 -0.10423814194191042 0.08892304617588002
0.06564918358230519 -0.10327829956434971 0.08897053745793858
0.06517324653818835 -0.10230177639300018 0.08901861128837812
0.06459824994867211 -0.10132427046659827 0.0890684530950363
