# .PCD v.7 - Point Cloud Data file format
VERSION .7
FIELDS x y z
SIZE 4 4 4
TYPE f f f
COUNT 1 1 1
WIDTH 794
HEIGHT 1
VIEWPOINT 0 0 0 1 0 0 0
POINTS 794
DATA ascii
0.15549605932059876 -0.173219966454652 0.0924657374518031
0.15499334629598052 -0.17305589337099192 0.09311916020893009
0.15517590814841362 -0.17270850244338654 0.0926127877751446
0.15462785138124957 -0.1724909325229488 0.09329397997064626
0.15468334627386035 -0.1718197528647265 0.0926871828146196
0.15417301242424658 -0.17144186158633465 0.09337661915005335
0.15432797558631578 -0.17102364592483793 0.09276974159235352
0.15411431274220738 -0.17020910896897318 0.0925869423648847
0.1542755180486555 -0.16921713436084973 0.09175865282827075
0.15398357790117473 -0.16924270094956936 0.09231912255986748
0.15400350361284648 -0.1686628789542651 0.09201833232047019
0.15382630678124778 -0.16784094023861665 0.0921592269953579
0.15415197224666044 -0.16708952580750122 0.09141355998733773
0.15385533774222923 -0.16696024264645756 0.0919624832146763
0.15400198268553242 -0.16640880779404413 0.09158228391097217
0.1536169556396061 -0.16600228755093852 0.09233719926287065
0.15384687233973313 -0.16567731054264392 0.09181687186249689
0.15377547843028527 -0.16488653202529363 0.09188664905819884
0.15408871937547616 -0.16411948241818908 0.09122163864272324
0.1537940571672103 -0.16394514592928733 0.09181783481874503
0.1539596147103897 -0.16359564765844636 0.09147765234345855
0.15395122110207024 -0.16287477710463447 0.0916093007049981
0.15442840920467557 -0.16216341319861288 0.09099790768523898
0.1540817579615157 -0.16197457540066487 0.09161027368677174
0.15433544667339555 -0.16162852581971135 0.09130898601763639
0.15446433554715444 -0.16091878312303443 0.09149124702183059
0.15524580213500383 -0.16027846025094414 0.09085668037136246
0.1548154928297814 -0.16005752734838677 0.09150776735732248
0.1552006632247486 -0.1597411579631179 0.09119835117613195
0.15541999182762742 -0.15944296405269717 0.0911397639681524
0.15523942903065557 -0.1593772763007756 0.09137318231934038
0.15534034332310168 -0.15898152054759307 0.0915412266558562
0.15563733673842328 -0.15824952401735448 0.09170097772552054
0.15650449936966024 -0.1576534981044071 0.09103027525705065
0.15611634555550333 -0.1574077521235892 0.09167891650850746
0.1565285182996673 -0.15710503884365543 0.09133549688288285
0.15674522104230806 -0.15640765172456958 0.09145736555728824
0.15743596685272918 -0.1558039658377381 0.09078180561766579
0.15710331640061265 -0.15565949419500535 0.09137249654815456
0.15744189219977597 -0.15510853489677967 0.09116984325566635
0.15711821052975175 -0.15472569432099567 0.09195492801000262
0.15746422937368484 -0.15442393963688184 0.09157886040219468
0.15768751706624753 -0.1537024992137278 0.09175029815383073
0.15839591098848144 -0.15303335637101076 0.091033543322639
0.1581044789209023 -0.15283349052559855 0.09172734706274449
0.15847212700165983 -0.15248818875945247 0.09135482672360641
0.1587532406279848 -0.15174258088681977 0.09147721129927862
0.1591006583772451 -0.1507883684393558 0.09166722766514873
0.15945899981350226 -0.15051105981976529 0.09108366419284311
0.15967590768025666 -0.14973029145294817 0.09134432148605218
0.15987961157428018 -0.14884453809661025 0.09176561688907864
0.16019950301912303 -0.14808867632771802 0.09174404249008085
0.16041276056885106 -0.14727426179868205 0.09210981511809273
0.16085273547834697 -0.1468296568351898 0.09143421991959591
0.16115378847166445 -0.14588869449645006 0.09181897010857297
0.1614474695156516 -0.14520033594154327 0.09196949783615141
0.16202899377429694 -0.14448930839085852 0.09133871833666408
0.1617474815634259 -0.14449070212762413 0.092132816819515
0.162167643531176 -0.14396371195310728 0.09170347483094271
0.16254061043990034 -0.1431967992123165 0.09182360690818983
0.16290570907185728 -0.14243784469218523 0.09192905211687862
0.16307148058947296 -0.14192392515158606 0.09226210042630871
0.16372290984606133 -0.14123167355780306 0.0916737873124814
0.1634438258096555 -0.14124350463577345 0.09233951028255166
0.16388616693199115 -0.14070290692764403 0.0920807551494228
0.16435422563088953 -0.13986775082053782 0.09227800018987849
0.16496450386910175 -0.1393148989669218 0.09179788956982149
0.16533810574730742 -0.13847493431428667 0.0922444781121868
0.16568724425213005 -0.1378622642812523 0.09239279701068892
0.16633926436847649 -0.1372685907032804 0.09190345182592291
0.16602164169149664 -0.13724202707014438 0.09259353686576606
0.16650006679489526 -0.13675312954116056 0.09233970582103701
0.16694865446504942 -0.13607784018491736 0.0925289346249716
0.16804612628276505 -0.13519521735387485 0.09190200916992587
0.16758508615378198 -0.13514279656088976 0.09282415429245616
0.16829732043069257 -0.13448904347126137 0.09260247957569585
0.16882340694642922 -0.13398896662657012 0.09248690254578704
0.16860520114976768 -0.13369322408672416 0.09327762580133102
0.16909604037811263 -0.13346234381975178 0.09283722257308996
0.1695770612456647 -0.1327960047887433 0.0929201374950602
0.17012703568961712 -0.13189775172232665 0.09306762359856104
0.17063958418041342 -0.13163865441404474 0.09252242552858508
0.1709729184146155 -0.1308620344492917 0.09275463091365345
0.1712526250210532 -0.13000362025112075 0.09302501187285424
0.17160357800158624 -0.1290040788069413 0.0932400120528733
0.1721312761259308 -0.12812645433618014 0.09310017582552305
0.1723256500702167 -0.12732348006140068 0.09336030226462776
0.1726122102075376 -0.12639465136361122 0.09359865846459137
0.17283410282051584 -0.12532652407476927 0.09390643927336499
0.17315869564572192 -0.1242009891260632 0.09415962631011843
0.17435708250322224 -0.1235912356908846 0.0932986726930096
0.1738727126732947 -0.12343368677594302 0.09387167050767775
0.17459778634422748 -0.12281450133881751 0.09354808477582296
0.17412917524794688 -0.12240277555481295 0.09424156453909435
0.1747916830056073 -0.1220943654069495 0.09378528721888875
0.17520641048279717 -0.12158097141482795 0.09371184205842621
0.15444478014734705 -0.1730060154840292 0.09395660861456487
0.15418659069799567 -0.1722845701293962 0.09400857685739848
0.15379496178375693 -0.17136499012399156 0.09420121399470407
0.15398514566489702 -0.1706163020960876 0.09310030696254279
0.15362824812291068 -0.1703684821776917 0.09371891922250591
0.15373876783429452 -0.17000955575188376 0.09314678587934952
0.1536694169578769 -0.16935104198452952 0.09294881345083678
0.15375683876403295 -0.1684515533884451 0.09243909466520704
0.15362374141608218 -0.16868369922710988 0.09281583369365982
0.1534361779232559 -0.16785577631340387 0.09295149002524472
0.15341541819102325 -0.16675131495018064 0.09288006886131858
0.1533516367618318 -0.16588926606364932 0.09294740703378003
0.1536120273795521 -0.16528119982874784 0.09229723924905782
0.1533144580570119 -0.165145111001806 0.09297880229065643
0.15348292114504944 -0.16473654434735505 0.092523753766168
0.15345724078524584 -0.1639920322650852 0.09257898075190292
0.15374736896332422 -0.1632309693164874 0.09191423497478157
0.15348541274037433 -0.16304713546434066 0.09253666156780575
0.15364636690018396 -0.16267604498558505 0.09221415778046768
0.1536600360319336 -0.1619370346534601 0.09239030118698587
0.15414125451752775 -0.1612558649317328 0.09178278173752263
0.15382562601275424 -0.1610419835736541 0.09241842810060528
0.15409753565709847 -0.16071224016769514 0.09211613907092486
0.1542412074390685 -0.16000538282607346 0.09229793176859377
0.155034658523092 -0.1593445082593366 0.09166846518024459
0.15464211073030767 -0.15912643814777006 0.09233887908065037
0.1550294242894708 -0.15879478189514484 0.09206306310270858
0.15524647698453617 -0.15849804117150496 0.09199936484556802
0.15507869584128248 -0.1584324343678147 0.09226171181279147
0.15519279231887542 -0.1580421137682192 0.09240805234956961
0.15550219867957146 -0.15732770952212377 0.09251680032029068
0.15635832647367826 -0.15670813397622513 0.09180366446423247
0.15598567903969557 -0.15649231717885576 0.09245396074052026
0.15640274703639034 -0.15614580207232448 0.09210879721930697
0.15665670278777893 -0.15537265274865833 0.0922630082148777
0.15682386037809332 -0.15460513130954154 0.0925216852548431
0.15733128161969043 -0.15405195240060973 0.09208028164490452
0.15700857709750649 -0.1538934831808855 0.09272689021692
0.1573862837042588 -0.15351903776137044 0.09240684746177594
0.1576318256079581 -0.15280311586683454 0.09256460422502565
0.15836276069032676 -0.15212265379965545 0.09187975696886683
0.15807584161906627 -0.15193144849047888 0.09258669263125945
0.1584435680904952 -0.15158119291708166 0.0922420993292994
0.15870699932469348 -0.1508521670896365 0.09243762878331435
0.15936104304953064 -0.1501259668245652 0.09173042417044375
0.15911181955892262 -0.15006459169530392 0.09238215128425747
0.15947683026593282 -0.1494723595152073 0.09212100944032289
0.1592585707408037 -0.14918463760411835 0.09295501545732328
0.15961494877302362 -0.14880611567740615 0.09250251283765254
0.15993372015589918 -0.14798524011280445 0.0926009758023628
0.16019238325264523 -0.14722375648762975 0.0927827365244928
0.1607464503457814 -0.14648724730770257 0.09216420341411456
0.1604685979226864 -0.14646549097531433 0.09294819661913935
0.16087470733906892 -0.14593481316795737 0.09253172552003877
0.1612206049561631 -0.1451295345631723 0.0926673727792185
0.16152456811817598 -0.14440703537849875 0.09284168158787227
0.16210497640647853 -0.14370796719037734 0.09224989068301852
0.16183575335733097 -0.14369665595918296 0.09300307417362264
0.16226438186562434 -0.1431847954001271 0.09258932856864785
0.16264363696113876 -0.1424039984427862 0.09272297395930638
0.16303757687417084 -0.14161110676531624 0.09284618143043571
0.16328996926460365 -0.1409130639088016 0.09326143209481641
0.16377597208552436 -0.14042190954085135 0.0928047357795621
0.1640582218991819 -0.13971783159869836 0.0932118280997816
0.16483867757273327 -0.13901635478966537 0.09249991826267757
0.16453211214277966 -0.13896749767875824 0.09325484410432532
0.16501456496249467 -0.1384583378206874 0.09293060430272315
0.1654459639508888 -0.1377304157235324 0.0930627729729856
0.1658623542402747 -0.13667995089283091 0.09368316149036852
0.16641426005047574 -0.1363539633330243 0.09309065497086175
0.16686599099118699 -0.13544597215076662 0.09357761535579931
0.16743672115395147 -0.13455203781482156 0.09389735890145821
0.16799859890457558 -0.13424283931461936 0.09348748400398757
0.16824084617519736 -0.13353759889610572 0.09407236222658857
0.16906780651586334 -0.13311493018813586 0.09336534569492681
0.16878140451407272 -0.13290416601545083 0.09404182411407903
0.16924835205179398 -0.132628318660966 0.0936783890511233
0.1696287821819121 -0.1319579861085081 0.0938049068734818
0.17053888560235933 -0.13124934512738556 0.09312706971446082
0.1701902753330125 -0.13118494593869412 0.09370259868393063
0.17071865932933902 -0.1305631121932625 0.09344316914708181
0.1703782717332894 -0.1302965016606824 0.0941461335598324
0.17096640419242135 -0.1296788890707695 0.09373338901810732
0.1706623926419692 -0.12924275670215085 0.09447365112565956
0.17118557789041594 -0.12889420022648868 0.09392721748904685
0.171654118210141 -0.12807733640161892 0.09378568324738304
0.17193290427633506 -0.1270676692263791 0.09400836207552923
0.17216191729691904 -0.12618314007697876 0.09420868008169261
0.17222741240230657 -0.12553925586292258 0.09443849797234216
0.1719048291357117 -0.12536772996524242 0.09490604826501017
0.17183756930928937 -0.12601671745046986 0.09467859383273408
0.17248280124874488 -0.1248045376805044 0.09452478605149955
0.17212485614902023 -0.12441150739567325 0.09514135285289159
0.17269304492087423 -0.12402891536960363 0.09467504907352857
0.1732363434946539 -0.12321189378350603 0.09459470263544677
0.17351193165513432 -0.12221337704135457 0.09496593706455156
0.1746388397945784 -0.12171811798751384 0.09419108561711756
0.17419932008158362 -0.12163423732783242 0.0947237564824488
0.17466259576759302 -0.12136727591749134 0.09441901156820201
0.17426613759512302 -0.121294952212955 0.0949246276458324
0.15419345358279743 -0.17326679866300448 0.09461700356202059
0.15393441223254586 -0.1731082022268229 0.09505030458477899
0.15408412320331852 -0.1728786711794038 0.09459730090252998
0.15374834327371634 -0.17262188509152718 0.09509145495663825
0.1538506394500215 -0.17214162150057402 0.09465264027975433
0.15362624622400733 -0.17211684454755696 0.09505472474214731
0.15346304186226195 -0.17144839083392674 0.09496580803165605
0.15330989554732694 -0.1704391927096633 0.09455825234900181
0.15344357731429092 -0.16948866248767563 0.09349691422646503
0.15308906126764454 -0.16916495329544076 0.09433607692918698
0.15329531864556928 -0.16856345352608867 0.09346554253069919
0.1529024268219462 -0.167870908480623 0.09422145807475717
0.15312215757155007 -0.16759948118283632 0.0936210156876811
0.15320588330435478 -0.16718333713690586 0.09337154751546961
0.15307049057292796 -0.16711853076968566 0.09370086895585937
0.153029605493838 -0.16662735926008668 0.09372762371838797
0.15305382692239797 -0.1657074455811297 0.09363596407979735
0.1530220563525987 -0.16494940061685928 0.09363135461799932
0.1532985657670645 -0.16438813057911197 0.09295847158031605
0.1530386448174725 -0.164274184030994 0.0936034560391561
0.15320976079141568 -0.1638236742384627 0.0932180538344115
0.15320642120471 -0.16314235741568386 0.09324025017297122
0.15346901157887544 -0.16228854221832031 0.09271083680922673
0.15319084325361138 -0.16209164218150976 0.0934387135065404
0.15338750982998603 -0.1617129244265986 0.09304329627665962
0.15343824690954078 -0.1609692323802125 0.09320368306193685
0.1539015270979431 -0.16033379710400586 0.09259629021866551
0.15361957613021246 -0.16010145068528117 0.09323644184968567
0.15389555324749238 -0.15978193918395941 0.09293656509739251
0.15409990981853966 -0.15907854102915817 0.09312177209918371
0.15488383652554233 -0.15840725177631876 0.09253259189431667
0.1545152345961236 -0.15822200195822797 0.09315882938814458
0.15490600178481786 -0.1578645661079293 0.09290562235182548
0.15512849204714432 -0.15756507241714343 0.0928396483844394
0.1549651164344214 -0.1575107869554574 0.09308361207267758
0.15507362952762488 -0.15714542681212093 0.09321647252673249
0.15539166471877774 -0.15645865626714187 0.09329431088450993
0.15624614970096876 -0.15577382182889496 0.09258837053805702
0.15586882062415325 -0.1556652217542939 0.09320102513218391
0.15627359609388303 -0.15523850093874736 0.0929199980203525
0.15648404059041895 -0.15446018296001907 0.09313628933969127
0.15670452592376546 -0.15370993972783498 0.09332366351317023
0.15725911975556997 -0.1531532764350444 0.09288508484025502
0.156925776760651 -0.15298325530923548 0.09353404492197123
0.1573263624135305 -0.15261099262901545 0.09320031078429822
0.15759038151794574 -0.15190262269252208 0.09339074010991567
0.15834594380014452 -0.15121454334048356 0.09278453921340017
0.1580589220504999 -0.15101943968689774 0.09345606460179268
0.15844658804214407 -0.1506547116369706 0.0931301793913894
0.15876938912379288 -0.14986425233215334 0.09329360668960511
0.15902326553041424 -0.14911497228398682 0.09354462832676082
0.15954516490942158 -0.1484726663358144 0.09303082467970634
0.1592715253725521 -0.1483784512514197 0.0937352265296406
0.15966092071312013 -0.14792406817487685 0.09334228186923267
0.15997878249855416 -0.14710991010487331 0.09346335158477054
0.16024943846569734 -0.14635120590058623 0.09363934626994784
0.16080873449801222 -0.14565812067268685 0.09308503046089485
0.16054090979290533 -0.14558784151863824 0.09383234213476092
0.16094663145218477 -0.14509818062559107 0.093427562878071
0.16130583722448952 -0.14429129989793427 0.09354052584425834
0.16162131453950235 -0.143593678709703 0.09369076498977415
0.16220624520048557 -0.1429259748537678 0.09313019863849394
0.1619282323089666 -0.14294992198399936 0.0938012291024753
0.16236001680129272 -0.14238942270289087 0.0935117641901156
0.1627503585463282 -0.1415880727958738 0.09366023517421355
0.16312938654374967 -0.14052188999754683 0.09427654040294794
0.16363517894702612 -0.1400962218637059 0.09366771000840375
0.16401629880498114 -0.13922739305859533 0.09407271053705228
0.16451622202938493 -0.13835580964100377 0.09419973791984584
0.164936649588099 -0.13809246131097971 0.0936197927130535
0.16528088318184841 -0.13729767453994288 0.09400688165313555
0.16550583266264532 -0.13648941904551948 0.0946207943467729
0.1663404668145768 -0.13591986703701797 0.0938509839965905
0.16605640489162826 -0.13571800024552283 0.09459777004458875
0.16651404269814452 -0.1353624031763602 0.09429095320021176
0.1668936108483244 -0.1346619791423741 0.09456263735000378
0.16782575568809469 -0.1339414208954856 0.09416582172323715
0.1674806394965488 -0.13384168580886627 0.09473253298107262
0.167939881455688 -0.13349051064535725 0.0945714611791526
0.1682763715636265 -0.13287672547631757 0.09480350878234944
0.16916752361875778 -0.1322804057838227 0.0941757776965758
0.16885499127479892 -0.13207596115085948 0.0948108321123633
0.16934013793582592 -0.13175611651692315 0.09446508299367995
0.16975944719992794 -0.13104056399698907 0.09448887182572968
0.17002555130637895 -0.12998884124330684 0.09489490825616503
0.17021504990062997 -0.12903455410904993 0.09523847889036789
0.17110733013355323 -0.12844015233496822 0.09432077277764368
0.1707652379177555 -0.1283077973160764 0.09488816892069735
0.1713183961386497 -0.12766720111164268 0.09445877965519038
0.17097570742615703 -0.12733964709266196 0.09510271980846093
0.1715794130567259 -0.1267495933279132 0.09461161378378313
0.17131743028528582 -0.12622868137780519 0.09521019298835641
0.1714820443571991 -0.12521701338778987 0.0954892989059912
0.1716589249011776 -0.12442310631229087 0.09572949357653437
0.17257849564270378 -0.123576917081534 0.09506121426886664
0.17215327621001655 -0.12351796566599887 0.09571527824869196
0.17283775938337126 -0.12279914590778565 0.09530950511492181
0.17260870237580703 -0.12238933408555372 0.09608765335221146
0.1731285055453916 -0.12206034320120437 0.09555142935507047
0.17366122897797862 -0.12156816743771527 0.09542840808898509
0.1535561845911874 -0.17274700376497146 0.09550018173204977
0.15316738947442013 -0.17238726003910596 0.09603600728131283
0.15336889157504932 -0.1721303701854929 0.09551966680047014
0.1529614864569524 -0.17179598408854638 0.0962554884231386
0.15309764803800532 -0.1712263466304512 0.0956668617800568
0.15310252654507822 -0.17061651275757184 0.09521341525055615
0.15280176556122438 -0.17022748181537675 0.09591293592895318
0.15291425154725413 -0.1697355320657478 0.09513112856650319
0.15253860838234024 -0.16912666628914697 0.09577131533567884
0.15269783580988958 -0.16886716811456395 0.09515568285433054
0.15259927212735522 -0.16798364373390318 0.09509198895131697
0.15290424719872314 -0.16709374209017397 0.09407142979064231
0.15258096470455612 -0.16690552710778114 0.09482958883463785
0.1527667610183532 -0.1664715352175257 0.09432177586949124
0.15284681107000136 -0.16608571222833413 0.09411593406240411
0.15272641740026446 -0.16605119607324956 0.09442392083429527
0.1527035402863777 -0.1655915584870586 0.09447284883011091
0.1527331854923974 -0.16469080390881785 0.09436464167414081
0.15275447565699296 -0.16362057512027303 0.09439914227180818
0.15299809438440254 -0.16338038935021262 0.09379334098713556
0.1529586321899704 -0.162566809326003 0.09397197365482457
0.15286126047816864 -0.1617181100862315 0.09436583122847358
0.15323132031246217 -0.16129081494206 0.09353592231258018
0.15299378268557673 -0.16100437220781436 0.09421059645453507
0.15319854447492834 -0.16070428831017305 0.09385511566276207
0.1532597795388808 -0.16001091786533575 0.09401577637170515
0.1537556739764561 -0.1593926069919613 0.0934284006084835
0.15348694041138855 -0.15916556389266057 0.09404363066001462
0.15378165343343883 -0.15885949364141713 0.09374877844289152
0.15399445072519313 -0.15820798527679936 0.09389613915781643
0.15476516876685056 -0.15751949342174615 0.09334536910970131
0.15438918856125075 -0.1574265306186556 0.09392671224090533
0.1547697935349351 -0.15702103690472988 0.09372939854329346
0.15500177118064823 -0.15669970421798665 0.09365872003803395
0.15482391937996198 -0.15666710697012454 0.09392956571944319
0.1549301970104643 -0.15627274897713495 0.09405354441000642
0.15535730382529783 -0.15567583334387441 0.09389297535636036
0.15605710339143689 -0.15496835915066257 0.09341384687231805
0.15570414466688676 -0.15512286292040806 0.09380429013615281
0.1559058835948262 -0.15439872747690586 0.09401501000906627
0.15637339094796232 -0.15355104406462464 0.09393616755008648
0.15653734585232248 -0.1526779239037124 0.09435456500023688
0.1572174927384471 -0.1522525041633899 0.0936682129704574
0.15693981444316618 -0.15208464018439546 0.09424274909450751
0.15728910427847775 -0.15172882363105047 0.09401177214645456
0.15753379790191374 -0.15101744321852215 0.09428534885247582
0.15835716473718808 -0.1502748958917837 0.09364940290947399
0.15805379043230508 -0.15008464956274917 0.09434624396770412
0.15846872138571563 -0.14971242130103135 0.09400336169023216
0.1587833143953589 -0.14895412663671487 0.09416861903847354
0.15904010239005886 -0.14822759966635887 0.09436705007184273
0.15958712241821782 -0.1475869179902853 0.09386854708329538
0.15930804733542675 -0.14743734618430834 0.09458996300288225
0.15971407115511854 -0.14700336890930757 0.09419254467373117
0.16004070993732702 -0.14619531183536205 0.094307265165864
0.16032151775896947 -0.1454442570645002 0.09449524370465802
0.16088472072081506 -0.14476919930820795 0.09396998185034747
0.16062135221240384 -0.14464085968104323 0.09472316239811951
0.16103876788945104 -0.14419518619838445 0.09429440851985915
0.16141640400906124 -0.14342155653884683 0.09438944436217371
0.16181561229197158 -0.14251270440172412 0.09462606327857587
0.1622461884156579 -0.14207671651809567 0.09421239701760811
0.16253655835290487 -0.14116611186160122 0.0947520596826609
0.1628856332514682 -0.14043163110862117 0.09497160007490205
0.16355423495192317 -0.13975197086277472 0.09440898545809584
0.1632613381240436 -0.1396521229835417 0.09522443878781794
0.16373365098729775 -0.13919915421156867 0.09481204009344424
0.16411952990147438 -0.13844205289175698 0.09500351993164244
0.16488123978907443 -0.13769828708355786 0.09430902672108121
0.16462204644209924 -0.13763836483352954 0.0949634323259053
0.1650645027097063 -0.1370647241841134 0.09479072679423575
0.16485404066519085 -0.13676274627691082 0.09561947058480488
0.16523616209888506 -0.13642992314460037 0.09524853159537125
0.16559532965068366 -0.13570284305473015 0.09544554051938992
0.16644776422002427 -0.13501652727396554 0.0948288197000318
0.16618052257279725 -0.13483292745966335 0.0954763305593907
0.1666129753129869 -0.1345112022668785 0.09519427836845101
0.16696979976876491 -0.13388561994458506 0.09538890075826238
0.1678272942589897 -0.13322473842987706 0.09500546398329517
0.1674880739463013 -0.1331428190863631 0.09549534822380033
0.16793695423419097 -0.1327570318675002 0.09535878623717114
0.16827855838503505 -0.1320413914028949 0.09559913634377068
0.1692643313185622 -0.13135363480734785 0.09493293886840219
0.1688898675475557 -0.1312213386764852 0.09551341964137999
0.16944673649667527 -0.13059800129309637 0.09526042179462095
0.1690769129271794 -0.13023751878181475 0.09598248802169358
0.16966926526940398 -0.129657581887088 0.0956070423953174
0.1693729311732203 -0.12915170233826515 0.0963135922343539
0.16988261342164818 -0.1288698014216179 0.09581286798290449
0.1703349627464269 -0.12807368355410073 0.09562611170282335
0.17063950272226333 -0.12696319288823973 0.09577644556463688
0.17090123404459182 -0.12593199242013953 0.0959422424352369
0.17115017897033638 -0.12496877956514241 0.09612669450855449
0.1714816127074589 -0.12405247398895482 0.09629383425495405
0.17191734864574648 -0.1231012614181276 0.09654753732957252
0.17229891593779867 -0.1222215288676761 0.09697586704973589
0.17315253915477466 -0.12170226491224903 0.09598468506319845
0.17285717524047667 -0.12171873328351844 0.09660801175458918
0.1733257043469567 -0.12144810392995911 0.09609070390724053
0.15286054304278987 -0.17218310928975605 0.09665785158985486
0.15271978854914325 -0.17178142057009885 0.09685430363476169
0.15284807580082901 -0.17100286053255256 0.09624577302279999
0.15270569140403412 -0.17126634064232052 0.0966813246189053
0.15254944288880468 -0.17045422761456483 0.09676637721149867
0.1523515506365911 -0.16935993370234387 0.09667826648959685
0.15244249563356504 -0.16837903380591818 0.09560635745660595
0.1521985256027151 -0.1682306757127417 0.09635323177937212
0.15228938467032102 -0.167784280250724 0.09580868849378951
0.1522245715475881 -0.16695590139929334 0.09580138849260848
0.1525800280472869 -0.16605960648132786 0.09478669616241857
0.1522717698707733 -0.1658999050959989 0.09558788593136099
0.15245280516419035 -0.16545711822062548 0.09509516269515086
0.1525187212186161 -0.16507387848344324 0.09488156777462889
0.15239621026411168 -0.16503952727168772 0.09521497035623798
0.1523863813906208 -0.1645475759043284 0.09526842808630029
0.15248718424499194 -0.1637704374285752 0.09511839001676027
0.15279007882962214 -0.16289431561870943 0.0943939472355923
0.15249467999705568 -0.1627313389409036 0.09518660275728533
0.1527268362742534 -0.16219909110793038 0.0946840744285348
0.15250827956289092 -0.1617917022222542 0.09531421936854136
0.15266701001828192 -0.16156467946007882 0.09493538956720629
0.15267225045709765 -0.16091680180663515 0.09501668306856981
0.1530527826747548 -0.16030404853774177 0.09433534989980034
0.15281129096368148 -0.1600769085823513 0.09497077679508167
0.15301616616144675 -0.15976643668819313 0.09464068695542623
0.15310932242493175 -0.1590912827982822 0.0947958505337062
0.15365660631208342 -0.15848282713679968 0.09420926443152297
0.1533870319905633 -0.15823954858904685 0.09482699533337427
0.1537037306496734 -0.15797627217156573 0.09449197646120902
0.15394208504031415 -0.15746101463165096 0.09450657846868202
0.15458610391190614 -0.15672502986690967 0.09418807747057865
0.15422580296086288 -0.15689133447508932 0.09453434552869361
0.15440766286757915 -0.1561259557400306 0.09482416123314383
0.15492430106106334 -0.1556401563590053 0.09448617172051077
0.15464151828723524 -0.1552014645688736 0.09513639112396277
0.1552909867368914 -0.1549402647175636 0.09447860439416299
0.15499113237404033 -0.15444450413142521 0.0951917683067513
0.15547765761390478 -0.15410510314350476 0.09479122730956689
0.15589439420451495 -0.15367558984769653 0.09452266170366153
0.1555716381795554 -0.15332855190317404 0.0951936010645874
0.1561001790405258 -0.15302972393922074 0.09469524621708648
0.1558947731312866 -0.1525442642853561 0.09532154962988326
0.15626939254627736 -0.152449167016593 0.09489341621454052
0.15656125857760553 -0.15202132016651676 0.09483600509586035
0.157142920180778 -0.15144820446253046 0.09448262734294208
0.15685149009591853 -0.1515596326523124 0.09480954337102737
0.15705976806642363 -0.15090207972310712 0.09507702166431473
0.15749992473751723 -0.15005337858172585 0.09521842647972381
0.15837417214312677 -0.1493422260789328 0.09452427534763397
0.15805549380168496 -0.14913626049653128 0.09522299787628338
0.15848590643810082 -0.1487852831200113 0.09485949685430171
0.15879754567454063 -0.14808849759734935 0.09496148294250006
0.15897976940860536 -0.14712909366986626 0.0955172498490892
0.15965601037911456 -0.14662113191762638 0.09469923292445327
0.15943101836589782 -0.1463805922837236 0.0953855865933739
0.1597916842444376 -0.14604244798919877 0.09500652369876621
0.16009655617641136 -0.14532233859026508 0.09509499123593466
0.1603048032902062 -0.1443445169858719 0.09566477364546783
0.1610003952499572 -0.14382301778642767 0.09481681856873213
0.16079283210912027 -0.14356838864867216 0.09551923624636723
0.16116392817182681 -0.14327144945061593 0.09510484371382316
0.1614618214006907 -0.14269179076467328 0.09515242492410075
0.16208795217690591 -0.14183196469757053 0.09489490335376076
0.1617772257778264 -0.14207358705862497 0.09524492805557729
0.16205853684902885 -0.14129668583855887 0.09560033377401055
0.16262205438345212 -0.14034252785864193 0.09565001910526888
0.16294663153188388 -0.13938150680782657 0.09622933892327366
0.16371081992447836 -0.138853426463783 0.09537417473100195
0.1634937582399265 -0.13862258223299115 0.09611565650550756
0.16391061711274282 -0.13826533523453494 0.0957353602849166
0.16431268202233265 -0.13744378893381878 0.09591257201668066
0.16462909841261775 -0.13667424431014155 0.09621361993741193
0.16519255771628522 -0.13608196467996192 0.09577939322986556
0.16494063380632729 -0.1359442674182489 0.09647144287698582
0.16535095328048047 -0.13554826846241105 0.09613109339785905
0.16571721358044836 -0.13481195485827543 0.09630685946110236
0.16656469180695077 -0.13417092768793643 0.095678656867419
0.16631806369669866 -0.13394905848936597 0.0962988117899848
0.166725831003199 -0.13368967134993123 0.09597794698703731
0.1670624557685154 -0.1331861467023345 0.09602642308144976
0.16778205565520438 -0.13248769447458655 0.09580393324125654
0.16743064455208267 -0.1326377680499908 0.09609768549925503
0.16773918882237246 -0.1318857019224387 0.09639719783644439
0.16838769659327762 -0.13093773523090457 0.09635211662929466
0.168726035861627 -0.12980737725189279 0.09673360948177355
0.1689679291521035 -0.12885302526092524 0.09706356794316907
0.1698307526618919 -0.12838434401916646 0.09617203008963442
0.16951118812284405 -0.12819887457480078 0.09672937466765026
0.17005585971880793 -0.12758847956921443 0.09630096021243892
0.16974337154910932 -0.12724327297968205 0.0969775700129768
0.17031705380488468 -0.1265959776107771 0.09646334616804228
0.17003666492606506 -0.1262439317209077 0.09716969964294205
0.1705946469932016 -0.12560001007367574 0.09663052619306961
0.1703594633401554 -0.1252474239307076 0.0973664156731865
0.17091869232355733 -0.12464053194277393 0.09680992747052497
0.17075598206827516 -0.12429374966305008 0.09754675103573103
0.1713041738270888 -0.12370924200379828 0.09702552203148715
0.17119441916234715 -0.1234005245671661 0.09778865747584946
0.17175001425654443 -0.12281927857968351 0.09734358303412009
0.17172534102671433 -0.12248099721754843 0.09820710680636112
0.1721275667944852 -0.12211060851948702 0.09767586705727606
0.1725855448773119 -0.12152305228964963 0.09775385749433432
0.172829570279695 -0.12092194472642202 0.09843796200637625
0.15265815243998507 -0.1718892670611851 0.09706694383469293
0.15250509735340795 -0.1711001278625659 0.09720965002731459
0.15217815673733712 -0.170282117555152 0.09786824176920564
0.15228138312156053 -0.1702560283060496 0.09742842769651543
0.15228321323036925 -0.1698290108573573 0.09715794585908993
0.15216700597235674 -0.16978835574498086 0.09748144342432007
0.152100155009513 -0.16928588204932576 0.09750709006383346
0.151969138594286 -0.16835533431157168 0.09740770822502695
0.1520834606134147 -0.16738588731502746 0.09628804523186085
0.1518675106837608 -0.16723599297344838 0.09707135264169202
0.15196720670675792 -0.1667707282640852 0.09653991301984129
0.1519288863867592 -0.16596918785569412 0.09658823466295853
0.15226764533644502 -0.1650397063307635 0.0956025610949313
0.1519931396771165 -0.16490419896720895 0.09644631095341426
0.1521524211190707 -0.1643280407228655 0.09600802494916597
0.1522675940335551 -0.16386818537680745 0.09571285170393541
0.1520428355139005 -0.16349782744982266 0.09637609990932372
0.1522684017541554 -0.16318569627771168 0.09578771491683728
0.152076667590166 -0.16269558796401618 0.09642558005986053
0.15224126229605933 -0.16254031192173263 0.0959350008045444
0.1522602299139665 -0.16190710003210948 0.0959341070562056
0.1525324909017397 -0.1612374301807493 0.095335127513875
0.15234179921498872 -0.16116042978372633 0.09585451392778281
0.15246058631666953 -0.16077799040741952 0.09559554936211723
0.15248069043096998 -0.16007562704500491 0.09578332915255275
0.1528864427351385 -0.15937812648045024 0.0951150581052811
0.15264811167732648 -0.1591510328531747 0.09577275752587025
0.1528641306841598 -0.1588526921190032 0.095416416281062
0.15300668019905647 -0.15825206068496223 0.09548717644464289
0.15360437524063575 -0.157530187412385 0.09495652427633398
0.15325712754483534 -0.15723028664239713 0.09572986580606371
0.15383316285681992 -0.15676198863860874 0.09516491122613915
0.15353807367457337 -0.15617509388368167 0.09597992288661683
0.15395070426614463 -0.1559593602977153 0.09553240831218858
0.15422433802411364 -0.15559882428371305 0.09541112822143318
0.1540153648260703 -0.15555759364236285 0.09571268014990691
0.15415838106152507 -0.15511995891578617 0.09581577046514966
0.15453493924267842 -0.15453085369025174 0.09570962621702557
0.1551767194223976 -0.1538605065276633 0.09534154956218527
0.15483004199135406 -0.15402201206551086 0.09566882016317553
0.15501229834304908 -0.15339177084629824 0.09585730413822795
0.15540511332611082 -0.1526898703980505 0.09584519960421735
0.1562074091382943 -0.1520295219998781 0.09529917028169806
0.1557696712052016 -0.15179128342654888 0.0960397583561199
0.1565011127305659 -0.15138504251377058 0.09543453219780479
0.15624592226666312 -0.15081624113231407 0.09622352419579142
0.15675093595022033 -0.15061630648123428 0.09574768493121287
0.15707394000999716 -0.15030177301722392 0.09559105836464293
0.15690879639437164 -0.15020649418033155 0.0958990184204072
0.1570945293565571 -0.1497920806353286 0.0960115627017124
0.157545593781343 -0.1491409619358962 0.09597544232146546
0.15838668154166455 -0.1483653230015158 0.09541337937477586
0.1579926400837586 -0.14814619217411085 0.09621688192311226
0.1585536973948211 -0.14763922392383547 0.09579661315654228
0.15838041672890468 -0.1471348674125248 0.09651905011903353
0.1587344099156264 -0.146938769962708 0.0961297570115882
0.15903992359297706 -0.14625292884495772 0.09622605990864343
0.15973765335527434 -0.14563463844394145 0.09550971217513718
0.1594834296948895 -0.14549123484879223 0.09612130933274095
0.15989030998611278 -0.14491241722239528 0.09591031287269151
0.15966277222179803 -0.14448060518188485 0.09673452445512233
0.1600498375666296 -0.14418124750968703 0.09630782054571056
0.16039862213567377 -0.14342696099921684 0.09640641321469572
0.16115566679392168 -0.14283787887315955 0.0955949990121919
0.1609196643028108 -0.14262485317623733 0.09626283455544125
0.16146820696119796 -0.14201463466484035 0.0959031599279691
0.16119091178147013 -0.141509448206803 0.09695890476764817
0.16174668828895797 -0.1410364029666759 0.0964816203402824
0.16218464128306348 -0.14054258246379409 0.09625159676408568
0.16202302723915288 -0.14014013839850795 0.09701540376043874
0.16248782892114608 -0.13983590356461467 0.09653696241305688
0.16241049639788893 -0.13934264791860668 0.09724527184204532
0.162733485523315 -0.1391952024515244 0.09686374912359398
0.16308896278132357 -0.13854085436871127 0.09700339195531725
0.16388679363889008 -0.13787505267194602 0.09628064320268936
0.16363688797830145 -0.1376836912458177 0.0970006547644075
0.16405837066155723 -0.13729935532680218 0.0966568586930012
0.16442170425863512 -0.13650658426927012 0.09688056161747548
0.16473392402880552 -0.13575883023137247 0.09714186219070771
0.1653062088981908 -0.1351897323938957 0.09666314120241838
0.1650488333461087 -0.1350186312088764 0.09738136202821987
0.16546663037556394 -0.13461712394571868 0.09701000077492987
0.16586563080756755 -0.13386583975467703 0.09714566846498644
0.16673089980678346 -0.1332715077404131 0.09642300347016775
0.16646673524889677 -0.13305806998485936 0.09703571317864022
0.16707928199032576 -0.13250379826546235 0.09670335256925822
0.1667459064604448 -0.1319728998319637 0.09765996870222571
0.1673574182067675 -0.13153312290124963 0.09718516654461981
0.16784818739729787 -0.1310639262202865 0.09694562639465047
0.1676127643721196 -0.13068019163107292 0.09754652498416694
0.16813660954399576 -0.13026842599972352 0.09716913323576662
0.1678664054759938 -0.12973587184302524 0.09793181162191422
0.168439545304118 -0.12935482353072436 0.09743875770188005
0.16829130563208144 -0.12880204227829728 0.09806225304118002
0.16868887896902174 -0.12861966067146183 0.09761946540962868
0.1691293810512568 -0.12791138536021499 0.097478235873266
0.16945746662474503 -0.1268706064839776 0.09768805557986805
0.16980185675383416 -0.12588237951543702 0.0979180758400235
0.17020427122484505 -0.12482855787979287 0.09822379363756209
0.17070689129898856 -0.12395155259408373 0.09819858139347892
0.17110263460535896 -0.12321073580932695 0.09858492227928584
0.1715370313448823 -0.12249734311088302 0.0989522459438252
0.1722555936214309 -0.12173061786936042 0.09824048579847305
0.17205511616168045 -0.12171707956214432 0.09898863285853501
0.17260937447474337 -0.12113832947571429 0.09864741611126036
0.17244403912200273 -0.12102312043010284 0.09942521354200093
0.17279396711780837 -0.12079108491476756 0.0988963074806213
0.1520747125871306 -0.16976366240554477 0.09785787535452893
0.15188206307778723 -0.16944800188209977 0.09846581937645112
0.15191859794248014 -0.1691707240301125 0.09811542131563934
0.15190864460856954 -0.16876612614624398 0.09789349742065195
0.15182283149734546 -0.16875513663852526 0.09821342460012468
0.15174698290382815 -0.16826937148408314 0.09825651579649346
0.15164840861985832 -0.16735385683592252 0.09818295475127692
0.1517799405660547 -0.16640193568893175 0.09705540109750953
0.15156501652436916 -0.16626809328990208 0.09782838007828189
0.15168447058861598 -0.1658224341621375 0.09733543306856558
0.15165761885491888 -0.16503460373191084 0.09740861052845082
0.15194183051652468 -0.1640605414892486 0.09662666126767688
0.15170821506168786 -0.1640297675770199 0.09731933648505889
0.15182863600811847 -0.1635357819955647 0.0969810451292764
0.1518126870276642 -0.16281997814269636 0.0971267826416944
0.15211333858770074 -0.1621705290833434 0.09635304384735394
0.15192005417405804 -0.16197857962671663 0.09697192430294138
0.15207114911729414 -0.1617209321750322 0.09651425837495187
0.15212701012738397 -0.16122770101726439 0.09643474986834809
0.1523332753785061 -0.16052662083522115 0.0960374805098755
0.1521891063537578 -0.1606881179510755 0.09638747709968885
0.1521996307932855 -0.15998248771321216 0.09662153671252979
0.15233689101998807 -0.15918127992648942 0.09654134127366124
0.15274465120261627 -0.15841604663407127 0.09591860468883301
0.1524926542042933 -0.15814529536574806 0.09671755273700756
0.15281859963489222 -0.15769280256336554 0.09621925343750061
0.15265168848330124 -0.15714897297875915 0.09695211543431471
0.15289822342231565 -0.1569735895295304 0.0965186146973633
0.15308189293439523 -0.15624748517778367 0.09667304247581562
0.15379487765810956 -0.15551135701560564 0.0960421246507622
0.1534290375302839 -0.15533134886117014 0.0967215771106434
0.1538214368655584 -0.15487250195156985 0.0964227045730191
0.1541644664778054 -0.15450872641189486 0.09619628999057685
0.15392761753946285 -0.15412334165001162 0.0967686470519929
0.15446556842520112 -0.1538697804827531 0.0962263493975111
0.15421504751206003 -0.15335035555512225 0.09690683004308771
0.1546597703521078 -0.15313068743648364 0.0964727742627692
0.15501000156309647 -0.1528133826387271 0.0962457468581811
0.15481393888430917 -0.1525542227766422 0.09666446896359997
0.15517493172821692 -0.15228782321331347 0.0964051420592736
0.15493717315554648 -0.15217639165092028 0.09677380848054817
0.15513489194812502 -0.15171741422449964 0.09686914433023168
0.15557975256752649 -0.1509205383551637 0.09694503956947739
0.15666453726099933 -0.15017001275487168 0.09624532915014664
0.15618001935577233 -0.15008436515710546 0.09692143347563728
0.15673368278620242 -0.14956841617667643 0.09667388075761613
0.1571414022832619 -0.14917234464350718 0.09649369839821562
0.15685676357355263 -0.14885217603521342 0.09714473838975875
0.15741107324597617 -0.14856084361556815 0.09668012886397095
0.15722478926479289 -0.14814964084641524 0.0972908851723639
0.1576103331314047 -0.1479388773222765 0.09695701760986841
0.15788584545141468 -0.14723330066991266 0.09716988100802178
0.15867844861059288 -0.14653003819366553 0.09659606683455503
0.15838492415158997 -0.14632283840405122 0.09722560487952096
0.15879400354313408 -0.14599220915533592 0.09687918807518339
0.15912186807676557 -0.14527764201947738 0.09695313454448631
0.15929208601238554 -0.14428642822642634 0.0975590636346722
0.1600131243017106 -0.14374172849581987 0.09680437735131606
0.1597800562027005 -0.1434812133181578 0.09747585858554245
0.1601764268964062 -0.14315052308958565 0.09709084680995332
0.16055241897353884 -0.14238760202936268 0.09716687444572432
0.1607717100594573 -0.14133720335750363 0.09784919239820124
0.16159411254717318 -0.14065605414854487 0.09718055679852305
0.16129465051033412 -0.14047806042163372 0.09785939376130642
0.16171372320032532 -0.14008814428083363 0.09759687739705115
0.16201241303766858 -0.1393966671976156 0.09784565244461323
0.16272333903011782 -0.1388147271993277 0.09733250080902675
0.1624944584304821 -0.13862189363796837 0.09792522353421129
0.16286518180606951 -0.13833152780351574 0.09764504976645126
0.16318915364028755 -0.1376633571905516 0.09784749910553062
0.16400827519359398 -0.1369351897252237 0.09721245445221655
0.1637430125921199 -0.13677510715303529 0.09791502484099769
0.16416466631312074 -0.13636402705127373 0.09760148823725207
0.16452287805307578 -0.13557276941635618 0.09783302080190974
0.16483029791529621 -0.13482036620994328 0.09808499263041558
0.16543220491753452 -0.1342284743469936 0.09754439815889134
0.1651708175532482 -0.134054076065803 0.09829746610601472
0.16562209458739863 -0.13363104718777583 0.09787343008203013
0.1660510257271616 -0.13283782104867295 0.09793048938639262
0.16630503790985546 -0.13178828734456818 0.09853582369881318
0.16716635569975843 -0.1311085688567122 0.09779738812999371
0.16682439950978464 -0.131015518462357 0.0983869363931265
0.16732282405752122 -0.13036847007667962 0.09818560062504496
0.16704026746500875 -0.13001705212886028 0.09893159414062208
0.16748935940158774 -0.12967208975262512 0.0985169856265366
0.1678454612836995 -0.12898882372711673 0.09858374334751464
0.168662450511304 -0.12813932614478166 0.09802915634994434
0.16831335323292435 -0.1279281811460627 0.09876495379173318
0.1689158994174094 -0.12740127458067715 0.09820072942517681
0.1687776268083038 -0.12697388270647425 0.0988234088014338
0.16924824547922446 -0.12649381520872624 0.0984066381159111
0.16906279007408084 -0.12618836069926057 0.09913732347372654
0.16959187231393008 -0.12559088458762024 0.09868732558332999
0.16943692122926826 -0.1252576583972661 0.09950318039593982
0.16990006436635402 -0.12482954250128274 0.09897051613111521
0.1704488020519206 -0.12398853832529616 0.09897187558402504
0.17106890677212583 -0.12292717863933877 0.09950318143069473
0.1716306478113448 -0.12212062073719475 0.09952960750712961
0.17199014166974563 -0.12142570094634146 0.09992360676852391
0.17217884262125246 -0.12090729393935909 0.10036309421501612
0.15174659164603202 -0.16878857794645216 0.09858518485486709
0.1514932081629187 -0.16860422905635378 0.09934057832341084
0.15157563009707292 -0.16819499708841634 0.09889225616944106
0.15157952944388828 -0.16776422340771086 0.09869173184290457
0.15148929568681152 -0.16779210026086408 0.09902984484051247
0.15136515925317817 -0.16732085323215912 0.09911064713572042
0.15124341084217566 -0.16636140220563375 0.09890488726040192
0.15154184427945508 -0.16547148078678195 0.09784688869407933
0.15130218925673083 -0.1654009988302202 0.09855112794164363
0.1514250487459636 -0.16492827188187317 0.09813210272825351
0.15137890082130773 -0.16417139965955727 0.09823144285913249
0.15168400294298065 -0.16328196323808358 0.09746288905764794
0.15148013360957086 -0.16325100052889105 0.09809600293818181
0.1515953692052829 -0.16277737503462864 0.0977733318127582
0.15160382082747068 -0.16201293317363166 0.09790194701374877
0.1519783973858362 -0.16132485455534207 0.0969129310871395
0.15177169969674847 -0.16115929331560871 0.09761090045466463
0.15197412834091642 -0.16059401079170071 0.09706678999873257
0.15169895326326466 -0.16019319604220078 0.0981050003590951
0.15193762414146858 -0.15970084312427454 0.09748636018991624
0.15210918763721015 -0.1592454795122702 0.09714809870611028
0.15194598197054943 -0.15887428950501079 0.09788326786363377
0.15218343134552229 -0.1585569205226159 0.09728249527138244
0.15209083890208341 -0.15806262718403896 0.09799940282993137
0.1522653870364327 -0.15787835831474523 0.09751676414976945
0.15240187107052675 -0.1571881419068647 0.09764596641504927
0.1527860209310243 -0.15655816875353912 0.0970139385720877
0.15260212948850946 -0.1563619020440554 0.09763658935534106
0.15281649422043128 -0.15605803956800907 0.09730716186448225
0.1529978194885554 -0.15538844631628446 0.09745725369308599
0.1535987692205111 -0.15459083830819526 0.0969455066262206
0.15330005548099662 -0.1544923795505258 0.09753287426973699
0.15359685930345246 -0.15410545690890493 0.0972780234346988
0.15378806398841502 -0.15352335988456997 0.09739084861689691
0.1544742830714778 -0.1527675635263474 0.09696112724428493
0.15408185952327508 -0.1526322093381087 0.09759674704522694
0.15465308201657946 -0.1521601464483901 0.09715273975291484
0.1544065625633108 -0.1517860140835995 0.09776064284685768
0.15479950447795665 -0.1515218770345478 0.0974214319729601
0.15508742031773715 -0.1512011871935093 0.0973034285012146
0.15489920522263934 -0.15115149919934956 0.0975707845627455
0.1550744184942676 -0.1507570798786247 0.0976905759820554
0.1555928301809554 -0.15016721280754863 0.0975577876988064
0.1564048832186531 -0.14940021648652052 0.09723186315115799
0.15599833216446388 -0.14961147375785183 0.09754205434497526
0.15622520803574313 -0.14893959385023656 0.09785572622482608
0.1567673349874148 -0.1482409402808439 0.09780064471093768
0.15746640619536462 -0.14761945609311514 0.09742039405195237
0.157140680254726 -0.14772229467191478 0.09776227395449831
0.15740857679750267 -0.14709127874607986 0.09794902710808442
0.15788647713496756 -0.146394769571395 0.09789779830617065
0.1586975276182745 -0.14557361521582565 0.09739022082396268
0.1582963357211109 -0.14541118021512003 0.09814300780481915
0.15885412521782608 -0.144869926786844 0.09776303343799492
0.15866798414042016 -0.14448127491963964 0.09840527143576361
0.15900921079919345 -0.1441831992680139 0.09812398476466658
0.1593155524286226 -0.14342401138046812 0.09831709398887761
0.1601319432982622 -0.14271014413897024 0.09759507201784536
0.1598436818226217 -0.14257554638999081 0.09822016200770074
0.16031066457854634 -0.14196313933789517 0.09801992282313361
0.16005515180889654 -0.1415571075202988 0.09883096570208297
0.16047245272305838 -0.1412238623959768 0.09845732280301235
0.16080776424528195 -0.14045942852330562 0.09865396011033908
0.16162285963101364 -0.13974674446453392 0.09808801987457043
0.16133967905454255 -0.1395553810840854 0.09871499278393299
0.16174727827873167 -0.13922299093664614 0.09843719825891256
0.1620764150741669 -0.13858911049378073 0.09862146768708875
0.1628021733209037 -0.13799545016226214 0.09811483843390754
0.16253934260372324 -0.1378617597905598 0.0986758956794169
0.16292072547608955 -0.13750135968273325 0.09848062929678066
0.1632535072623825 -0.13679984558067254 0.09875889351684004
0.16410473194203953 -0.13601870101304378 0.09815154332741056
0.16382215576279274 -0.1359222485019107 0.09881391789809876
0.16424326257067604 -0.13546317624021126 0.09856062228759749
0.16459346016786833 -0.1346336419578839 0.09882021319928304
0.16495197960063435 -0.13384627350851142 0.09901903870081731
0.16558371534347802 -0.13320124652849008 0.09842723602347944
0.16528883812929232 -0.13308520909685048 0.09918090244293543
0.16580666614094977 -0.13241819290087142 0.09882600556548096
0.16562507294001477 -0.1319841152246111 0.0996813666574699
0.1660238915508346 -0.13165486806475707 0.09918729914064608
0.16642886847721028 -0.1308651912178353 0.09920772067986425
0.16667173808231742 -0.1298649857769256 0.09973413627137684
0.16744475101630624 -0.12926072802367755 0.09896422303718785
0.16718493014103278 -0.12911564782122503 0.09955046785685197
0.16769863152289802 -0.12851732432223137 0.0992480779619597
0.16747246944567884 -0.1280881909140391 0.10007955019655013
0.1679600530448122 -0.1277368247801084 0.09955694410268476
