# .PCD v.7 - Point Cloud Data file format
VERSION .7
FIELDS x y z
SIZE 4 4 4
TYPE f f f
COUNT 1 1 1
WIDTH 794
HEIGHT 1
VIEWPOINT 0 0 0 1 0 0 0
POINTS 794
DATA ascii
0.1604435379812717 -0.1456672128593098 0.09604905743955383
0.16080177059557782 -0.14532479477981824 0.09565955051025135
0.16108978334841315 -0.1445926693173487 0.09573774976469875
0.1612676838802662 -0.1435950810318044 0.09629847799786839
0.16196186904241094 -0.14307182111434683 0.095432042974186
0.16173967567135583 -0.1428088634734782 0.09613780014029061
0.16210836901734726 -0.14250994128213407 0.09571369981074423
0.16239277471862734 -0.141922334561334 0.09575146725068927
0.16299980844301531 -0.1410518223886623 0.09547388243415647
0.1626924488135409 -0.141295307826693 0.09583286299830994
0.16294954597866637 -0.14050459590156458 0.09617804349694187
0.16348810880349918 -0.13953803954047475 0.09621057607872352
0.1637823434850398 -0.1385625221448491 0.09677839145304182
0.16454064805657978 -0.1380336312086161 0.09590454235004993
0.1643112109564312 -0.13779668759363428 0.09665017817720284
0.16472265621145787 -0.13743792141063382 0.09625955895069968
0.16510385260284055 -0.1366092496311126 0.09642608534839829
0.16539848562360954 -0.13583139213657847 0.09671833112469423
0.1659523713511077 -0.13523741267585537 0.09626968735365855
0.16568940371270896 -0.1350953728352802 0.09696637095961602
0.16609259815208627 -0.1346973258609697 0.09661582445761302
0.166438886250097 -0.1339548023503685 0.09678090045305678
0.16727273334616824 -0.13331059838811296 0.09613068562653006
0.16701631775302242 -0.13308528121629254 0.09675549948296212
0.1674192440755313 -0.13282356840115078 0.09642490717058665
0.1677414488269861 -0.1323157149561391 0.09646544573144433
0.1684413354445825 -0.13161475038307577 0.0962263336768409
0.16809256811579437 -0.1317636800301178 0.09652747454657895
0.16837937997927863 -0.13100646810536482 0.09681727516209176
0.16900565618819927 -0.1300551031393596 0.09675585193615376
0.16931693438522977 -0.1289221153371973 0.0971255686788209
0.16953503511306653 -0.12796695733020647 0.09744524477809482
0.17038828529374758 -0.12750023683833805 0.09653745182447435
0.17006287130672734 -0.127314111312323 0.09709799841174746
0.17059301199090274 -0.1267048762420383 0.09665666367588714
0.17027087224868034 -0.12635992782642486 0.09733507641807485
0.1708301188337737 -0.1257149898537052 0.09680750608464543
0.17053866508489543 -0.1253624963219384 0.09751510218887018
0.17108325544901612 -0.1247213510333168 0.09696301296995259
0.1708362005355567 -0.12436730301900092 0.0976995326401414
0.17138242274332469 -0.12376318594104824 0.09713012226354714
0.17120625271321907 -0.12341415389271275 0.09786670650934992
0.17174190387535757 -0.12283237152176214 0.09733320964620798
0.17161764568643956 -0.1225210328304311 0.0980955948746844
0.17215940461138357 -0.12194246446621605 0.09763794702899188
0.17211615724080775 -0.12160067565426731 0.09849898905416567
0.17251377758619044 -0.12123337752367976 0.09795969297337805
0.17295274380427808 -0.12064621469612452 0.09802643747006383
0.1731734327706328 -0.12004290844137723 0.09870205319962626
0.1531787398016165 -0.17179652546119012 0.09785442161714367
0.1530560264809608 -0.17100231295717375 0.09801582318962909
0.15274226980392133 -0.1701645905505203 0.09869491113100627
0.15286630248488864 -0.17015038250237904 0.09825604422521352
0.15290050365414987 -0.1697280856871355 0.09799638966154138
0.15277438627621856 -0.16967992796338682 0.09832174472825893
0.15273109514746172 -0.16917365735763312 0.09835893891967072
0.15265401950180482 -0.16823657467263115 0.09828168836902068
0.1528651836540714 -0.16727974523528302 0.09718031358417342
0.15262350585952067 -0.1671124141175471 0.09796969430838874
0.15276626602773544 -0.16665168370846378 0.09744492985764047
0.1527618883692541 -0.16583422948104734 0.09750438229789551
0.15317710948003813 -0.16490232574397293 0.09651845267243761
0.15287231004602347 -0.16475004651517972 0.09737285938076898
0.15307254833541303 -0.16416841207205743 0.09693562923030513
0.15321673773119265 -0.16370312607604914 0.0966397168846402
0.15297902042339956 -0.16331244031498598 0.09731459662464673
0.15323906548999197 -0.1630022265299956 0.09672033547422194
0.15303817156817473 -0.16249086712772642 0.097369315446623
0.15323082848409192 -0.1623383485165193 0.09687283735744877
0.15327251396281075 -0.1616851135051608 0.09687291170967231
0.15358971317237308 -0.1610000750686705 0.09626123407292289
0.1533804153215458 -0.160915048909945 0.09679063312470913
0.15352297824224065 -0.16052159225054122 0.0965242418934202
0.15355346109789572 -0.1597935606829435 0.09670997397056906
0.15400233709732167 -0.15907678972117256 0.09602020461278275
0.1537439976300664 -0.15883741075607077 0.09669003916485121
0.15398169725172642 -0.15852866137270477 0.09632069846021304
0.1541319435178401 -0.15790359146022823 0.09638313627045493
0.15475474264832575 -0.15715372528336594 0.09582429130390316
0.15438442547712516 -0.15684475991929747 0.09661649064268353
0.15498373992574357 -0.15635742015129256 0.09602371598449307
0.15466801610246061 -0.1557517423881795 0.09685299280369719
0.15509759874334447 -0.15552418036317947 0.09638451975853045
0.15537540608685613 -0.15514906016068256 0.09625141631379829
0.15515960069914828 -0.1551060096462779 0.09656014284171453
0.1553007216759965 -0.15465576566534717 0.09665764570631846
0.15568035480287665 -0.15404965448625535 0.09653707970900181
0.15632660740824852 -0.1533543466174715 0.09614332693708373
0.1559751462456419 -0.1535234115976453 0.09648368013995925
0.15614610688330385 -0.15286883460194325 0.09666430779976087
0.15653136774987877 -0.15214230272522453 0.09663747611295073
0.15733442176056234 -0.151459952259688 0.09606487014018279
0.15687942511357497 -0.15121326510275582 0.0968183605674585
0.15761520829988812 -0.1507925689356816 0.09618945854758852
0.15733820302469453 -0.15020661587266262 0.0969847756260245
0.15784866944151715 -0.150001348107359 0.09649463184303046
0.15816773239260123 -0.1496779385282943 0.09632863593112777
0.1579964266556327 -0.1495789715391535 0.09664079800906822
0.15817152290124248 -0.14915214432310936 0.09674710759076735
0.15860965588202108 -0.14848351674846366 0.09669637505008893
0.1594418402825892 -0.1476913909957478 0.09611057240837037
0.15903253928603212 -0.1474640968460297 0.09692235865554423
0.1595891973386316 -0.14694832252078643 0.09648698416042523
0.1593952400567812 -0.14643072086256434 0.0972112071763354
0.15975008754607736 -0.14623228276738698 0.0968131187707414
0.16003768210763916 -0.14553168126825264 0.09689832740559573
0.16073237930216294 -0.14490704959646375 0.09616249601387078
0.16046590748187825 -0.14475751636254075 0.09677927300867513
0.16086258175385298 -0.14416986722694802 0.09655601424437449
0.16061378345154376 -0.1437266463536233 0.09738268305624048
0.1610009856031635 -0.14342532061027907 0.09694633038035444
0.16133104823543873 -0.14265996210707044 0.09703278077856507
0.162084817460335 -0.14206711623523205 0.09620222834959964
0.16183611372319068 -0.14184792637497226 0.09687349053538655
0.16237407054517577 -0.14123099587772156 0.09649837213205063
0.16207039700538892 -0.1407129862938267 0.09755601646793957
0.16262068150108447 -0.1402353224019635 0.09706494332379668
0.16304857238674922 -0.13973641478059104 0.0968229110758164
0.1628672506396654 -0.13932496593356875 0.09758674727032492
0.16333072837277438 -0.1390203289552299 0.09709769036903423
0.16323371594345173 -0.13851853850152818 0.09780458500523286
0.16355695970092393 -0.13837105201997485 0.09741602196091215
0.1638949391485887 -0.137709380874582 0.09754504268859623
0.1646845681077503 -0.137041982697187 0.0968041712404751
0.1644229365450309 -0.13684486238605603 0.09752834913560324
0.16483831095910662 -0.1364593438977318 0.09717452967103107
0.16518017979553143 -0.13565947899168912 0.09738773502889767
0.16547158286112448 -0.13490624419845276 0.09763932033284035
0.16603354838675236 -0.13433355129749458 0.09714681401624779
0.1657651209240673 -0.13415947447318152 0.09786896021461236
0.1661773561624195 -0.13375624517364873 0.09748785002007873
0.1665542318808192 -0.13299912625824242 0.09761128094992769
0.16740898130389342 -0.13240087970220982 0.09686799313155765
0.16713408498915105 -0.13218506184823592 0.09748480827269074
0.16773365742555008 -0.13162676630514433 0.09713811969153067
0.1673816830473299 -0.13109164531436832 0.09809773776119746
0.16798636825384533 -0.1306504078805701 0.0976097458169044
0.16846644530123756 -0.13017986029812556 0.09735878912427516
0.16821987457331564 -0.12979448245317726 0.09796118355006467
0.16873670678847602 -0.12938256008826374 0.09757302666832991
0.16844957291665993 -0.128848822654266 0.09833628968557258
0.16901673781516002 -0.12846825349091737 0.09783185680471358
0.16885110900365222 -0.12791479848560516 0.09845338470047874
0.16924752000653653 -0.12773332927759015 0.09800348648654736
0.16967112483626448 -0.12702617289629944 0.09785008429267103
0.16997354045329086 -0.12598641279034958 0.09804719779887272
0.17029130634345804 -0.12499945203938259 0.09826407537799785
0.17066348658284555 -0.12394549659799692 0.09855554340607157
0.17114204612023382 -0.12306870769179096 0.0985164832909144
0.17151115623439273 -0.12232704656720687 0.09889100115401812
0.1719193298068761 -0.12161245363341694 0.0992463213907802
0.17262471939740195 -0.12085162578749976 0.09851919141586783
0.17241661584741483 -0.1208344403964594 0.09926940492274411
0.17295675625165624 -0.12025836220334096 0.09891573860116291
0.17278136990908238 -0.12014041510121547 0.09969384995570132
0.17312968492735836 -0.11991019432874457 0.09915935549927601
0.15266727613184664 -0.16964464017237188 0.09869842214556454
0.1524623348013672 -0.16930999814021616 0.09931463239865784
0.15253032198006386 -0.16904083549547758 0.09897122687193051
0.15255109681213516 -0.16863939535538205 0.09875917059022661
0.15245180040312542 -0.16861977595208577 0.09908011903021162
0.15239712410496123 -0.16813045889739664 0.09913469704995194
0.1523458256763516 -0.1672091262061821 0.0990806199605017
0.15257715736580355 -0.16626663341755524 0.0979698459519714
0.15233275222165032 -0.16611565558077376 0.09874818858566003
0.15249416880222175 -0.1656716202169729 0.09826012923613944
0.15249600328846136 -0.1648678053284892 0.09834230193571633
0.15284754854843235 -0.16388453009002568 0.09756340496347521
0.15258680476988257 -0.16384150323652744 0.09826213371886805
0.1527404684351723 -0.16334188446376083 0.09792524526165379
0.15274331084244183 -0.1626067953914373 0.09807640172768203
0.15309796482738972 -0.16195179496578138 0.09729839810384873
0.15288208158820046 -0.16174449142371752 0.09792430115429504
0.15306408933103444 -0.16148564775644703 0.09746250496762654
0.1531386410020369 -0.1609776718982496 0.09738119039955555
0.15338205549536457 -0.1602581769853664 0.09697413009824436
0.15321763707887637 -0.16042100094285563 0.09733173210942629
0.1532366930809424 -0.1596913433552863 0.09756470224315972
0.153400306165164 -0.15886287356890869 0.09747494570788169
0.15385124119856558 -0.15807250583433044 0.09682873693899832
0.15356882929624302 -0.15778888895818308 0.0976430112325486
0.15392455656392096 -0.157321926836793 0.09712596194124272
0.1537355595570458 -0.15675974331608003 0.09786948232608748
0.15400270909338432 -0.15657955644392327 0.09742267200301885
0.15418664519017145 -0.1558281717579711 0.09756857674620913
0.15492962746302133 -0.15506195766965206 0.09689993760021512
0.1545378594038487 -0.15487984981910197 0.09759922559852713
0.15494649598408214 -0.15440470614582505 0.09727948035904034
0.15529772353483504 -0.15402863653510296 0.09703796288517554
0.15504079581341487 -0.15363143788525718 0.09762003591628347
0.15559421950085497 -0.1533665891823314 0.09705544695693637
0.1553189851437677 -0.15282672690764737 0.0977427920509453
0.1557735297410883 -0.15259785953212276 0.09729301298187452
0.15612756114701032 -0.1522692862026018 0.09705224993995369
0.1559178987758267 -0.15200260762976944 0.09747794752556102
0.1562835132654052 -0.15172642052829569 0.09720432238362531
0.15603578898795267 -0.15161222184073578 0.09758061898673259
0.15622652044042473 -0.1511381490816807 0.09766692580004024
0.15665931443573886 -0.1503160679866631 0.09772658581423754
0.15774503729705625 -0.1495399169551103 0.09699321361658148
0.15724679602206693 -0.1494516255082486 0.09768149823288357
0.15779651281933016 -0.14892115432307257 0.09741779540607022
0.15819952830917386 -0.14851557501889404 0.09722579344568445
0.15789765721653573 -0.1481861154106448 0.09788159900779088
0.15845391586303997 -0.1478881444475632 0.09740144705678554
0.15824978213984983 -0.14746599504246924 0.09801452136841009
0.158637127485857 -0.14725106848409578 0.0976698692675574
0.15889420411295732 -0.146529773153445 0.09787241450657691
0.15967771425310373 -0.1458124820149657 0.09727779976233343
0.15937065432655034 -0.14559938541696252 0.09791201735445426
0.15977703014099862 -0.1452628953230827 0.09755484880378495
0.16008771136450328 -0.14453540160206368 0.0976176372620176
0.1602258362962411 -0.1435242806097185 0.09821363506883914
0.16094655559678794 -0.14297622279213063 0.0974407293759386
0.16069645006715264 -0.14270767991714872 0.09811465861430219
0.16109149897428918 -0.14237413095045917 0.09771982241198476
0.16145002898364844 -0.1416019174193836 0.09778340754708786
0.16163475476565456 -0.1405350479730606 0.09845322304933173
0.16244952034573132 -0.13984730255217678 0.0977633602948758
0.16213754135149233 -0.13966603246579576 0.09844649178009035
0.1625501885969305 -0.13927114238014185 0.09817277247026533
0.162830922699276 -0.13857165268663058 0.09841144227694226
0.16353229568220432 -0.13798483653545787 0.09788241639434339
0.16329336352687263 -0.13778851863303937 0.09847753918079079
0.16366011783215692 -0.1374963315691882 0.09818924094216612
0.16396659140631004 -0.13682166320095784 0.09838219899957065
0.1647732554243718 -0.13608887054504798 0.09772931204597168
0.1644960918466696 -0.13592457403882136 0.09843504727579988
0.1649111781519636 -0.13551232430643673 0.09811208172418132
0.16524725558298278 -0.13471522659132307 0.09833244858195608
0.1655335763936656 -0.1339562527884438 0.09857513911147735
0.1661267423556833 -0.13336327374126075 0.09802029775432308
0.1658521160568835 -0.13318477576502483 0.09877623996285277
0.16629670282026615 -0.13275987300527145 0.09834184337010689
0.16670602948944466 -0.13196161473521142 0.09838632398215291
0.1669300352422066 -0.13090496367545798 0.09897999820913696
0.1677816048254664 -0.13022374482277874 0.0982225488107636
0.16743301533706734 -0.13012966446591165 0.0988171902470563
0.16791859629285302 -0.12948163991696104 0.0986031798911702
0.16762145274545726 -0.12912907976311092 0.09935113852119558
0.16806713663784573 -0.1287846161128384 0.0989267794017063
0.1684056602739564 -0.12810128377260627 0.09898232109164097
0.16920639837621645 -0.12725294958254352 0.09840946991715978
0.1688470150825664 -0.1270405966705914 0.09914867558099483
0.16944153417674299 -0.12651477875427053 0.09857152296460299
0.16928901655089357 -0.1260868832536393 0.09919296023578576
0.1697505434019485 -0.12560809722523403 0.09876567793967034
0.16955042209893478 -0.12530039679958038 0.0994961760561422
0.1700679043251791 -0.12470484310299829 0.09903412054447941
0.16989743050974115 -0.1243684037347725 0.09984893141058439
0.1703538495550663 -0.12394302626569613 0.09930648161538885
0.1708774424403285 -0.12310241323126656 0.09929280551101198
0.17145846206454293 -0.12203989356942682 0.09980615015769838
0.17199719290701798 -0.1212342926054806 0.09981876473857605
0.17233366594639749 -0.12054023771059011 0.10020122244389276
0.17250473454645632 -0.12002169744628578 0.10063275392327416
0.1523554267758193 -0.16864434315941412 0.09945101168339637
0.15207588115385684 -0.16844263396201067 0.10021197573697431
0.15219995101607806 -0.16804210609281037 0.09977283706362687
0.15223438293025623 -0.1676139714639035 0.09958139711814798
0.15212777508275574 -0.16763440391918613 0.0999197938579908
0.1520248355636575 -0.16715715024308453 0.10001169719943016
0.15196059586392824 -0.16619085532737654 0.09982634029286439
0.15234225757039882 -0.16530710347678665 0.09877857475365964
0.15207744397403905 -0.16522396212276444 0.09948636754627664
0.15223842921576916 -0.16474938044833187 0.09907124441511839
0.152217540934137 -0.16397243685495305 0.09917864809656213
0.15258512584652134 -0.16307481365058318 0.09841267110169064
0.15235444471908852 -0.1630326701226039 0.09904983468442005
0.15250181585517245 -0.16255273478764848 0.09872841255266009
0.1525262414000825 -0.16176481235087675 0.09886086755435523
0.152963310391412 -0.16107246891269375 0.09786570319952301
0.15273087316595602 -0.16089237954953511 0.0985692418248318
0.1529758106635095 -0.16031670446296317 0.09801903692143361
0.15266492320911 -0.15988802244741937 0.09906616720271219
0.15294665087625264 -0.15939099415561106 0.09843948197386894
0.1531450836741829 -0.15892456930182716 0.09809363192316928
0.1529553753917395 -0.1585304193079318 0.09883625013073509
0.15322835008122665 -0.1582087102074437 0.09822317004941722
0.1531082737342903 -0.1576912145996613 0.09894681146319283
0.15331047029053396 -0.15750612780555315 0.09845442106803222
0.15345250778965025 -0.1567954783459882 0.09857734457862415
0.15387705621343262 -0.15615000514907498 0.09792392076390766
0.1536671536132036 -0.15594232622756263 0.09855524806362104
0.153899917517248 -0.1556303328256077 0.09821436142489294
0.15407741589357357 -0.15493693113416918 0.09835456710713275
0.1547032801828064 -0.1541160232795396 0.09781418418163049
0.15438083140794437 -0.15401384301847812 0.09841443279065856
0.15469023671734675 -0.15361429019877612 0.09814448831517979
0.1548768333509126 -0.1530085377140018 0.0982443316964085
0.15557186183674623 -0.15222322906247815 0.09778638341760992
0.15515952674617733 -0.15208540988455166 0.09843410195274077
0.15574080312679622 -0.15159689245521402 0.09796932723410955
0.1554715748782107 -0.15121043247427632 0.09858342158845892
0.15587388279378933 -0.15093913816679155 0.09823077344659281
0.15616296088565218 -0.1506077485924906 0.0981013442151537
0.15596613135518053 -0.15055752554085192 0.09837537457958774
0.15613303543827659 -0.1501485418415117 0.09848662063002353
0.15664591090979071 -0.14953784960006022 0.09833566841344021
0.1574549928924855 -0.14874854610653315 0.09798270855918058
0.1570439651031592 -0.1489658790091504 0.09830579066859009
0.157252222639759 -0.1482749986527844 0.09860887678588036
0.1577827398008167 -0.1475569962085444 0.09853553632138135
0.15847976370758365 -0.14692474206147454 0.09813544924171724
0.15814860697785954 -0.14702809772080422 0.09848593397987034
0.1584003468624516 -0.14638371941248068 0.09866155340015227
0.1588628716159455 -0.1456709929643107 0.09859478516160276
0.15966354012069056 -0.1448345139621927 0.09806549177264924
0.15924635553541563 -0.1446668811764137 0.09882552462404191
0.15979778161807628 -0.14411606215303246 0.0984300805963039
0.15959153003338605 -0.14371863660427184 0.09907371286975343
0.1599317559926869 -0.14341728329297113 0.09878333064048021
0.16021688176309315 -0.14264669532152902 0.09896431115636918
0.16102984606032847 -0.14192582212493435 0.09822167629138671
0.16072807879697604 -0.14178746905915418 0.09885117304904634
0.1611846388496611 -0.1411679003976016 0.09863709058133302
0.16090911628070392 -0.14075617813924418 0.09944933327565318
0.16132523009265612 -0.14041974109072697 0.09906571861721475
0.1616413960755214 -0.13964729055763567 0.09924968302828464
0.162446822387315 -0.13892580479176145 0.0986632792839894
0.16215224689198687 -0.13873282390476926 0.09929384964565047
0.1625559656752224 -0.1383963136321015 0.09900603101986934
0.16286713279855342 -0.13775471191615832 0.09917918185792174
0.16358575957231714 -0.13715611199562086 0.09865839278704036
0.16331442736947147 -0.1370207589771045 0.0992222403974925
0.163689148849202 -0.13665712278695055 0.09901855711847314
0.163998673120268 -0.13594799417195294 0.09928569699477682
0.16483645423220525 -0.1351625474932361 0.09866039982065922
0.16454321132095406 -0.13506299808399355 0.09932597055248661
0.16495645721912547 -0.13460191856396078 0.09906311134771176
0.16528342233521034 -0.13376621401168856 0.09931244110903055
0.1656195754317729 -0.13297351138172087 0.09949998701789603
0.16624287736812832 -0.13232570111295333 0.09889326624582388
0.1659368038517922 -0.13220756460070865 0.09965103311987972
0.16644348222781416 -0.13153752176343686 0.09928309352109706
0.16624209929490247 -0.13109804938478758 0.10013910560885028
0.16663914403494776 -0.13076909485154867 0.0996356679049884
0.16702547097263423 -0.12997694632677748 0.09964379659337018
0.16724054857073545 -0.12897440175087274 0.10015892997589232
0.16800788821618987 -0.1283726106649325 0.09937124296820324
0.1677379978084885 -0.1282257126007526 0.09996092020410188
0.1682411722842767 -0.12762878564369548 0.09964542078303483
0.16799673785141664 -0.12719697815142722 0.10047738216082182
0.16848122281340067 -0.1268467541155739 0.09994464300832094
0.16893907331900088 -0.12594028265160834 0.09998770284218572
0.1693979722435274 -0.12502098639606354 0.10013279746267542
0.1695784261515015 -0.12441360175660471 0.10052093486394083
0.17038644282648607 -0.12355476839629506 0.09985339168517436
0.17012940250877912 -0.12354298315548272 0.1006372304926689
0.17079818589655804 -0.12277941119960945 0.10022453143129148
0.17073193955621918 -0.12239666596404211 0.10117063101893002
0.1712459597341961 -0.12200478972175301 0.10060110355126807
0.17179534066103228 -0.12121040881750311 0.10060777883013206
0.17217503912297658 -0.12031134828772952 0.10105922663676284
0.17231540819245686 -0.1198041659702078 0.10142780656378987
0.1516414399006327 -0.16832407040405267 0.10120893419525086
0.15200073558712596 -0.1677574604193339 0.1003024117860025
0.1517661360403751 -0.1679764476639977 0.10088431517493827
0.15167549332772934 -0.16718502274491673 0.10090697948399753
0.15174418920787444 -0.1665772343127703 0.10045177763393462
0.15157494053927134 -0.16652885486592742 0.10083143940705636
0.1515494482330042 -0.16599882380395145 0.10077913740812144
0.15173842674895688 -0.16527297389272125 0.10035343494592516
0.15204026662060663 -0.1644748472518746 0.09958985835454864
0.15184992361121286 -0.16464946959225837 0.10009047144465678
0.15184158696654051 -0.16388810062182138 0.10016424826824946
0.15202194695672133 -0.16310306466863347 0.09983593720686681
0.15234624073463626 -0.16229199942536007 0.09922756897854801
0.15216093304702935 -0.16246342274086353 0.09967017679682039
0.15219515772004547 -0.16169465370686004 0.09982477938314471
0.15236088187544536 -0.16066478035794682 0.09969931773968928
0.15244419539853238 -0.15983376030467805 0.0997910043416678
0.15275679673394987 -0.15909091316593868 0.09912887836042186
0.15254264687447952 -0.15911603865594523 0.0998894049494234
0.15274058095271584 -0.15858882727758347 0.09948524879774122
0.15285472507494907 -0.1578855977720869 0.09966562393510399
0.1532401141713411 -0.15710537581265926 0.09896267248747735
0.1530790990396764 -0.1569810530158438 0.09965069004574675
0.15327492425462208 -0.15660829854976843 0.09925452863066105
0.15340375901383052 -0.1559177123390186 0.09937046761359308
0.1538138033289306 -0.1552703810554003 0.098672107420385
0.15364651852505187 -0.1550675811015678 0.09928901378394273
0.15385923822011932 -0.1547584363257432 0.09894971503936548
0.1540170528841895 -0.15414194370102366 0.09903070638668895
0.15454642979379107 -0.15327036459579083 0.09860363969215209
0.1542177983812141 -0.15311301223499646 0.09931019850357795
0.15465162038892036 -0.15257723450261998 0.09888367887368246
0.15444159598283608 -0.15207359612191568 0.09956436320145517
0.1547760076717886 -0.15189817020209312 0.09911675253313477
0.15504533524129205 -0.15133704229848863 0.09909249107137681
0.15572848216410481 -0.1505862959067008 0.09867429951961366
0.15535013762460476 -0.1507483401917376 0.0990762252615009
0.15562648863761933 -0.14998069980145573 0.09927916091835075
0.15619701288567112 -0.14953121168443084 0.09888942074551821
0.15603437901119138 -0.1491551303118626 0.09938867240838413
0.1565858509103741 -0.14887750020512258 0.09892708982449772
0.15629704162375527 -0.14867350666497034 0.09944157988160872
0.15663903007460267 -0.1480802618908657 0.09951867120350093
0.15729990100311098 -0.14757137467259251 0.09912293127208895
0.15702453867229907 -0.147123551751091 0.0998320054023498
0.1577623339352243 -0.14684032945133074 0.09912770152945448
0.1575376452365718 -0.14623320192309608 0.09992017887134727
0.15808483194988754 -0.146019074730876 0.09937529234465897
0.1584883964975176 -0.14571498323194612 0.09908045514039009
0.1583275178668976 -0.1453838600576258 0.09956397433479436
0.15870280271664364 -0.14514066006325976 0.09923581463310881
0.1584986122687828 -0.14496547079039415 0.09965805306603741
0.15874102064965748 -0.14446238200441727 0.0997251650234759
0.15920333881223855 -0.14380420665488072 0.09959775032967995
0.15981134093316096 -0.14309301461982316 0.09924059536551458
0.15952187441051155 -0.14322222910261684 0.09958493256938866
0.15977288445295826 -0.14247399178364695 0.09981336974006938
0.1603090353375823 -0.14154228865078164 0.09974075669841866
0.16055155670412158 -0.14053598852336152 0.10021170170005465
0.16124379006771225 -0.14002156440873925 0.0995421798099165
0.16098012136803444 -0.13986228126831182 0.1000978679107362
0.16134538212633456 -0.1394765946580434 0.09985837365321176
0.16162618183687436 -0.13873802673592256 0.10008558311963824
0.16247990649975058 -0.13802546971625185 0.09948579543577965
0.16218077978768386 -0.1377896119228452 0.10013686348549779
0.16261536675974964 -0.1375095625544031 0.09978952269026276
0.16293402851775252 -0.13700105941482021 0.09981777842960567
0.16357173338032402 -0.13636162245376351 0.09951879412387286
0.1632669493823527 -0.13647200384580202 0.09985830524802941
0.16356661849257798 -0.13576732044870302 0.10016433526991686
0.16410744108773348 -0.13506370727209013 0.10008357547720927
0.16483510285503697 -0.13430597835969604 0.09962941394200059
0.16451386467365586 -0.13445573379512224 0.10005412420563517
0.16483586313361245 -0.13365902723340628 0.10034204309928807
0.1653908232627406 -0.13274646725508693 0.10023368804253564
0.1657664625196473 -0.1316167350927246 0.10069117703412417
0.16605068965923925 -0.13093088120234947 0.10077016801962314
0.1665986639083601 -0.1303466404982742 0.10013691171663516
0.16633569397127457 -0.1302657456128253 0.10081206067000499
0.16678548018413722 -0.12961153421495825 0.10045918448837055
0.16660854543135448 -0.12924173775477688 0.1012477598794118
0.16698050859717434 -0.12886593978224092 0.10078309046528607
0.167372284619797 -0.12806443309763046 0.10079874332635265
0.16761829401883982 -0.12706101818594318 0.1013383729506479
0.16842123228432734 -0.12639076986019476 0.10047021567338527
0.16816740114524514 -0.12617051148232894 0.1012091013519069
0.16862198677002177 -0.12577615188268162 0.10075273637675906
0.1690647288937399 -0.12502795822886073 0.10079092887860686
0.1694999698666339 -0.12407051804650553 0.10119640402968831
0.17002246184930883 -0.1231280517623897 0.10160024783359947
0.17048088173307116 -0.12220635869273883 0.10210153002589993
0.17135744128494845 -0.12159039848732515 0.10116234653193427
0.1711116014154112 -0.12148673889064142 0.10183810745019638
0.17170316380947082 -0.12084964695761688 0.10149541584129981
0.1714685133642729 -0.12061293870788777 0.10228956993479679
0.17198930662035547 -0.12006591421746164 0.10185028015067404
0.1717015524848345 -0.11997009958811714 0.10255693095995008
0.1721084935086881 -0.11970192036238766 0.10201144384068019
0.15134903459669335 -0.1682822547694772 0.10183255766412178
0.151131262167173 -0.1679661075112366 0.10230807607734851
0.151417991636789 -0.1678615539160182 0.10166231126547544
0.15113665087575978 -0.16746873228387732 0.10236447736182994
0.1513269735183484 -0.1670829375802656 0.10172890091162094
0.15140006938034747 -0.1665290925159469 0.1012856600254274
0.1512307141117105 -0.1665817303808463 0.10176829863764278
0.1511918271413213 -0.16598597430717857 0.1018150412641115
0.15141941009791723 -0.1652908979526017 0.10112165482509279
0.1511466128506095 -0.16492737461600487 0.10189384352641238
0.1515423155799152 -0.1644820066468572 0.10089059489345133
0.15126417048921884 -0.16398412803684442 0.10167922023741466
0.15153142511611872 -0.16355557165003082 0.10104852879520951
0.1517380554695432 -0.16308846595636892 0.10055715968019599
0.15149636047125511 -0.16267080840253545 0.10134725429810372
0.1518776388695923 -0.16228884673922775 0.10043048058690555
0.15165140777983666 -0.16171134835753823 0.10123759610958914
0.1519360512670038 -0.16144413387575707 0.10057748779550224
0.15210438319207814 -0.1610594076812208 0.10028202171862118
0.15197914522151323 -0.1610010248778321 0.10064002784196381
0.15204953332702337 -0.16055669040828796 0.10066559245217377
0.1522217048440375 -0.1597254666585844 0.10054322020246423
0.15235061081207424 -0.1590521930184719 0.10055416959290471
0.15264428015401593 -0.15838709959955125 0.10000102506667222
0.15244560563751577 -0.1584942160929801 0.10064089675940198
0.15263665395246473 -0.15792829292608065 0.10040335101618363
0.15279292880935622 -0.15721457555786728 0.10048692524333745
0.15321419902898512 -0.15627658954863557 0.09977296532606873
0.15303460700122945 -0.1561664852189131 0.10057653860239896
0.15324856487485622 -0.15574400049991177 0.10007818794305068
0.15338179569037608 -0.15501356843199804 0.10013461805990484
0.15379445788738252 -0.15436780529791516 0.09939737245013021
0.1536143889456519 -0.15422064790279066 0.09998466493554248
0.1538602432676024 -0.15366124559375538 0.09972711898420981
0.15364019868069342 -0.15321605540049293 0.10054852626645389
0.15390861552093124 -0.15292826384364472 0.10007033060076556
0.1540838855558426 -0.15223789802202783 0.10012991503589601
0.15468950101351622 -0.1514315621827477 0.09957242853763378
0.1543490670083807 -0.15120755550236217 0.10031893855543068
0.1549557834464025 -0.15066753048790385 0.09971601532174727
0.15464886306529171 -0.15022888526599734 0.10049925292240672
0.15513654465644922 -0.14978655490137924 0.10010367974779762
0.15559470186502516 -0.14930349440285853 0.0998489515642318
0.15527754027753532 -0.14899996692153752 0.10052419454466865
0.15594840036507254 -0.14862251889879124 0.09993330694466497
0.1556716094057664 -0.14823993011642517 0.10061200379345497
0.1561692924910628 -0.14795874962646494 0.10021057365489293
0.15650957556379955 -0.14758281451571637 0.10009997832257272
0.15627147712075729 -0.1475881657931014 0.10039593515463029
0.15642886502785971 -0.14715527194582553 0.10056547789701815
0.1569369670058289 -0.14642143808476643 0.1005406083287449
0.15792545773983102 -0.14558990910648717 0.099943122383334
0.1574203664334984 -0.1454241886303107 0.10075929369672848
0.15818906879522376 -0.144890793797593 0.10014874439459176
0.15791818052064766 -0.1443546376682951 0.10098235927701145
0.15844851594788711 -0.14406385274758476 0.10048031448209399
0.15886302680505013 -0.1437234439701857 0.1001673662376797
0.15868292350899024 -0.14326188501432954 0.10080888018995383
0.15921778401493245 -0.14301933335047465 0.10021854795352678
0.1590157389190239 -0.14249907993685396 0.10094858732345476
0.15945357081147332 -0.14213554145102325 0.10059001550401135
0.1598555736442739 -0.14167216336053587 0.10034340811176862
0.1596146892943971 -0.14126632354989915 0.10102118890898236
0.1601126296793714 -0.14095011412365277 0.10053694462459888
0.1600007877144162 -0.14040879741490037 0.1011198600725329
0.16033153416520957 -0.1403068443945365 0.10073407485644317
0.1606328374137039 -0.13982847275033816 0.10066554576832482
0.16121912089823476 -0.13918403470652463 0.10031202595414185
0.16093306908300892 -0.13931612129677365 0.10063157763034782
0.1611654963298895 -0.13862428980087224 0.10085995336765805
0.16163311699110436 -0.13783393550717282 0.10085647384962883
0.16257073557993074 -0.13705270500179587 0.10028707616471975
0.16213097053320197 -0.13678232174029664 0.10112722179798116
0.1629269578837726 -0.13628892857922534 0.10053274862713787
0.16267923696670056 -0.1357371590914499 0.10141170401887405
0.16325920104409175 -0.1353629233389706 0.10103671241209594
0.16374832072585468 -0.13496859722886112 0.10076084510879765
0.16353666299041317 -0.13446803480118363 0.1016135352039079
0.16420379605044713 -0.13420428745134785 0.10086281416952968
0.16407082402547615 -0.1335471707413749 0.10186229066054049
0.16458193480147434 -0.13326761666963724 0.10130456858233183
0.16499705985359142 -0.13285410803911865 0.10096369209017783
0.16487193626628147 -0.13242379874125737 0.10176149711821936
0.16530529913396322 -0.13212760886771302 0.1011603045354031
0.16525759794425265 -0.13162765013287847 0.10189214081380309
0.16555558420467179 -0.13144101793709542 0.10141394090804762
0.1658958632928366 -0.13071126927241783 0.101432374866923
0.1662229740470604 -0.1298668288316634 0.1015170953563542
0.16635136254328253 -0.12922840781034825 0.10192448828040536
0.16695210976959068 -0.12845201985235868 0.10128312798179148
0.1666961281657941 -0.128381437940992 0.10198889574028142
0.16715602625357842 -0.127704254210317 0.10163299102336533
0.16700669189085937 -0.1273108444638862 0.1024469253127882
0.16736418340660394 -0.12697871369257052 0.10197049594651085
0.16772678095144022 -0.12627740682375616 0.10197542558816339
0.1686090487679338 -0.12535101489663628 0.10131397781194557
0.16831027821316313 -0.12517599118609726 0.10216761225306059
0.16892541194503868 -0.12458954833468319 0.10162826037324073
0.16886895287831444 -0.12419783637523149 0.10233144282590693
0.1693907408340515 -0.12369550295675108 0.10199778614793623
0.16923792989921468 -0.1233868042260387 0.10278475705104474
0.16986862926235374 -0.12281243729360364 0.10243096573291212
0.16975476920575508 -0.1223729634794949 0.1032630237783595
0.170254574038704 -0.12206779211402714 0.10276161380717604
0.17079047309400913 -0.12131621225621227 0.10269986046666088
0.17119749579495172 -0.12042334721182885 0.1030372712115856
0.17133968039669875 -0.12003398765087363 0.10317233572747975
0.15091208880484405 -0.16751897640733596 0.10284705367959797
0.1511165925609437 -0.1667775859975472 0.10227679846232238
0.15094066520325738 -0.1670928295306668 0.10284468929216785
0.15089924202673538 -0.16631550751234628 0.10294489250537235
0.15099151185211696 -0.1656205511761529 0.10253715889150296
0.15089013567491613 -0.16573190618773842 0.10302376818789452
0.15086118607572235 -0.16513897725057325 0.10297250569985993
0.15096734556237118 -0.1642592784539103 0.1024841230316821
0.1513045522185082 -0.1633101080681458 0.10169922972257472
0.15109082700624982 -0.16357932878514594 0.10220429852983695
0.15113685723516476 -0.16288074767837782 0.10230629415253925
0.15128514686724293 -0.1619525379746053 0.10220262687810684
0.151817629931084 -0.16100878273967908 0.10104361268841099
0.15152509852843232 -0.16098338872344123 0.10183859559399228
0.1518070103981024 -0.16046970154314866 0.10132981439156116
0.15196832417587885 -0.16008699303615634 0.10110808368321855
0.15183143767637328 -0.16009324650472964 0.1014570394526264
0.15189365954536735 -0.15966849844426295 0.10150926033203946
0.15216976948226368 -0.15895763547468802 0.10117035710834867
0.15229784964457005 -0.1583862947599591 0.10122825245919777
0.15244397753996128 -0.15773841485479156 0.10128639618758518
0.15266353181560857 -0.1566709076607748 0.10143003408701674
0.15286920990124225 -0.15595958615669048 0.10134185138842529
0.15319610022988212 -0.15537441239638997 0.10059329357995284
0.15301659707664353 -0.15520011269750933 0.10137393806400596
0.1532351868208437 -0.15478547359433517 0.10084830926855999
0.1533698685707462 -0.154027744032693 0.10082134169252659
0.1533898631199252 -0.15311572764628842 0.10125689465711492
0.15380379636344854 -0.15244387836437537 0.10060063509818383
0.1535424837721195 -0.15218228184919938 0.10136673503447649
0.15390632588016182 -0.15168997370395768 0.10085111875232061
0.15372271135169951 -0.15114333167269375 0.10155985339471314
0.15400670536777233 -0.1509756532338519 0.10107916604475489
0.15424052980267033 -0.15039162928857003 0.10104625974375096
0.15483464534358962 -0.1495755068369604 0.1006993978442053
0.1545009031686784 -0.14979321815580585 0.10105213316574216
0.15471671993933575 -0.14910363178939473 0.10126511617055813
0.1551717243478475 -0.1484028839218641 0.10116151373718768
0.1559859347550776 -0.1476491580353339 0.10071273278715306
0.15554879885574124 -0.14784136220677252 0.10112339708948323
0.15584122016218102 -0.1471217198821735 0.10138279238742806
0.1564401538762273 -0.14660369218525718 0.10103492806015657
0.1562525861941649 -0.14632743161880604 0.10154242504718558
0.15673156905330077 -0.14601013354795658 0.10118693003710738
0.15650001665488822 -0.14589553805365593 0.10161439617309428
0.1567770610145238 -0.1453950397157999 0.10168001161096142
0.15727551763590264 -0.14451634389729126 0.10174746138522567
0.1582579780501075 -0.14368773583415023 0.10106869163651498
0.1578751327546178 -0.14354731572728652 0.10171332079338084
0.15833146287493177 -0.14318979957924471 0.10136620231602736
0.1586134578926957 -0.14263708381947346 0.10141047314546157
0.15921715126952377 -0.14186379500713395 0.10115408080704445
0.15889602486681867 -0.14206805920833032 0.10145726143736837
0.1591003531999908 -0.14133574751600833 0.10169735637435216
0.15956013193634427 -0.14050651206665796 0.10165229613473754
0.16033371681997188 -0.1398547991355422 0.10108030092776374
0.16002826738401565 -0.13962270824116133 0.1016485636649532
0.16062053034873142 -0.1391791787775018 0.10118485039758808
0.16035612491061002 -0.13879508771612842 0.10179595689060769
0.16080819311927683 -0.13835119396380163 0.10154606438644463
0.1612101901100097 -0.13792375677727448 0.10134513066977574
0.16096796205131295 -0.1376380667246943 0.10186710401274793
0.1614255498309251 -0.13729235406591053 0.10156654484845985
0.16113854850142734 -0.13715133147753408 0.10202936236673969
0.16141770295933835 -0.13660497330671392 0.10215608192413762
0.16210569925900836 -0.13585466924005396 0.10202459946072331
0.16300997105883464 -0.13504574850317247 0.10170114716593749
0.1625863148491515 -0.1352302082020916 0.10204487304847105
0.1629085068324201 -0.13453449362373507 0.10238969641433783
0.16345222815822683 -0.13367220536181898 0.10266673546347344
0.1644542703979982 -0.13288653320092855 0.10201081688349709
0.16412171064093442 -0.13276758986936968 0.10273143086065488
0.16457814802807313 -0.1323902185406474 0.10240231593031458
0.16490145096727665 -0.13172039495294782 0.10259483726868115
0.16555434831749316 -0.1310600018751185 0.10188800835577018
0.16537597573698098 -0.13089248166396086 0.10254947942943049
0.16570245293870461 -0.13055555605842215 0.10214670283826104
0.1659932047921759 -0.12984054386610855 0.10219506687427923
0.16627477005728267 -0.12878059101435263 0.10267473566915458
0.16661356443650152 -0.1279282467413477 0.10273295081970948
0.1667610594984063 -0.12727917098235514 0.10312648279333812
0.16737081966113282 -0.1265452481754993 0.10246737818506217
0.16716998294647303 -0.1264139707819946 0.10320896684407359
0.16769517596280853 -0.12577134339179696 0.10275170710920217
0.16763606987314913 -0.12530952805098108 0.10364466979577093
0.16805038290077065 -0.12497489316341327 0.10305213154894258
0.16857809533176835 -0.12415308732316994 0.10308277991589739
0.1690602570671136 -0.12310626624785992 0.1036136092610669
0.16951805573303325 -0.12218468818233892 0.1041339407591247
0.1703229946948367 -0.12162510239338703 0.10323583306720005
0.17010434467563335 -0.1215127506739168 0.10387408827629675
0.17066033613797962 -0.1209516158221961 0.10349348100275681
0.1703773733367572 -0.12085183135035793 0.10422691849808616
0.17093776286302925 -0.12039338365742207 0.10358187524208855
0.15074385824811226 -0.16692656347864396 0.10326006014296837
0.15060050342163378 -0.16620133850126712 0.10372375179039034
0.15073037592821048 -0.16577000923309781 0.10350336318743583
0.15055013816467075 -0.16577892854300294 0.10396215228743486
0.15056035857207517 -0.16517303240200526 0.10400161340379174
0.15074762941476733 -0.16448307316167524 0.10331576382868171
0.15055317639889418 -0.1642167417973971 0.10410812507501153
0.15083789531349762 -0.16362665447264604 0.10301514800604224
0.15065885765346815 -0.16329606729155793 0.10380913529659011
0.1508744464962275 -0.16283345660446774 0.1030880641078892
0.15103084705890477 -0.1623831205556508 0.10276902142114326
0.1508944288232071 -0.16241544198332736 0.10315585072410997
0.15094467187080784 -0.16196742548400422 0.10320529626122597
0.1511904090930256 -0.16117686971354617 0.1027785204129116
0.15165631233205415 -0.1602050011408984 0.10185383625217624
0.1513892477410524 -0.1604724848730489 0.1024681519543763
0.15155822890905382 -0.15962760049669567 0.10252785382883661
0.15191144795736472 -0.1590722487980467 0.10190223994738064
0.15179378850154376 -0.1587620061812335 0.10247215341366488
0.15209849137311776 -0.15840435848467177 0.10183019146697515
0.15192986791749602 -0.1582798424203851 0.10242461538553373
0.15211240834148815 -0.15771499036923695 0.10236244647302285
0.15238724648522006 -0.15718530304379974 0.10196664735537163
0.15226900692703857 -0.15717403104135025 0.10238276143030843
0.15238068721252954 -0.15666531729345282 0.10239576251244636
0.1526726434831474 -0.15583647339699971 0.10204314527776821
0.15277201786824285 -0.15501114073381167 0.10222685367545394
0.15315952354326606 -0.1543428060319105 0.10135515732274566
0.15293579066177893 -0.15418690701965254 0.10211340654779585
0.15318097059646638 -0.153554867908457 0.1016493798067005
0.15296617013844016 -0.1530524228830103 0.10246626367616572
0.15323328300452618 -0.1526566369697929 0.10189301470412768
0.15306765997723767 -0.15214584872458653 0.102520960520346
0.153276823950543 -0.15195499829361953 0.10208685858940955
0.1534120077337401 -0.15131989836380597 0.10211359241759298
0.1539289224820328 -0.15048825202850621 0.101556439502744
0.15361333138761293 -0.15027013438675377 0.10234108143256397
0.1541647664132502 -0.14970692831347562 0.10169380764820217
0.15393081930314817 -0.14914392488138206 0.10252349144428723
0.15438607328194803 -0.1488235192843498 0.1019927983608183
0.15478941483313954 -0.14845272445281366 0.10167306536101944
0.1546259399478791 -0.14814759893906632 0.10217800353880652
0.15512353714947377 -0.14781444604631452 0.10174372460395441
0.1548395495534264 -0.14768722991222819 0.10227513257838117
0.15516056081169027 -0.1470840568585982 0.10237533436856772
0.1557901086490925 -0.14650748619608633 0.10201005561472823
0.155521420841166 -0.14618532094594452 0.10270325477152427
0.15618963328413862 -0.1458466980850914 0.10207743616493871
0.15599782692312272 -0.14544199646483974 0.10272493904923968
0.1564566776996622 -0.14519967130485031 0.10230010026384907
0.15678859482918425 -0.14486223622075256 0.10213797314682438
0.15660522874203903 -0.14482174063194594 0.10243792289092232
0.1567865283805133 -0.1443899489808514 0.10256295349535925
0.15730344664939105 -0.1436595506167697 0.1024372625427508
0.1582281077158271 -0.14279930226218251 0.10182116348710663
0.15778808768497948 -0.14261185142869565 0.1025600068640182
0.1585125621095682 -0.14200058430019752 0.10202269164161268
0.1581874812761202 -0.14147787590257474 0.10278541950885979
0.15872460817687345 -0.14105888890580454 0.10237130913503338
0.15915036110244468 -0.14059728954431658 0.10212834193239734
0.15890759653553702 -0.14026245039749996 0.10263086224848028
0.15943273525108653 -0.1398618239337076 0.10223514004579581
0.15911240313140515 -0.13941298532061605 0.10288528057377551
0.15982202854278774 -0.13884413242779392 0.10240588310563668
0.1593154426591041 -0.1384225529961935 0.10327931249460977
0.1600575967907811 -0.13785764979798437 0.1027943330937814
0.15976466983741905 -0.13751999747264637 0.10336673433692264
0.1604598288289002 -0.1380848794386839 0.10216006118707739
0.16023919435821699 -0.13724766288162898 0.10301540758457035
0.16070261414222817 -0.13719820841924582 0.10251993129458382
0.16047336410604934 -0.1368954708008495 0.10300829937920018
0.1607783005242968 -0.13634582867176956 0.10313008379093813
0.1615725189226304 -0.13582778554918065 0.10269471640887387
0.16132431787174228 -0.1353635776456498 0.10345908381079452
0.16216259783135473 -0.1350906957789292 0.10272246763910314
0.16200448282300145 -0.1345958107738493 0.10347447243020906
0.16255751311375483 -0.134353765643609 0.10305104087577882
0.16294658665767192 -0.13401032809363272 0.1029619693590313
0.1627605394000076 -0.13397787326219315 0.10325773575159461
0.16296944078963077 -0.13358533199877554 0.10348147701006669
0.1635154669367875 -0.13280490592261798 0.10367128522604001
0.16451305292932597 -0.1320957358870778 0.10292243945273712
0.1642288783230517 -0.13192979449647793 0.1036388984731658
0.16467252537114013 -0.13159685731872114 0.10325812074643151
0.16501593534890638 -0.13089629982293244 0.10338544881132049
0.16568972729702255 -0.1301876206306232 0.10264241465332716
0.16547926431555446 -0.13009071314826273 0.10328174859321258
0.16586121170531082 -0.1294567121178718 0.10301980478919037
0.16569405703708281 -0.12905917362289177 0.10391823497741995
0.16604798070873533 -0.12868670028595036 0.10341230983772315
0.16638233568998512 -0.12788866979503455 0.10343537953513231
0.16671371067631316 -0.12688774511315382 0.10381838555194645
0.16712594843099723 -0.12587236807180466 0.10420705910452746
0.1674875561675577 -0.12517271093094026 0.10428379837036239
0.16810130179160193 -0.1245210547321998 0.1036231863806489
0.16789322318228553 -0.12446478954789182 0.10437876384509032
0.1684940146467654 -0.12373792819363941 0.10400965621886106
0.1684478793005377 -0.12342714509578595 0.10489848826432613
0.16897963052331832 -0.12281190024517082 0.10447616295552137
0.16895348820608552 -0.12236925841884323 0.10536313029279225
0.1693560046512551 -0.12205267357467485 0.10480878729054721
0.16982257282200175 -0.12133901245722252 0.10474429384400882
0.1700471824192386 -0.12073128620755473 0.10514247330648996
0.15042626240910728 -0.16567855396525763 0.10424256657764426
0.15025058760391177 -0.16515720982543836 0.10478418810070121
0.15035747249896864 -0.1648067275493853 0.1046770124151263
0.1501865311826044 -0.16485042705760106 0.10506748472571124
0.15024998762333178 -0.164368819201058 0.1050861068107339
0.15044850260398204 -0.16362960545488558 0.10469089997640169
0.15074678913745884 -0.16257489067510936 0.10365448643252743
0.15057032753283925 -0.16293415928031824 0.10436172089034962
0.15061521630644195 -0.16209878835748442 0.10442317232131658
0.1509147815189121 -0.16131541915779915 0.10363048354942077
0.15072015539201275 -0.1609998326651097 0.10447488503113303
0.15112303145776385 -0.160446595958038 0.10338555009598287
0.15091082624102498 -0.1600868246057373 0.10427470810445476
0.15121858505191152 -0.159549863402715 0.10358371677389029
0.151509261950337 -0.1589862479355705 0.10310413104449825
0.1512835813444085 -0.15878171361396112 0.10391052636342095
0.1517200347633793 -0.15828528288438426 0.103037204063731
0.151543940568791 -0.1579540144330954 0.1038074004906977
0.15186808744710514 -0.15758418888010903 0.10317502541894322
0.15211541015238922 -0.15714782440088643 0.10281931391954255
0.15194541624239213 -0.15715463715545233 0.10327286215827533
0.15202790370730054 -0.15662793739188463 0.10336762851694806
0.15237170803789296 -0.15604522254903977 0.10280779649692016
0.15217638800729855 -0.15577643469299976 0.10345023575243387
0.15249675281127162 -0.1553465259491938 0.10282445919150612
0.15226573741746635 -0.15490603026038008 0.10362989991381052
0.15262684415487363 -0.15452849497807614 0.10285292487626649
0.15245290590341476 -0.15407517903320278 0.10344910595977952
0.1527026788478246 -0.153664421237987 0.10293475523653761
0.15244720555051716 -0.15324790963756094 0.10368065053954123
0.15271490361788895 -0.15294397776275967 0.10312985290784024
0.15282523998651162 -0.15229920799771055 0.10306739486005118
0.15317572660663173 -0.1515410076167641 0.10251992323524982
0.15295289136734894 -0.1514460446578061 0.10308070286538058
0.15320523472930006 -0.15091245747546167 0.10276993300408759
0.15300361452621203 -0.15080822576856548 0.10323265497520316
0.1531347613844185 -0.15018226747807226 0.1032938050513611
