# .PCD v.7 - Point Cloud Data file format
VERSION .7
FIELDS x y z
SIZE 4 4 4
TYPE f f f
COUNT 1 1 1
WIDTH 794
HEIGHT 1
VIEWPOINT 0 0 0 1 0 0 0
POINTS 794
DATA ascii
0.1684167409461857 -0.12711443245047943 0.09930033843511882
0.16916068357387526 -0.1263423852426264 0.09894992204178943
0.16918094768922426 -0.125973825066767 0.09991470684258119
0.16972404410605968 -0.12557111409404254 0.09938250788320928
0.17036633544624188 -0.12477305194931672 0.0994458304977486
0.17085384591554523 -0.12386939393326844 0.09995259537680364
0.1710576149657079 -0.12336223848349409 0.10035090007262706
0.14946118847353612 -0.1690591742303928 0.0976980256674769
0.14954418953068266 -0.1684208705892828 0.09674308926494163
0.14946010402396706 -0.1686863599208297 0.09734138504372769
0.14920322309823944 -0.16791414637402893 0.09729283374073161
0.14905330372372946 -0.16728868975946581 0.09677757481348336
0.14894106238698213 -0.16727251838676738 0.09714976307793186
0.14880456435187603 -0.16676132618084538 0.09705837907002915
0.14879325384147576 -0.16604121092181093 0.09659298833617562
0.1488139317045216 -0.16524817760847021 0.09580187097259407
0.14874218223985175 -0.1654432459483908 0.09630225249471303
0.14862115607395235 -0.16475388311336348 0.09634666441253521
0.14864412003650315 -0.16402467304075014 0.0959981926429949
0.14877769759835696 -0.1632559520255299 0.09537941897990164
0.14869386083996522 -0.16344227490397117 0.09581678738455532
0.14867038139428607 -0.1627628039360335 0.09595653257632436
0.14869772351233937 -0.16183990368460063 0.09582676765882081
0.1487169062069186 -0.16111370091213312 0.0959145967939056
0.1488133793096115 -0.16041272706154266 0.09528156839952587
0.14877415170046235 -0.1604853318604082 0.0960156239857464
0.14883330172306478 -0.15999862544204144 0.09563280707897087
0.1489397439055529 -0.15938523424946063 0.09582553477744926
0.14911873859098423 -0.15865600516218223 0.09518774809818857
0.14909689577644564 -0.15857493785898102 0.09584492072675363
0.14918125861240264 -0.15822725866047752 0.09548590366828083
0.14929721386468967 -0.15763005126243967 0.09563484634635049
0.1495478520948516 -0.15704432297354978 0.09502074416722885
0.14950106108072087 -0.15688266512734644 0.09560374725906275
0.14963698960856167 -0.1565988327922397 0.09530777590756095
0.14979118163978875 -0.15604947678024983 0.09542879492318164
0.1502403356499852 -0.15529039358624794 0.09511503942871974
0.15002562647792173 -0.15515748789039788 0.09577650243086222
0.15039314032653645 -0.1546981254042976 0.0954356314031546
0.15028651888995276 -0.15425945157531779 0.09610710182697754
0.15055313902049114 -0.15410802842504898 0.09571186824460308
0.15083002100547474 -0.15362540610859612 0.09574422602122105
0.1514895020958511 -0.15296498828483163 0.09541893712849213
0.15115307523594496 -0.15311006605442962 0.09577721519699464
0.1514796701433806 -0.1524338297824633 0.09603612754707899
0.15202616941730174 -0.15204843076695998 0.0957241475709873
0.15193768172062455 -0.1517074087100532 0.09621218625620825
0.15245612499237102 -0.15146791677645075 0.09581811226657869
0.1522298996765388 -0.15127907224205156 0.09630606761912895
0.15262388106678407 -0.15076282524288104 0.09644262300753914
0.15327873481881268 -0.15031122138588524 0.0961324523954895
0.153107633077209 -0.1499080652207064 0.09682582310896923
0.1537917503732764 -0.14964375659263746 0.09620082942223447
0.15369507683448072 -0.14909681199668134 0.09699269216381846
0.15420333653446416 -0.14889345389663022 0.09650329197343696
0.15460614906182127 -0.14861198042977225 0.0962533269768669
0.15451865756912908 -0.1483157309778003 0.09672973649226442
0.15488216553165343 -0.14808665591561918 0.09644140860816493
0.15472960353209655 -0.1479286299090592 0.09684753666606541
0.15501956528444744 -0.1474651900925112 0.09695343502509496
0.1555332124499981 -0.14686095512481667 0.09688722360755667
0.1561752182755693 -0.14618661904104305 0.09659764908199085
0.1558995620860621 -0.14631492018861086 0.0969156121491636
0.1562301629804011 -0.14560567278926528 0.09719357077525698
0.15683568153621993 -0.14471674611193855 0.09719332049329964
0.1571900370225032 -0.1437577711131336 0.09772202648579523
0.15788252107163878 -0.14325790692230359 0.09711010465731837
0.15766400066379416 -0.14310541102790095 0.09765671416613624
0.15804624434990788 -0.14273324822132252 0.09745470852888669
0.1584112092702657 -0.14202683019961632 0.097732951277075
0.15929748851504974 -0.14135206507960343 0.09721614094269894
0.15905788225673698 -0.1411193637236221 0.09785705509918381
0.15949875309785472 -0.14085661908564362 0.0975482738923297
0.1598657392998358 -0.1403693140524892 0.09760979596167435
0.16054343277683575 -0.13975406992045392 0.09736727849992179
0.16024647419044588 -0.13985936644926455 0.09768544266977014
0.1606446419965392 -0.13918791906916717 0.09803628546872699
0.16126127662295506 -0.138518277659055 0.09800641341347391
0.16203588943735422 -0.13777185666084915 0.09761576547329658
0.1617268524594102 -0.1379272161696793 0.09801579319230751
0.1621413723276118 -0.13715478238130913 0.09834471971021512
0.16277367203123166 -0.13626032837943883 0.0982944509673202
0.16327778162000192 -0.13516152529106876 0.09881017523374609
0.16362548921728298 -0.13449194713452486 0.09892709492683459
0.16419680332791994 -0.13390901322170132 0.09834926578546979
0.16397555889918183 -0.13383841556810216 0.09900716273198658
0.16446262171480922 -0.13318263551696002 0.09870590890023223
0.16436027049345853 -0.13282516201114436 0.09949318626346419
0.16474025503880912 -0.13244204758296818 0.09906624225416283
0.16520515442879757 -0.13163906317567658 0.0991350585073876
0.1655654296808479 -0.13064058242877868 0.09972548831962283
0.16638904798820517 -0.1299603291795966 0.09892652068684714
0.16618767140650662 -0.1297453632997663 0.09966083315803245
0.16666045464662235 -0.12934640634361902 0.09924314392042964
0.16718510367953804 -0.12859951762470354 0.09933560238191154
0.1677431334657596 -0.12764713758810312 0.09980562331362272
0.16840191204841753 -0.12671107203059273 0.10028261546847435
0.16899355514432574 -0.1257970826192547 0.10084996086267516
0.16990919750728561 -0.12516470069644892 0.0999702034611433
0.16969515385635653 -0.1250705739989072 0.10064279663629659
0.1703456702491315 -0.12442386798210718 0.10034977342849052
0.17016121376207813 -0.12419568377385513 0.1011491228176607
0.17072076836640526 -0.1236354067234209 0.10075033298821932
0.1704620162474958 -0.1235504184926473 0.1014524508400083
0.17087793077630836 -0.12326937545004547 0.10093194327595868
0.14927418098830642 -0.1690764887809548 0.09831739616946826
0.1490914487050118 -0.1688135741285621 0.09877248225562331
0.14923119540302943 -0.16864776765398895 0.09811118798509243
0.14902268583430042 -0.1683350338852241 0.09879448111574685
0.14898379068004663 -0.16789589652831713 0.09811150219856266
0.14884403052725262 -0.16731608641948167 0.09761022446589539
0.14877447357062434 -0.1674159564858241 0.09810605777167926
0.14864465522410544 -0.16685248180405662 0.09811356782735693
0.14861458927364682 -0.16612298073001733 0.09736132432137824
0.14843771317165227 -0.16586346685460446 0.09812789747005989
0.14856285363212313 -0.1653543801457729 0.09708995294280474
0.14836354475232813 -0.16495985790218237 0.09786050930327697
0.14843144381267845 -0.16451600150450413 0.09721217522483126
0.14847434221940636 -0.16406183781367709 0.09670974634963293
0.1483383329104019 -0.16374150951199942 0.0974876206501942
0.14851117390722754 -0.16333595174552384 0.0965655488380249
0.14837001643455225 -0.16288031756964297 0.09735896266645543
0.14851563681930696 -0.1625977369617184 0.09669453348845063
0.1485992809804658 -0.16223839217835706 0.09639691859595105
0.1485374924015877 -0.16221707871249721 0.09674818178239002
0.1485700113315641 -0.16181668820064085 0.09677290115863406
0.14863041277224345 -0.1610669275529828 0.09665480371829262
0.1487006824910733 -0.16046259118203413 0.09666762115399177
0.14883134826446312 -0.15984795304740088 0.09613664817815153
0.1487626720894838 -0.1599707439600685 0.09676353640351779
0.14886366599431017 -0.15945610583800068 0.09654273538623652
0.1489946272516175 -0.15882502541636834 0.0966469734936611
0.14921360370053208 -0.15795747970261464 0.0959930575886181
0.14920502902400762 -0.15789736215465183 0.09677247770949803
0.14928071196717238 -0.15750443495883615 0.09631469268693629
0.14938733362852347 -0.15686182794992695 0.09641348840926105
0.14964757296272868 -0.15626026743932936 0.09574774270372363
0.14957235173868613 -0.15615122095805253 0.09631612336163956
0.14975539537985177 -0.15564212136141312 0.09611143614384425
0.14967184884823526 -0.15526959784111952 0.09692521446685912
0.1498430813235618 -0.15500100651034185 0.09649519772676418
0.15001857207825856 -0.1544044589854841 0.09661891035285129
0.15053696921397558 -0.15370202439720582 0.09617649351696585
0.1503156104159139 -0.15351066832156068 0.09689318508236619
0.15084129461951404 -0.15303558341187515 0.0963793480666361
0.1506530576965712 -0.15264596503553815 0.09714513810301732
0.1510988539353565 -0.15226174468146317 0.09681980424542991
0.15154824870501393 -0.15184001119263102 0.09662483961161947
0.15132087846906545 -0.15156500707810017 0.09728399525143168
0.15194201741659583 -0.15123307305995637 0.09676561443469855
0.15175842726009361 -0.15088808906509243 0.09743791304625463
0.15223344561359795 -0.15065588328898757 0.0970970947719583
0.1525886199972365 -0.15033109423397853 0.09703462254645398
0.15237730339641722 -0.15033407530231863 0.0973114808284728
0.1525797701453877 -0.1499384490548166 0.09750845805432383
0.15313824134994572 -0.14926917567139675 0.09755470551699921
0.15413816797417815 -0.148512666684118 0.09706945497186885
0.1537186225770769 -0.14836090058950402 0.09785217218070365
0.15447101922219272 -0.14786663610495293 0.09731660972875254
0.15431852816959957 -0.14737560050024798 0.09815565364525325
0.15482815813872172 -0.1471038998547021 0.09770128608809127
0.1552428379120063 -0.14678603969155798 0.09743498176350926
0.15515619413504683 -0.146356299412507 0.09807965764490782
0.15566024693855193 -0.14612689057766767 0.09753922655151757
0.1555605947495084 -0.14563598878735376 0.09828042867791463
0.15599978471515488 -0.1452934472772356 0.09796545864150259
0.15641549972988822 -0.14484623373292058 0.09776075435173336
0.15625855409074937 -0.14445994356013478 0.09844161776654689
0.156738305453177 -0.1441527018070489 0.09800245971933577
0.15671755752175928 -0.14363212168170153 0.09859983004087625
0.15702264655005335 -0.14353475863697582 0.0982414143409005
0.15735987060784862 -0.14307295787184013 0.09820980880678788
0.15797618201322824 -0.14245077668264272 0.09791533406622777
0.15770132557293376 -0.1425777320813188 0.09821394958315675
0.158016448522858 -0.14191815994197973 0.09848765783340764
0.15855172859563177 -0.14116064954826232 0.09854074167005808
0.1595301585754891 -0.14041587798677133 0.09805869239327043
0.1591678095618808 -0.14015391044818773 0.0988852037919642
0.159974346712018 -0.13968429942381425 0.09834941040685351
0.15983209838959309 -0.13915277951070254 0.09923667862621251
0.1604325530682296 -0.13880108481644776 0.09890733902052307
0.1609497872747113 -0.13843149539877772 0.09867055605957631
0.16083747395131895 -0.13794628105826073 0.09953091856873729
0.16148520759040244 -0.13769378907050894 0.0988160867373468
0.1614780610340167 -0.1370629366953919 0.09983205476777092
0.16198060949247112 -0.13678554833810733 0.09930604891968299
0.16241037517501988 -0.1363780627647831 0.09899706556567628
0.16237224515316348 -0.13596697568315907 0.09980048216509592
0.16279683504638812 -0.1356682098829613 0.0992311843178889
0.1628371107969709 -0.13518954213704548 0.09997299064156509
0.16312600389399343 -0.13499929870673583 0.0995200501138561
0.1635324352068628 -0.1342844677695468 0.09958500652996884
0.16393392011369212 -0.13345225677049433 0.09971468910309618
0.1641397515099321 -0.13281998917244509 0.1001537730877683
0.1647749817244236 -0.13203598734045302 0.09957804750065172
0.16455802402515865 -0.13197335726360784 0.10027119318285611
0.16505823604104633 -0.13128883527848068 0.09996931009166393
0.16498049448853336 -0.1309005465988974 0.10079182113090665
0.16534600796643195 -0.1305659126163169 0.10034827988643442
0.1657695758548182 -0.1298616409825987 0.10039940410909326
0.16671907637071545 -0.12892749361913147 0.09982379121544117
0.1664772558447383 -0.1287590693700208 0.10067257815444593
0.16712615695135996 -0.12817061766030297 0.1001858982068217
0.1671497034263744 -0.1277857957517952 0.10090882925550398
0.16771515324118633 -0.127280644863886 0.10062302707057885
0.1676375302212685 -0.12698235055160678 0.10142112640171858
0.16832365890544654 -0.12640550954237714 0.10112523831142851
0.16829028921131758 -0.12597503330480336 0.101974368984969
0.16880622659411287 -0.12566616984123635 0.10150929168165966
0.16941884144733424 -0.12491221604543666 0.10150162945888067
0.16993068766772704 -0.12401578845177373 0.10189668508969818
0.1701098752442686 -0.1236226108878623 0.10205353627130401
0.14890206092449385 -0.16843724449116082 0.09929084311212578
0.148834119893278 -0.16766052557380892 0.098648533237398
0.14885952561330254 -0.1680280121217244 0.09925861760872864
0.1486970153174407 -0.16729516646407375 0.09930820926605773
0.14855252782284564 -0.1665851658100417 0.09883734722897282
0.1486000652748962 -0.16674461263799187 0.09935349136296664
0.14844048680341854 -0.1661778823106963 0.09926275664670409
0.1482714745839304 -0.16529614912960486 0.09870100949294458
0.148305682929127 -0.16434421342320235 0.09785493221755076
0.14823552953980146 -0.16463900140134255 0.09837775960192745
0.1482151304200129 -0.16400936344858347 0.09845895077666343
0.1482227033614398 -0.16316190764555247 0.09833533049195088
0.14843752971565838 -0.16224746009867602 0.09715210171439531
0.14827639397265463 -0.16227558675997042 0.09795373092927653
0.14842272469924891 -0.16177897912316452 0.09743508243662542
0.14851254605023292 -0.16142011250468583 0.09721292661267741
0.14843021113313426 -0.1614492431022843 0.0975622819308734
0.14846561954814994 -0.1610790488374439 0.09761847574051966
0.14861911113999723 -0.16041767449252647 0.09728367638327189
0.14871889305422267 -0.159910822131744 0.09734826318824796
0.14883413409159751 -0.159336135551563 0.09742197567315984
0.14901458923155564 -0.15839037273810208 0.09759619909672279
0.14917907616383957 -0.1577535684230289 0.09753261436672164
0.14932095050212274 -0.15719831162997883 0.09683040572302376
0.14930212289939804 -0.15707961092021133 0.09760239261925012
0.14938183234366575 -0.15668943059264362 0.09711424333719212
0.14947224114099042 -0.1560086880197128 0.097136047939664
0.14953970495210536 -0.15519938134235425 0.09761800268677294
0.14982525157899323 -0.15459023354211493 0.09704059942400176
0.14969802721898448 -0.15437699974242644 0.09779634112951882
0.1499654137583576 -0.15393439563608216 0.09734604653892778
0.14989854335621586 -0.15346019153362328 0.09806792882416646
0.15009269424486976 -0.15330884517886123 0.09762833847874114
0.15032023032081918 -0.15279113357360527 0.09764789773367318
0.1508810601117948 -0.15207032391792807 0.09739336749560065
0.15059367154307624 -0.15226080599631497 0.09770382512131211
0.15086049345534536 -0.15165609161003196 0.09797008243553487
0.15131841362631523 -0.15102793843089224 0.09793708111785528
0.15212244400786695 -0.1503744143621832 0.09759612278549053
0.15171806298683269 -0.1505324836169327 0.09795902474921872
0.15208731835783268 -0.14989815730327338 0.0982765928919024
0.15267638204585376 -0.14943309471195595 0.09799976435279137
0.15256181929891913 -0.14918320719555417 0.09850582102092209
0.1530302043156235 -0.14890196823476184 0.09820468983135267
0.15285141487179663 -0.14880299665371396 0.09862217623441447
0.15316580296205395 -0.14834471372265742 0.09872959458096585
0.15373247715545468 -0.14752591763740575 0.0988711939707912
0.15472131309159104 -0.14676113951208983 0.098292548422838
0.15440401231490553 -0.14662768676103505 0.09892380682200984
0.1548551795482608 -0.1462919072290394 0.0986172597942213
0.15518751652053472 -0.1457664806814291 0.09870809423080341
0.15582904836932682 -0.14503498237318255 0.09852779331954525
0.15552133820139694 -0.14522762418211368 0.09880209665720474
0.15580312928249845 -0.14452797866637848 0.09908733123072756
0.15632011899784 -0.14372747406220746 0.0991050865462272
0.15709452753246037 -0.1430990402582708 0.09860656675681444
0.1568588519013295 -0.1428796326871239 0.09916914421647054
0.1574468133745879 -0.14244969427751206 0.09875789713030945
0.1572611275920761 -0.14208107915031723 0.09937137070806566
0.15772968284682753 -0.14165686316701362 0.09916771134502268
0.1581524480577921 -0.14124804644381395 0.09900373694971232
0.15797054561923377 -0.14096776700525043 0.09952590826394207
0.1584364069908977 -0.1406361141599035 0.0992620858061571
0.15819377766171522 -0.14049648659004385 0.09971641414660261
0.1585342685127766 -0.13997312141093238 0.09988351951917192
0.15928882665281363 -0.1392632901689991 0.09981825889851816
0.1602528293637168 -0.138491103368074 0.099572026112293
0.15983044883606046 -0.13866621496519568 0.09988558125067981
0.16024575546514128 -0.13800024246508016 0.10027748924069402
0.16089578153378586 -0.13718198146465074 0.10061271260674726
0.16192892530222827 -0.13642048074963953 0.10001730285230005
0.16164825820199683 -0.13630951264649896 0.1007304708243729
0.162117416106395 -0.13593958532741462 0.10043030098434934
0.16251319407259215 -0.1352880007077384 0.10065874940165834
0.16318506674582925 -0.13463096686814516 0.10000518703700811
0.16306195241143062 -0.1344735681119879 0.1006641578991761
0.1633946107964001 -0.13413889366742437 0.1002917089340141
0.16374598965615736 -0.13343294555358692 0.10038068375398572
0.16414276915684042 -0.13238068791236202 0.10091661096246243
0.1645515139914055 -0.1315260886478869 0.10102750741804409
0.16477230500766407 -0.13087532495011436 0.10145817893680963
0.16541128740042454 -0.13013416322744242 0.10086410413842346
0.16526626742782197 -0.13000715793438763 0.10160496350097248
0.16583074108632886 -0.12936042900223269 0.10120113859167783
0.16587529144974905 -0.12891126209950926 0.10212053578606546
0.1662896722648561 -0.12856867685703358 0.10155740303909051
0.16690780782278877 -0.1277502710314861 0.1016534047481352
0.16753036428197554 -0.12671376067263473 0.1022600849487306
0.1681208860582163 -0.1258001686033144 0.10284960301590503
0.16894028715546242 -0.1252274039403058 0.10200793226332099
0.16876481057687856 -0.12512285793945951 0.10264597066118258
0.16936168206849112 -0.12455623823420124 0.10231171926404804
0.16911880012723082 -0.12446256472735705 0.10304408644843303
0.16969111330500242 -0.12399342271158906 0.1024344259717027
0.14871133575112327 -0.16791473058553855 0.09967406800518884
0.14854127892310862 -0.16726830742946844 0.10011028628901306
0.14855777746217463 -0.16683401029009365 0.09985655814110574
0.14847663452643592 -0.1668944374787524 0.10033508575982822
0.14838821898468277 -0.1663224800870922 0.10034454268891761
0.14828222055687948 -0.1655982832153519 0.09958552669584576
0.1482230478679003 -0.16542498608236292 0.10041076378627152
0.14816042655231623 -0.16476518257846726 0.09922464021186074
0.1481049211784178 -0.16452980458386088 0.10004835854454537
0.14809819684271208 -0.16402589541370816 0.0992626387891219
0.1481356907254089 -0.163584713462032 0.09891602817558968
0.14807574449006755 -0.163644001962765 0.099317038288096
0.14809285890050272 -0.16325560336122233 0.09936413125434994
0.14815846164460625 -0.16251458127443447 0.09891222844135812
0.14833625386154753 -0.16158246396730577 0.09796370174274013
0.14821283161069673 -0.16186485788159252 0.09858899240969315
0.14833266542070964 -0.16111521857547081 0.09864999527346033
0.1485191375292468 -0.1605741990590271 0.09801702643593412
0.14848420893142422 -0.16032878022158945 0.09859624625259944
0.14863665077581972 -0.1599689155037843 0.09795147834797227
0.14856608488365358 -0.15989025955222522 0.09855311597254872
0.14870144032171054 -0.15937933561174744 0.09850181959568396
0.14886763412906853 -0.15887997190099667 0.09811541254742247
0.1488325401212049 -0.15889880765299175 0.09853424102204292
0.1489172671056731 -0.15843988925947902 0.09856417819636432
0.1491024010019547 -0.15767830433140875 0.09823948960148741
0.14919831473756107 -0.15694158705439124 0.09845884885161561
0.1493847532028301 -0.15630826837574327 0.09763453731889819
0.1493037609546348 -0.15619441175547683 0.09839230120332826
0.14942235784056185 -0.1556048489422428 0.09797225754226549
0.1493509127412046 -0.15517593394431928 0.09880646151382315
0.14948550293573076 -0.1548049300007578 0.09827141113177414
0.1494219405273979 -0.15436089153313162 0.09892138828463269
0.14954444721371316 -0.1541812722999936 0.09850977658677597
0.14968098759003076 -0.15361920265622805 0.09858453304918405
0.1500958495322855 -0.15288194141958775 0.09812391523083346
0.1499218978090839 -0.15269571663687434 0.09889312306843759
0.15035717181079017 -0.15218853264380558 0.09832324694113989
0.15026169931665945 -0.15168948846456623 0.09916863002778839
0.15063392852013616 -0.1514059282755505 0.09868831385467253
0.15100391197732324 -0.15107330176812403 0.09841393251577364
0.15091648521247011 -0.1507996735550563 0.098928710837123
0.15136978510505633 -0.1505059084175833 0.09855010005035414
0.1511639521039377 -0.1503924792617816 0.09907187492368044
0.15153029217651542 -0.14985532545993224 0.09922697989046617
0.15213872833530842 -0.14933850357534267 0.09893022733697567
0.1519787346653291 -0.1490432213171791 0.09962635603638834
0.152585970081069 -0.14874664290249964 0.09906451960273503
0.15249336078332837 -0.14836563671634884 0.09971756363746102
0.15291143492995185 -0.14815460191583962 0.09933741488489
0.15325127263788219 -0.1478475061343722 0.09921178870894855
0.15310005139752852 -0.1478053234591563 0.09950259325616728
0.15333619318488917 -0.14740868191518047 0.09966457590684648
0.15389944877393885 -0.14673509031515486 0.09960959404025901
0.15482743278890534 -0.14592429924126551 0.09909050961753281
0.15447737613293336 -0.14574958472560232 0.0998197001137722
0.15519857373793094 -0.1451677662091129 0.09934939389540308
0.15498336318932274 -0.14466885950801836 0.10012394911705912
0.1555107275782511 -0.14426528056373428 0.09975641847836082
0.15594773615981544 -0.1438168410446747 0.09955662579510274
0.15577317410518202 -0.14349700015115244 0.1000654521783382
0.15629195546349373 -0.14310763294571807 0.0997144032047879
0.15606066828864862 -0.14267105486706932 0.10037204535834547
0.1567714921865338 -0.14212452160775424 0.09995482869347146
0.1563873173898548 -0.14171682995992474 0.10083389374348153
0.15712574581085637 -0.14117533803666352 0.1004059860121661
0.15691586923944534 -0.1408527075143362 0.10098674514551316
0.15744931947621985 -0.1413934236996239 0.09977433750093605
0.15737972288206928 -0.1405964145412388 0.10066587592004948
0.157797899559626 -0.14054275259776405 0.10018738986859055
0.15763616878383477 -0.1402560468633912 0.10068119062993262
0.15798952979449585 -0.1397177927793917 0.10084110289059062
0.15880359193444807 -0.13923178747699666 0.10046697546472945
0.15864797393913685 -0.13877806250403044 0.10124481086656868
0.1594654130123101 -0.13853193366153438 0.10055141642879964
0.15940240591042432 -0.13804982874764382 0.10132414154483622
0.15995266764512464 -0.13782207202209484 0.10093322698156765
0.16037329770709402 -0.1374964221191878 0.10087825057769173
0.16021172529360633 -0.13746240132652232 0.10116991996141478
0.1604783604133687 -0.13709106461566248 0.10142037226941499
0.16110625399689227 -0.1363438870366266 0.1016565419397035
0.16211369752347166 -0.1356586829033672 0.1009599786333606
0.16189190413714757 -0.13549994526774242 0.10167742215530455
0.16233995793849906 -0.1351761630571639 0.10131882587995361
0.16274771478616687 -0.13448631599889063 0.10148587881643137
0.16344567746427283 -0.13378318975484305 0.10079905550365746
0.16327705145951552 -0.13369178827313274 0.10143373193373421
0.16369417472788317 -0.13306086897053893 0.10121179231951495
0.16360513651554187 -0.1326679860785486 0.10212341625758022
0.1639620337422773 -0.13229267206786993 0.10164764101027135
0.16436176629350824 -0.13149333297650012 0.10172169447428653
0.16480058298646308 -0.13048766625023586 0.10217162727415038
0.165339399334248 -0.12947835678144867 0.10263531513268223
0.1657747735981986 -0.12878206993702132 0.10276525502137808
0.166418461589427 -0.12812441716773737 0.10215545327245308
0.16626108709470527 -0.12807675066518856 0.10291411991306718
0.1669199596412337 -0.12734634273964623 0.10260511842640166
0.1669705806429177 -0.12704891891645412 0.10352017035196366
0.16753848543477162 -0.1264309163689077 0.10314479869531525
0.1676087778998541 -0.12599582579747703 0.10406363002314749
0.16801130727709443 -0.12567786367575395 0.10353106963465136
0.16854028040987268 -0.12495796489344865 0.10351855131162174
0.16884577852999902 -0.12434607583685947 0.10396355143201563
0.1483857854083348 -0.16682683597197664 0.10062265022415888
0.1482197707773555 -0.16637845877621635 0.10116743661855011
0.1482586821638333 -0.16603440511724527 0.1010392817129232
0.14816036037075392 -0.1661128835261471 0.10145517733445897
0.1481609483805679 -0.16566602091682942 0.10145898813621054
0.14816463819797662 -0.16493406993288362 0.10100660706662506
0.1480571164432155 -0.16384255646774165 0.09985298849428288
0.14810429298984776 -0.16425189677071667 0.10062498537092156
0.14806049289104278 -0.16348930419024596 0.10066330427751358
0.14809327352179494 -0.16270568771361268 0.09979659134369144
0.1480550537523222 -0.16248960925161926 0.10068818376646772
0.1481512892104638 -0.16190475308430008 0.09953514080981443
0.1481036179593394 -0.16164952813861364 0.10046354556217885
0.14820193199653633 -0.1611179293940624 0.09973958893236039
0.1483428968062072 -0.16057471250215657 0.09924317988136219
0.14827474505179541 -0.16044570945104247 0.10008326430703524
0.14848375539691155 -0.15993665302037027 0.09918216892291272
0.1484510461023174 -0.1596828354163718 0.09998083065620313
0.14860825016711665 -0.15931141298327164 0.09933364518882318
0.14875974635094213 -0.15890115084569248 0.09897841445931628
0.14867456365637488 -0.15892913570281442 0.09944103123727427
0.14874044728989935 -0.15845261596552968 0.09955517293512368
0.1489444585184569 -0.1578953668250344 0.09900195760151567
0.14884847867953793 -0.1576825519345533 0.09966994837620195
0.1490368539430992 -0.1572649173950908 0.09904782896670682
0.1489430904380486 -0.15690180438379864 0.09988901587507051
0.14914426958143545 -0.15652877828333345 0.09911510649695293
0.14905940233597448 -0.15613816254820792 0.099740433377216
0.149197812848268 -0.15574804225891356 0.0992400191384627
0.149061397462095 -0.15539067929424832 0.10001436713494366
0.1492161124301172 -0.15509763605985016 0.09947314521408607
0.14929610932388646 -0.1545193023042056 0.09945274710144122
0.14951540976681918 -0.15381832605355003 0.09896201277105086
0.14940264266627007 -0.15374963162135996 0.09952158682232738
0.1495847325331206 -0.15326451755561488 0.09925446219162154
0.1494632967069559 -0.15317782524943147 0.09971683710551404
0.14959850364667676 -0.1526225232252663 0.0998282622155317
0.14993151609976488 -0.1518904264246767 0.09977755383767006
0.15058038146617206 -0.15105343626853235 0.09927643462618525
0.1503247916665887 -0.15100034484153113 0.10000762603339333
0.15091618409468976 -0.15043712622412017 0.09953796446020456
0.1507435257591909 -0.15018147680948704 0.10027317126166786
0.15118062696928283 -0.149821822794883 0.09992372337295442
0.1515035472146517 -0.14945280914567094 0.09985976896968528
0.15132108184236995 -0.14948057932955008 0.10015200678711644
0.15153191591090717 -0.14910981579204252 0.10034304319659197
0.1520668011815404 -0.14850536283522092 0.10025440006248627
0.15287639617024637 -0.14782444152638635 0.09982243435153276
0.1524969295752921 -0.14797462416536394 0.10022548751271823
0.15289149545972205 -0.14728202229616139 0.10051299438188603
0.1534891270972788 -0.1468291965746368 0.10014399847750627
0.15341337708128733 -0.1464625815414237 0.10068828159230872
0.15386373484956933 -0.14622668404446362 0.10025485658012961
0.15378050386600703 -0.14591825288207771 0.10077085719755317
0.15412394420253905 -0.1456434408155597 0.10051468951946381
0.15446808707376156 -0.14496780209604052 0.10063587384459209
0.15533198888625657 -0.1439175584275074 0.10029873410796157
0.15492341184138514 -0.1439409612114229 0.10084986430342333
0.15549360093022765 -0.1432335238370947 0.10063942914312875
0.1552338570703591 -0.1429843418473701 0.10121436022625553
0.15572568839812534 -0.1424579073071279 0.10101162708417857
0.15545409009031994 -0.14242847441264883 0.10140450583109284
0.15573272031768434 -0.1418434314253311 0.10156925415864834
0.15635441968524727 -0.1410639652671832 0.10148473060512907
0.15733546282849473 -0.140251081400162 0.10105696548595204
0.1568449190068812 -0.14045088218823348 0.10146034539068532
0.15723882750432513 -0.13974973423600284 0.10173489594510252
0.15790252817559738 -0.1392007711169509 0.10155137934575226
0.15762119393182536 -0.13918704943088087 0.10191739224488938
0.1580467282585371 -0.1387269566307474 0.10207684323481403
0.15887861267059022 -0.13813421437591641 0.10193968421104634
0.15995085113341156 -0.1375022937557409 0.10147534811739385
0.1595028939138222 -0.13763683639453872 0.101885464842706
0.16004576643806753 -0.13705231535336948 0.10216243586724129
0.1605906250377428 -0.13665617659718937 0.10201649016009187
0.1604380741130864 -0.13662034293268574 0.10234810633982121
0.16073567872926292 -0.13622589032787372 0.10253004787655522
0.16138289108346573 -0.1354683568893315 0.10266289392235435
0.1623542977084275 -0.13483210498697773 0.10184489077775201
0.16216347314371066 -0.13460317246334283 0.10260624105476793
0.16259874591484538 -0.1342735960542999 0.10220222317520337
0.16305016880872447 -0.1335416973404606 0.1023117228791699
0.16339232134447051 -0.13262385766232745 0.10289118945967925
0.16402239753270745 -0.13181497582532942 0.10224796911623077
0.16390055723204403 -0.13159815398809332 0.10313406757047497
0.16437025674073188 -0.1310180094374402 0.1026052255209535
0.16444372732954765 -0.13062255341357512 0.10336029744847731
0.16482513382267006 -0.13013323461374993 0.1030016492836933
0.16486390129578632 -0.12976927964513715 0.10387490119852048
0.16519310528304967 -0.12941666939926785 0.10335274544167092
0.16570991393061846 -0.12867291425968097 0.1033944352929709
0.16637603939852322 -0.12770811763536805 0.10390166730632046
0.16698071644482462 -0.12675222170010772 0.10442237897613332
0.16745716740849856 -0.12579714777696413 0.10497348734520048
0.1681539035318883 -0.12522990914246174 0.10405694764026543
0.16802440531419519 -0.12510979583320642 0.10473961661958163
0.16850719489469906 -0.1245919159247615 0.10438662051817955
0.1682981639265244 -0.12450113871699744 0.10510825953022648
0.16868111639797062 -0.12423434592093366 0.10458768485159135
0.14809820404168877 -0.16604277690547317 0.10173207261881692
0.14807122521214985 -0.16549234962321052 0.10218963710691727
0.14816909067318326 -0.16514367748418252 0.10177595798222161
0.14810731705000188 -0.1649256056342011 0.10234340228832724
0.14816773227411364 -0.16445779861285004 0.10157862760714922
0.1481507220445775 -0.16448560539000057 0.10229644786047631
0.14810649729560224 -0.1638562841407136 0.10213607921746623
0.148056014963739 -0.1631558510968164 0.1014501069093142
0.14809111202706754 -0.16326402122384565 0.1020004808726876
0.14803787112760083 -0.16271244858879605 0.10178756985858706
0.14805025850019993 -0.1619771076977174 0.10128811926038081
0.14814586199283963 -0.16106971634150524 0.10050532964762951
0.14811069309026872 -0.16139318524299714 0.10106213417862787
0.14814330564679812 -0.16079139599426423 0.10119795687591177
0.14825975359293483 -0.16000251439992286 0.10080810795611686
0.1485568183829697 -0.1590681240046174 0.09993306051970484
0.1483858484134248 -0.1593855172984965 0.10057771635532241
0.1484680338638227 -0.15870593101037858 0.10075033673705458
0.14867506193915783 -0.15806679833697995 0.10022565165846277
0.14859607027940339 -0.15796656303455675 0.10082560376162042
0.1487350774187349 -0.15753564938432293 0.10037620401010121
0.148638063984642 -0.15754997260994336 0.1008530166369255
0.14869534720063562 -0.15703175063558134 0.100866153472673
0.14888716377396405 -0.1561337839172282 0.10051197139575288
0.14891862683598403 -0.15536155391292628 0.10070569649681094
0.1491538725929334 -0.15472549967599705 0.09992118083236405
0.14899252899824741 -0.15459878536398336 0.10060440220615187
0.14919514371562306 -0.15404752368520008 0.10010568202955102
0.14901743469653836 -0.1535745064017878 0.10095220675901286
0.14931533355629958 -0.15314392101417285 0.1002519642512609
0.14916838811251942 -0.15263672870060666 0.10107536802581475
0.1494433341465326 -0.15233737004421222 0.10057824338387229
0.14970209447717955 -0.15199527483608688 0.10029707122054042
0.149637601925683 -0.1517225902840589 0.10080818034502685
0.14992790212158527 -0.15145826127721365 0.10042936499627887
0.14982738942961843 -0.15123323265707575 0.10092253634783763
0.15006716806945286 -0.15096046977094293 0.10069274908020091
0.15030816111427459 -0.1504356653349505 0.10080565068593207
0.15107125422135 -0.14957783965121824 0.10046413567246348
0.15065213850326922 -0.14983696868585195 0.10088565538725208
0.15103244306912628 -0.14911051200582084 0.10121504910411705
0.1516654361216069 -0.1485963764407188 0.10080155399308419
0.1515603347136386 -0.14830164937568932 0.10135215647220022
0.15213055876861875 -0.14795224020099834 0.10086617960495105
0.15189365549742054 -0.14782847255148182 0.10142864434233334
0.15231968242305932 -0.14721582486895587 0.10156295766964303
0.15300635926578537 -0.1466295915456664 0.10116036717181015
0.15286146018365915 -0.14629479418552885 0.10176644889594291
0.15344283820048818 -0.1458997576180477 0.10130186667932371
0.15323222479220008 -0.14553714733897335 0.1019711350188657
0.15368644334292758 -0.1451207677509501 0.10167555771091344
0.15346374787681152 -0.14503578999377054 0.10209770513744089
0.15397167535600528 -0.14533712872718904 0.10106072414508116
0.15373755432926126 -0.14447771396750209 0.10217853844760924
0.1542350647686861 -0.14442500668963015 0.1014368066753404
0.15420215670449192 -0.14370112103387722 0.10209377579102472
0.15470272030028864 -0.14340965123169075 0.10159366686634651
0.15456212446679896 -0.14290926922196553 0.10219470367555678
0.1550959968052624 -0.14250558895960605 0.10180840663282822
0.15482925654713017 -0.14235886315351776 0.10229627290501782
0.1551980421567135 -0.1416941516639197 0.10241222194968737
0.15587339914220882 -0.14115907272063893 0.10200935558266698
0.15576056376107056 -0.14082344086702203 0.10252270428424928
0.15638249755982236 -0.1404579791529961 0.10206689090418795
0.1561116786938389 -0.14034008540478923 0.10259027198208331
0.15656617452536037 -0.13976206311319986 0.10269254434882202
0.15732962272405354 -0.1391789432389923 0.10236132441908907
0.1570211189810301 -0.13916744904569694 0.102824374225633
0.1575478059208702 -0.1386144535395331 0.103008724181135
0.15841680525062884 -0.13816131458474562 0.10258131229994062
0.15834323096987207 -0.13781132963198556 0.1033338078424096
0.1591743395438842 -0.13753793957616736 0.1025786038079836
0.15913518072265237 -0.1371384884210794 0.10335411981049909
0.1597508515511121 -0.13689639592319375 0.10288945113548212
0.1602504635992649 -0.13657753024688857 0.10271571675107644
0.16004111584742312 -0.13654742078907964 0.10309523906766849
0.16032623922151942 -0.13615095840404992 0.1033192649701985
0.16084082935846405 -0.13576309682685317 0.10310080995894207
0.16067212145293513 -0.1357006150211636 0.10348790583079187
0.16104129681707552 -0.13525742007966204 0.10364964321776853
0.1617417884151097 -0.13459156007464873 0.10350692311888758
0.16266128539584912 -0.13384233921399652 0.10279464152053376
0.16241347115576132 -0.13367510688727136 0.10360785851711864
0.16299544893296253 -0.13307838441262926 0.10325177868008285
0.16296256941911316 -0.132543320753637 0.10425415158624365
0.16342968520933915 -0.13213713495279608 0.10367735212364414
0.1635361533677041 -0.1315846022341806 0.10454955187022943
0.16381738013483835 -0.13135501787210502 0.10403525916042712
0.1643017135785624 -0.13057278144037934 0.10415621152580652
0.16483620093527257 -0.12960947903202727 0.1048313585597236
0.16535392300555563 -0.12901006738292348 0.1038991167011081
0.16534444952375144 -0.1289162715175955 0.10461673549173732
0.16583363217517194 -0.12828275373186748 0.10430418073035398
0.1658923188705292 -0.12803144468144032 0.10519042269059349
0.16642424931994113 -0.1273950218403082 0.10480676740091452
0.16643086914846972 -0.12706848765079035 0.10569089825716116
0.16692922033172894 -0.12645292604813435 0.10528845778712158
0.16695794683123702 -0.1260688056815772 0.1061713607259263
0.16732223342304897 -0.12566809432523915 0.10565775857710508
0.16779158232736952 -0.1249887262396331 0.10558102661045024
0.1679912310997149 -0.12454751146374175 0.10575215607561855
0.1479787389881582 -0.16508237485304642 0.10288143162266003
0.1479019081947524 -0.16483969130256992 0.10352077326566547
0.14801316020547298 -0.1645970382347338 0.10294851613769887
0.14792083314649307 -0.1645754616136314 0.1035844600564189
0.14797751391626002 -0.16395244964861488 0.10339899702715205
0.14810075203472747 -0.1632906207842037 0.10255122969689348
0.1480355494724496 -0.1631872584511574 0.10319926256346695
0.14802185556776673 -0.16267503499713895 0.10259657931578527
0.14798231622686975 -0.16217030354931322 0.10200143396443051
0.1479804976573076 -0.16206537795851553 0.1026438249380725
0.14803181367471535 -0.16153189505573357 0.10186462377416135
0.1480010665597494 -0.16158425694227124 0.1026034141025736
0.14803140735507883 -0.16093502094077122 0.10244581264665331
0.14816618335150653 -0.1602622042053388 0.10163737125218829
0.14808900611047296 -0.16006231265591772 0.10225811080950604
0.148226125797528 -0.15954624463146808 0.10146365983448145
0.14812698383698553 -0.1595585058295872 0.10217925562678723
0.1481808358196344 -0.15893447409013825 0.10209348126196904
0.1484278317366856 -0.1582718570943909 0.10139280463832502
0.14830250338514717 -0.15811295398409594 0.1019906824057813
0.14851544090948218 -0.15765779575030012 0.10138800174835115
0.14837735366485622 -0.15764554010839668 0.10195164580696692
0.1484750404988327 -0.15704208112177964 0.10191204116641257
0.1486854765963896 -0.1564168269817793 0.10125823660326878
0.14859797536270605 -0.1561400215088305 0.10184730387353211
0.14875623185428807 -0.15573010264809053 0.1012205576189081
0.1486355683222639 -0.15535612305047383 0.10185267846092934
0.14880693814936607 -0.15495974972477997 0.10125301895646863
0.1486653239813057 -0.15456591355766958 0.1019104648861428
0.14880936323666 -0.1541896006702694 0.10136871565247112
0.14867661683236164 -0.1539314547533756 0.10193742675844154
0.14880664576312008 -0.15357994801452715 0.10162418654293894
0.14892655630456994 -0.15291098465621172 0.10168945608335166
0.14935386766629147 -0.15199024672202419 0.10114571250115109
0.14912001631110705 -0.15198404712933636 0.10180897482086246
0.14952771027252423 -0.15133821000271833 0.10142551524975518
0.14931967442294555 -0.15115397542266423 0.10215685006521093
0.14967094225590197 -0.15065443523195 0.1018932219941494
0.14947794938466483 -0.1506860315797316 0.10234261357610103
0.1499198211083071 -0.15074107059682126 0.10124048974812865
0.14968451933379978 -0.1502041630847611 0.10249087687527733
0.15021096954374158 -0.14995398091990086 0.10166036060674483
0.15007120051349881 -0.14970400022488753 0.10235912843496289
0.15051571697552377 -0.149089903521486 0.10234645008335855
0.15113765514734806 -0.14852101985262536 0.10186017021965288
0.1510236957973442 -0.14827500775490893 0.10243331754095386
0.15155975967901417 -0.14787125774856388 0.10196295207112506
0.15131527422222885 -0.1478033964168813 0.10251258542367743
0.15170376388461532 -0.14721406851081642 0.1026418617428964
0.15235556760570193 -0.14659033438631772 0.1022427707387316
0.15218102527488708 -0.1463313209248024 0.10289115284533339
0.15273001314223308 -0.14587540260862145 0.10243678140151201
0.15256344734892044 -0.14548432769917655 0.10322233295717263
0.15317771073064704 -0.14501926240410629 0.10256932831969605
0.15303024091163284 -0.14454372421090816 0.1033050804895641
0.15347716318229795 -0.14420511302804556 0.10282955551585693
0.15385187806058837 -0.1438192256313481 0.10254467559234479
0.15370913000002379 -0.14349830993517 0.10303888838502302
0.15412691804687956 -0.14317476628515716 0.10263591148282238
0.1540007561074007 -0.1427756367656073 0.10321757603199852
0.15450753231907818 -0.14237719106048105 0.10277313940313948
0.15425656907805815 -0.14223281131503215 0.10330526085704604
0.154656030844011 -0.14156449810615732 0.10338486803977123
0.15530257655675903 -0.14102762602194235 0.10298378118658673
0.1551970059410381 -0.1407312966522859 0.1035240397757241
0.15577443965089102 -0.1403748651394771 0.10307597002581666
0.1555281611061694 -0.1402664751466042 0.10358253976566029
0.15599713448182986 -0.1397064070731935 0.10364773528543977
0.15672451163665535 -0.13916472712005748 0.10330318158090275
0.15644953745305298 -0.13915659907367744 0.10377841778653382
0.15694250629731968 -0.13864363469848226 0.10394342788536572
0.15761869644054005 -0.1381925345807276 0.10370234719264597
0.15741423379000383 -0.1381794745932158 0.10407856638723385
0.1578890564416021 -0.13778415038373865 0.104155309243164
0.15860502588510245 -0.13726038513370595 0.10400011598176642
0.15972184707083692 -0.13659923403311341 0.10347653581170768
0.15921125080842177 -0.13677639962116467 0.1039504752714789
0.15973605248818223 -0.13616273206552837 0.10428074790146298
0.1604635659529205 -0.13564920856458437 0.10397498040089442
0.1602246677621988 -0.13561770821920757 0.10447975773989114
0.1606797807147209 -0.13509017705213994 0.10466772931462999
0.16136894675186986 -0.13461399920864014 0.10422865975686417
0.1613286593453721 -0.1341954988149114 0.10502884108901643
0.16188145612899915 -0.13395169333074675 0.10431497041073598
0.16193572047246968 -0.13347818544742 0.10503648000607392
0.16239228097749775 -0.1331279266763995 0.10460676077345808
0.16236055207623024 -0.13271787106442964 0.10554967528171978
0.162766898678137 -0.13243294039114129 0.10502734046710613
0.16321063071964487 -0.13177887550303044 0.10517026155428723
0.1639680707889641 -0.13089097997784477 0.10468374811437181
0.1638619854581657 -0.13075644477325332 0.10558859133534705
0.16437916488159723 -0.13016268664241254 0.10514406188266451
0.16455122740475012 -0.12971428142699618 0.10602558022457445
0.1648486791914832 -0.1294640430622942 0.10556933028348552
0.16537087739102885 -0.12875735448922007 0.1055869500884954
0.16592213713508697 -0.12773610428518795 0.10607440816260448
0.16643498744276275 -0.12678947204637123 0.10653703626268492
0.16680248241664386 -0.12610215230618643 0.10687854080198457
0.16741349735610192 -0.12530237951798978 0.10612810007282313
0.16716357336956422 -0.1255086780485326 0.10665406859346796
0.16764097911252726 -0.1248725852690063 0.10616287607899451
0.14783900456872542 -0.16448849466337245 0.10409585317345181
0.14767322699451293 -0.16428117490776167 0.10473776664865399
0.14773346130684434 -0.16396296455452555 0.10444342902676311
0.1478586931950908 -0.16331379967560222 0.10392240607117695
0.14762765988686094 -0.16330137640294093 0.10475217460038068
0.1477919328697008 -0.162683627979842 0.1041526361082265
0.14763010322513523 -0.16267716827689352 0.10484612787767503
0.1479450073004987 -0.16263892693620244 0.1033538581238644
0.14776210423556016 -0.16218931150583749 0.1043720710214295
0.14794696773945615 -0.16185840574963783 0.10345895464215484
0.14783009642130196 -0.16166133817357517 0.10423943333872594
0.1479312991843473 -0.16107206207566416 0.10360475663142948
0.14796209372559951 -0.16042458133478674 0.1029810403955545
0.14791889642149986 -0.1604121648524954 0.1037753442020817
0.14801397180075493 -0.1597551794533303 0.10292017615449825
0.14795374539726217 -0.15988674867497826 0.1037550665650113
0.14798121033071757 -0.15916292722603734 0.10350523455042324
0.14814638161389723 -0.15844892930009857 0.10267527133916046
0.14807867201436722 -0.15826669728888187 0.1032687734374567
0.14824507979448578 -0.15777629657705464 0.10256706813888156
0.14813592694747735 -0.15776534739228582 0.10317007356281045
0.14819010906795452 -0.15713499639116513 0.10306117520602663
0.14843187184576084 -0.156475455330376 0.10244606405478979
0.14828924618230122 -0.15625054606522368 0.10304995700067922
0.148490188457748 -0.15578284929865913 0.10246500406922904
0.1483436501682091 -0.15546785082438735 0.10312104351981921
0.14851714647666406 -0.15497481208716846 0.10252641717969846
0.14833196236692342 -0.15461727484495041 0.10323740765134426
0.1485403128738812 -0.15402638497560237 0.10260569369668045
0.14829850459880398 -0.15368174574680726 0.10352106698237237
0.14852617870979307 -0.15310626285665935 0.10293243487583184
0.148368519100847 -0.15277838323491696 0.10359907111514823
0.14868875037657783 -0.1533258789795474 0.10220735677782906
0.14856991588249258 -0.15246142439607163 0.1031544104771841
0.1487721910815495 -0.15244465569962945 0.10250880345913396
0.1486961838847114 -0.15188654217650047 0.10315610954689958
0.14897718493572354 -0.15156344275263256 0.10262645071615423
0.14884520065018272 -0.15121476789741556 0.1032756342479661
0.1492293973581339 -0.15080584028940336 0.10280923233090655
0.14901361959843534 -0.15073828808879772 0.10335677443731282
0.1493232498789782 -0.15016542847201167 0.1034386895867049
0.1498857674671175 -0.14960995747795808 0.1029174218672707
0.14969089555982473 -0.14956819992965276 0.10343877423802396
0.1500942747644958 -0.14901441960486428 0.10342403243063221
0.15063260688871907 -0.14851153561864258 0.10294016363619003
0.15054575200719372 -0.14829992699325184 0.10351292947517095
0.15102706076469294 -0.14789442112482692 0.10303760134545545
0.15082395256586523 -0.14787584034629403 0.10358825290578234
0.15118432379615604 -0.14730982415427699 0.10369452096383774
0.15173846550774486 -0.14670417470637245 0.1033121035422809
0.15163594681721312 -0.14653810160340028 0.10385026518437851
0.1520222106050841 -0.1461314238791312 0.10353240226369874
0.1518744694074192 -0.1461087508947762 0.10393797069353841
0.1521274516380524 -0.1455960892022163 0.10400328636652438
0.15258254052872594 -0.14481415793462704 0.10390822109938334
0.15334801626256564 -0.1438527875826595 0.10337191062854027
0.1530103056740334 -0.1438652772945022 0.10404224117685726
0.15354650643994036 -0.14316529051806234 0.1036901585185434
0.1532929643095113 -0.14278273509279094 0.1046073495189181
0.15394223366932544 -0.1422322886169103 0.10388203456670664
0.15376064500733636 -0.1417850613294737 0.10475727170583307
0.1542740225967988 -0.14137717282461518 0.10426837270186894
0.1547723765734731 -0.14091311064056455 0.10399844791063116
0.15458354397086913 -0.14064386060313513 0.10471254978082804
0.15523666335524441 -0.14024625407061714 0.10411778276151273
0.15512013160797541 -0.13989991520309952 0.10493746861717382
0.15569484709454992 -0.13957284579101203 0.10446984558484548
0.1562413376287077 -0.13914601886415487 0.10424666970664616
0.15599953475930506 -0.139163298356569 0.10470022219517924
0.15642702339474127 -0.13863573512594332 0.1049374977425894
0.15723076116100776 -0.13813694787226583 0.10450989429772213
0.15709835239718803 -0.13797827666674917 0.1051118855719033
0.15768807129203458 -0.13764486236352957 0.10482901301903447
0.15824222209662117 -0.1373202591728304 0.10455670116630825
0.15812044765938005 -0.137143456455123 0.10509448521625517
0.1587944822092631 -0.13678730059310382 0.10465080220678989
0.15848609882835654 -0.13673546544613283 0.1052348541164456
0.15905403743045698 -0.1361928848222587 0.1053971662550635
0.15992799691575693 -0.1356367462012438 0.10499752267536248
0.15963877970450363 -0.1356599642792822 0.10553361314576964
0.1601028967103934 -0.13515584634684888 0.10564013675951056
0.1607243243582012 -0.13466369612278167 0.10536793793475713
0.16051525201544348 -0.1346719593367822 0.10574515731352628
0.16092825817494025 -0.13419049463801636 0.10588460962658053
