# .PCD v.7 - Point Cloud Data file format
VERSION .7
FIELDS x y z
SIZE 4 4 4
TYPE f f f
COUNT 1 1 1
WIDTH 793
HEIGHT 1
VIEWPOINT 0 0 0 1 0 0 0
POINTS 793
DATA ascii
0.16398049846154628 -0.14385683685681797 0.09438384599324143
0.16426617981418934 -0.14300517058670323 0.09448643007653038
0.1645158887596039 -0.1422442268615132 0.0946312180384962
0.16506340888538004 -0.1415293562149012 0.09397606887806141
0.16476828610242053 -0.14149413735001587 0.09476259016775888
0.16517334667621433 -0.14097247892116835 0.09430198655659067
0.16548710650686643 -0.14015107321885165 0.09439869099569434
0.16581513921048247 -0.13931803621337818 0.09448874113138897
0.16600223820857635 -0.1385793663914981 0.0948857779777287
0.16646043672116603 -0.1380802911990795 0.09438351550833034
0.16667695091291249 -0.1373396161513155 0.0947716909336409
0.16741361432162288 -0.1366336635695131 0.09399046617745233
0.16708651137763533 -0.13656208288620303 0.09477687522563176
0.16753491747100374 -0.1360471017362186 0.09441270421520667
0.16790653511679005 -0.13529736423404298 0.09451149474040425
0.16822774401634463 -0.1342029461265179 0.0951022461578109
0.16876146101985934 -0.13387775654659853 0.09446806747630333
0.16912768379437268 -0.1329296886442954 0.09492192356300537
0.16961950305950554 -0.13200775836556747 0.09520067243216301
0.17015414913449112 -0.13169094943065726 0.09475421692839564
0.170330299485525 -0.1309610390648764 0.09532110148750378
0.1711222828409122 -0.1305323115421845 0.09456908860229038
0.17081562540678347 -0.13030925849347116 0.09525859319656857
0.17126229925583056 -0.13003145187862983 0.09486974530219032
0.17158756575519882 -0.1293465129010799 0.09497072051494497
0.1724351638060997 -0.12863138616815675 0.09423573813681678
0.17208319355002286 -0.128560944555621 0.09483034399817002
0.17255936714091538 -0.1279344656194689 0.09453408701417304
0.17220105911089828 -0.12766050340528778 0.09525189226440567
0.17273666492899134 -0.12704354210058091 0.09479877777994053
0.17240294060620712 -0.12660151516285864 0.09554717904083035
0.17289748851648104 -0.12625592352949383 0.09496910783742137
0.17329426177904725 -0.1254396401221554 0.09478635056928623
0.17349071199050628 -0.1244296706710827 0.0949725903792126
0.17364981220227996 -0.1235490686799007 0.09514014051946641
0.1736728431645334 -0.12290970322012883 0.09535303474488348
0.17334478563289069 -0.12273882523616882 0.09583294048371595
0.17332279468047854 -0.12338207213550148 0.09562176846429189
0.17387091341841612 -0.12218347971037564 0.09541216550872739
0.17349557830833445 -0.12179170597073406 0.09603841116202855
0.17402818215196067 -0.12141521508999553 0.09553824631966172
0.1745057400862225 -0.12060672820465532 0.095417542177797
0.17471054050377027 -0.11961057841481337 0.09575877960965055
0.17577099140179087 -0.11912333281508629 0.09492388680603964
0.17533732926479112 -0.11903403152879805 0.09547380255190932
0.17577139147615894 -0.11876993776220736 0.09514472702105628
0.17538059211272258 -0.11869153624657432 0.09566572706921701
0.1557910867008328 -0.1731392985974866 0.09680478016162646
0.15552022013871014 -0.17296131711344095 0.09726019048817798
0.15574261276864207 -0.17276282398827647 0.09681040464638795
0.15541110695611868 -0.17248304710646467 0.097339303633817
0.15561045084463096 -0.17203610965805713 0.09691644429241389
0.15536651033346244 -0.1719878823654073 0.09733616764277336
0.15531454213353343 -0.17132004981415822 0.09729705480575868
0.15536421397701666 -0.17032009485488825 0.09695712627006503
0.1557650209264848 -0.16939667065189595 0.09592084965309752
0.1553652833578264 -0.16902452675767185 0.09681558952685089
0.15575266726633918 -0.16844580094695089 0.09593932062922474
0.15538616576702582 -0.1676919119013178 0.09677181431629565
0.1556967952822887 -0.16744050315492723 0.09615275280158916
0.15586343682908285 -0.16701543326942683 0.09590569727823259
0.1557009295507398 -0.16693718165950425 0.09625765533823355
0.15573069895611982 -0.16641361796159587 0.09630743200439919
0.15588352208900022 -0.16543878175079582 0.09624283554803245
0.1559567746751684 -0.16462275938239737 0.09626493463940806
0.15636867928816653 -0.16403855618679425 0.09555668570344475
0.15605704864381073 -0.16389498577330244 0.09625099495198636
0.15631814213481096 -0.1634194998148048 0.09584436298358462
0.15640139770557848 -0.16267037896494901 0.09586897503849509
0.1568153193811743 -0.1617426873216112 0.09529348999883754
0.15648205652122368 -0.161511867905608 0.09608089511638863
0.1567579647051773 -0.16109740426282373 0.09564855826391648
0.1568586007994194 -0.16026555674234366 0.09580407909960187
0.15743047761763318 -0.1595500727876581 0.09511094832555773
0.15710808378310942 -0.1592844397107039 0.09580188652820226
0.15742733397159822 -0.15892676105172768 0.09546154393946611
0.1576447267457237 -0.15814287207407887 0.09562910439799024
0.15848887827687755 -0.15738387367693452 0.09493046473293595
0.15808036890540322 -0.15717626710478444 0.09562113490726236
0.15849892959155293 -0.15677737173671516 0.09531766730233414
0.158729997086748 -0.15644399952912916 0.09522554018589083
0.15855240289105316 -0.15637801067772567 0.09549762775734735
0.15865350008328424 -0.15596726221739757 0.09562109829377818
0.158967621559194 -0.15521038143277655 0.09566463885815334
0.15984467508746905 -0.15447345052959832 0.09486382538797081
0.15944522082516407 -0.1543448570759241 0.09552251650281914
0.1598525140341271 -0.1538822749198413 0.09519828915990593
0.1600366049281904 -0.15302624187876987 0.09539426493502456
0.16023200836328674 -0.15220714116070697 0.09556446286719034
0.16078175570220898 -0.15160843533671917 0.09506246414393253
0.16041898579355762 -0.15140482699731936 0.09575311311345343
0.16081565348313562 -0.15100628125737364 0.0953791086791864
0.16103615459452295 -0.1502245567402772 0.09554795455133738
0.16177070260486753 -0.14948565615631307 0.09486303640069763
0.16144809788087325 -0.1492486709356004 0.09557026484392385
0.16182846299742307 -0.1488651603529949 0.09520783306378801
0.16210016704217414 -0.14800806245091588 0.09534420257626183
0.16229572883201235 -0.14718828669821507 0.09557592295502433
0.16279961526528203 -0.1465237492759265 0.09501263428997724
0.16249499337446613 -0.14639972949080346 0.09574733166580549
0.1628684119681796 -0.145927346423774 0.09531547589643419
0.16312867910819798 -0.14506020842447467 0.09540560377283513
0.16334662631542066 -0.1442571544951061 0.09555776358163795
0.1638738255363675 -0.14354154613802192 0.09494776713751972
0.1635782517355085 -0.14344812950876393 0.09572099485450372
0.16396585255878104 -0.14294594426553162 0.0952788096052061
0.16426464830980816 -0.14210100617603486 0.09535664306237587
0.16451953801283678 -0.14136257587746062 0.09547569294992012
0.1650744948367847 -0.14068212294566668 0.09485353942168426
0.16477395595369204 -0.14068483021501602 0.09555525585817855
0.1651730174942967 -0.14010949561164238 0.09522044162231308
0.16550030340468036 -0.13926929882327832 0.09533257847308924
0.1657807600144007 -0.13814669922468495 0.09591741504293172
0.16627129103446048 -0.1377198272143358 0.09526501421588164
0.16657388703453105 -0.1368115108157108 0.09564044818111825
0.1670019804974915 -0.1359103395176428 0.09572702572461238
0.16741598805920327 -0.13565310477930034 0.09511337856297257
0.16768861127520424 -0.1348298103772219 0.09547301586357063
0.1678403022670124 -0.13398616389378493 0.09606943557740356
0.1686388665897865 -0.13341323413419412 0.0952322318643653
0.16833005001260057 -0.13319609071503133 0.0960004906612593
0.16876233677195845 -0.13283127288786933 0.09565799216355599
0.16908039425166219 -0.13211107178321746 0.09590182583649466
0.16995075548628705 -0.13137735699391173 0.0954404213735869
0.16959261879699347 -0.13126964483474396 0.09602948084104013
0.17001999802550255 -0.1309106693274402 0.09583596121419946
0.17029791925982218 -0.13027509380431754 0.0960432892400498
0.17115125856465127 -0.1296706260468456 0.09536890218001498
0.17081536492513655 -0.12945676107694845 0.0960147882796471
0.17127785591894967 -0.12913472551227548 0.09564232321010412
0.1716373298652026 -0.1284073683419444 0.09563466136240978
0.17182149483365045 -0.12734635378176398 0.09601171805783096
0.171939127682863 -0.12638655460644974 0.09632911729338148
0.17278566856086655 -0.12579936934564234 0.09535796890446006
0.17243252874649995 -0.12566249097328316 0.09593785201037451
0.1729335114834263 -0.12502474748098003 0.0954684263729243
0.17256965590620288 -0.12469526669350171 0.09612065051066754
0.1731218988754946 -0.12411078129993955 0.09558602601248181
0.17282574430823716 -0.12359141016442249 0.09618546431784368
0.17291961117704094 -0.12258861635733508 0.09643546141148604
0.1730366459871797 -0.1218014501879313 0.09665010114090064
0.17388819110149645 -0.12096534259705649 0.09592174246920801
0.17345991096010652 -0.12090230637823164 0.09659407696901763
0.17408892046470717 -0.12019073606859215 0.0961430494963048
0.17382416175846258 -0.11977657579324749 0.09692428651129717
0.17432410064543977 -0.11945356284934142 0.09635886273305201
0.17480498997264957 -0.11896244837542334 0.0962010145035886
0.15517142804963735 -0.17257757490401565 0.09775529300290228
0.15478884076055438 -0.17218376672036528 0.09833876304596724
0.1550767506092817 -0.17196496376736742 0.09782240928093543
0.15463415610854098 -0.17158082952434933 0.09860609369608257
0.15491376429090464 -0.17104943363126124 0.09804248745870872
0.15506336407485863 -0.17046288429859172 0.0976219743971425
0.15473114334823046 -0.17002067364225584 0.09836779768664021
0.1550176933770066 -0.1695697895811184 0.09760267643126234
0.15467121408599674 -0.16890150215948013 0.09831232199948949
0.15493353963508952 -0.16867394332753438 0.09769624136143912
0.1549721571245017 -0.1677609814169788 0.09768273236348086
0.15550871483101333 -0.16689032191604192 0.09665176034731204
0.15514083798273665 -0.16664411585176042 0.09746397346941128
0.15543004805822716 -0.1662150414875643 0.09695047673491063
0.15558112995974674 -0.16581913864704495 0.0967447910562411
0.15542907279118695 -0.16576464230835075 0.09707702589774356
0.1554666700265773 -0.16527409426923637 0.09714179209091658
0.15562542271329677 -0.16431209227530544 0.0970529254129083
0.15576805249668968 -0.16316038353704465 0.09711013671560724
0.1561028229990077 -0.1629212911047594 0.09646587883015834
0.15614044042188782 -0.16202599613039004 0.09666068940599849
0.1560913648920701 -0.16108190449434576 0.0970765019819708
0.1565877582349925 -0.16062052993230566 0.0961785868777904
0.1563061797076492 -0.16029323649595928 0.09689710228978894
0.15656969809712754 -0.15996876062494433 0.09650973789315036
0.15667497473853653 -0.15918810240010717 0.09665526538796616
0.1572679197981279 -0.15849246733557168 0.09598151844895388
0.15695297580499296 -0.15823477094751695 0.0966450639725518
0.1572865833194493 -0.1578938480859083 0.09630898482225532
0.15750891873442172 -0.1571593214554381 0.09643103278137169
0.15833270301007935 -0.1563826796497222 0.09578609686847053
0.1579194048726206 -0.15627718554765455 0.09641460756783132
0.15831994713054656 -0.1558176223671547 0.09617141265212831
0.1585584026910705 -0.15546628884979538 0.09607763089175754
0.1583668135778219 -0.1554273060745794 0.09636809040855206
0.15846677947803983 -0.15499939689403364 0.09648422100361788
0.15890093637748826 -0.1543438875362075 0.09627524336947696
0.15961429436233293 -0.15357736464929206 0.0957194886448797
0.1592478014980674 -0.15373904692734092 0.09614818654615924
0.15942465764931116 -0.1529425891335417 0.09633775358876658
0.15987279315268155 -0.15202093368100222 0.09621301643165725
0.15998746713809175 -0.1510524245359262 0.09661421158821996
0.16067494753427747 -0.15060143979006024 0.09586359637291711
0.16036885509773927 -0.15040426299216123 0.0964638577224169
0.16071003492177213 -0.15002273717821876 0.09620194598560436
0.1608988207753708 -0.1492318896665695 0.09645163452696437
0.16170071825826063 -0.14843757036925956 0.09574258886573171
0.1613614283242583 -0.14821483849525702 0.09646679935271167
0.16176765529287604 -0.14782254159657152 0.09608825844618277
0.16202597764247859 -0.14700106910261782 0.09622413382190392
0.16223201868587786 -0.14622223341908824 0.09640142484992145
0.16275416125520906 -0.1455536084128268 0.09584975663845356
0.1624412589731338 -0.145379526452836 0.09659802562907643
0.1628338814205399 -0.1449292518277791 0.0961602379341837
0.16310261928941489 -0.14407370095051347 0.09624310625395527
0.16332530969255388 -0.14327804928489007 0.09640332643237856
0.16386134594643667 -0.14258505107917888 0.09582801236333288
0.16355944283264542 -0.14242777887625774 0.09660022418198734
0.16396185252065829 -0.14197297159613465 0.09613761227635628
0.16427886841106634 -0.14116227340800025 0.09619319920972225
0.16460732135081696 -0.14020970744676073 0.09638913770960791
0.16501496284038789 -0.13976406737969033 0.09593440792481227
0.165220747787133 -0.13880262051235934 0.09644540458193396
0.16550785371922286 -0.13803689235710845 0.0966329623671933
0.16614283794648563 -0.13734473037031067 0.09601392419588442
0.1658146771608334 -0.13722485152218938 0.09685101352522885
0.16626604512828508 -0.13676523545254854 0.09640157706570146
0.16658670830187552 -0.13598077267402622 0.09656126434589868
0.16731463555739778 -0.13523385698488 0.09580790119740741
0.16703334360222777 -0.1351587407933568 0.09648203563691041
0.16743588078095306 -0.13457175238107955 0.09627341351952753
0.16718360603718888 -0.13424933945431777 0.09711634365965427
0.16755367410140745 -0.13391371943101332 0.09671639967433425
0.16785206806006922 -0.13316804554895684 0.09688327707859888
0.16866106715602022 -0.13247337519739907 0.09619886598144627
0.16836490757408526 -0.13227763630820644 0.09686446900334386
0.16877335413992614 -0.13194865687055637 0.09654897140028293
0.16907355391256063 -0.13130174029040095 0.09671667222091555
0.16987953254767701 -0.1306328115199453 0.09627586537169518
0.16952900570417082 -0.13054224956911908 0.09678681939449488
0.16994221115397026 -0.1301497687304625 0.09661749170145262
0.17021947858613093 -0.12941602907816413 0.09682932743329238
0.17116353963840614 -0.12872070694171986 0.0961071756013302
0.17077110411119312 -0.12858203800943363 0.09670260924090719
0.17128572889054977 -0.1279542202995681 0.09641485161177098
0.17088539143829085 -0.12758842831794567 0.09714804288556454
0.17143772260680837 -0.127008455549977 0.09673479885523881
0.17110001348598175 -0.12649884780068046 0.09744536716984466
0.17159236272594078 -0.12621947549079496 0.09691518947287169
0.17198361067883738 -0.125426515761373 0.09669022162171016
0.1722048201410765 -0.12432042730926551 0.09680080845317644
0.17239102492722674 -0.12329651616613574 0.09693064817154426
0.17256994798064668 -0.1223417737655304 0.09708300333063491
0.1728290641159482 -0.12142856838675271 0.09721533182249646
0.17318206418349788 -0.12047946902756831 0.09742882051368558
0.17348392863645154 -0.11959872902010182 0.09782271466147337
0.17431164856629855 -0.11909446984092169 0.09678386754495713
0.174004001377387 -0.11910359110362508 0.09741995963315549
0.17445691868435842 -0.11883947508282497 0.0968764245322285
0.1544312193722253 -0.1719355079270098 0.0989899556170248
0.15432122400799164 -0.17152040181659406 0.09921795091887307
0.15462081277986658 -0.17078908458528155 0.09865107449048884
0.15439782347714834 -0.17102146075898778 0.09907770358727608
0.15434502579775006 -0.17019250394008592 0.09922112272960003
0.15433157384165616 -0.1690778240369599 0.09921665674823113
0.15470751273938918 -0.16814576624789995 0.09819558977020978
0.15440504809449454 -0.1679392021795826 0.09896912789508472
0.15462510633348023 -0.16751253334337207 0.09844189231164428
0.15467574441721416 -0.16664303017252474 0.09847844449866067
0.15524945243117064 -0.16575484237225313 0.09745730426442563
0.15488588389413172 -0.16554237215713904 0.0982982450969283
0.15517753575710005 -0.16510002500840093 0.09780158896060534
0.15531981240553128 -0.16469989207269672 0.09759061600350338
0.15516762430797917 -0.1646477902045478 0.09794154722523159
0.15520690064320541 -0.1641186773427961 0.09800953769548018
0.15540481691955862 -0.16329554623859896 0.09786651004779383
0.1558842638930993 -0.16237243751758473 0.09711361301135119
0.15552212294820628 -0.1621672038756116 0.09795254666845211
0.1558610827737266 -0.16160592063544996 0.09742372172266008
0.15561719427112877 -0.16113817502569502 0.09809094628973385
0.15584316341496335 -0.16089991051919575 0.09768671403679083
0.15590666348506835 -0.16017593096874896 0.09776095237408654
0.15641069341705638 -0.15951806381686218 0.09701721105136753
0.1561159624945323 -0.1592493665665507 0.09769382192843301
0.15638292262731893 -0.15891284732413222 0.09732992021793299
0.15650716769896475 -0.15815207568196948 0.09746217609759325
0.15713345199682136 -0.15746903603518433 0.09679523140730452
0.15681906968397416 -0.15719923387354623 0.09745398131674451
0.157174262080218 -0.1569009528198491 0.09707473359682325
0.15742514065127963 -0.1563182641205785 0.09705800113816143
0.15811126835687 -0.15549443974374666 0.09665533019037864
0.15771830126050687 -0.1556846614821661 0.09705294960739087
0.1578926259957486 -0.1548392645237955 0.09732102889184706
0.15843431626147764 -0.15429958545882275 0.09691983435775116
0.15810969812456116 -0.1538179109268594 0.09760364093978001
0.15879483389173793 -0.15352829922534153 0.09687033530706134
0.15845366526113522 -0.1529883251201746 0.09761638399520019
0.15895401730284012 -0.15261399083390018 0.09716216593201055
0.1593723232453469 -0.15214645242606806 0.09685035853248146
0.15900184427475983 -0.15175312002373714 0.09755337402542068
0.1595464274170232 -0.15143366599394759 0.09700340270957752
0.15929020367726593 -0.15089202907324664 0.0976489560450578
0.15968511161523927 -0.15079297292269947 0.09718336135187457
0.15995933282848823 -0.15031938644581835 0.09709386006364157
0.16052818646915482 -0.14970036006796797 0.09668712187146648
0.16022583555115777 -0.14981058104868 0.09704080357882318
0.16038748004580483 -0.14908955002187077 0.09728993851305798
0.16077023009910849 -0.1481627191424591 0.09738732850849213
0.16163013962495615 -0.14740963526853507 0.0966188266093233
0.1612705006402047 -0.14717326249019994 0.09734333803941671
0.16169318431440824 -0.14680423637179937 0.09694316811895805
0.16195643513915467 -0.1460591466919923 0.09701488822354132
0.16205884957381053 -0.1450334282140109 0.09754836702600336
0.16273206943250842 -0.14451276015263173 0.09667132447815797
0.16246293834149422 -0.14424244439487094 0.09737243586126733
0.16281634976149778 -0.14389149369076074 0.09696210129195741
0.16307075598290668 -0.14313539269020678 0.0970197966418809
0.16318813296751178 -0.14209837885641946 0.09756243094829682
0.16387959454798953 -0.14157157740412782 0.09665912299354563
0.1636281987945581 -0.14129202885466668 0.09737154048150642
0.16399214120101957 -0.14098913375345143 0.09692806013026858
0.1642496924154637 -0.14038565288839572 0.09694623773403781
0.1648187292507431 -0.13949375462021113 0.09662859825306575
0.16451804922147462 -0.13974099201534254 0.09700546247322116
0.16472689850932795 -0.13892268960631846 0.09733024882416894
0.16521574141361936 -0.13793132479071277 0.09732855441895988
0.16544947864253173 -0.1369268283352098 0.09787343225239403
0.16619608250741297 -0.13639624980640777 0.09696228085488054
0.1659419502396844 -0.13614714248832036 0.09771622313345121
0.1663426161615621 -0.13578530669049782 0.09730499896784499
0.16668220053802996 -0.13494237291395073 0.09745021399457304
0.16693338580632128 -0.13414788998323854 0.09772491239560702
0.16746822333627454 -0.13355047517774968 0.09724748748479319
0.1671831943292106 -0.13339977629285896 0.09795345503596331
0.16757221552382603 -0.1329976096347227 0.09758255405757739
0.1678786956856852 -0.13224263509001885 0.09772631135446001
0.16868547246840898 -0.131591959190948 0.09703210699875993
0.16840948540841988 -0.1313597711073688 0.09766626325068063
0.1688028083967439 -0.13109334859684618 0.09731622446747876
0.16909624503505788 -0.13057676684498257 0.09734091019232924
0.16975678375790718 -0.12987061268451658 0.09706857875616919
0.16941329414059858 -0.13001732181911518 0.09738449542419697
0.16965669522875737 -0.1292497035329178 0.09765488713068342
0.17023850139903848 -0.12829136429238533 0.09756077446941554
0.17049562284061054 -0.1271530036759728 0.09790688308749142
0.17066606146067118 -0.12619617109900758 0.09820588576500601
0.17149998918899392 -0.12573334300394035 0.09726582452195835
0.17116287193320043 -0.12554589563018817 0.09783260133321117
0.17166382855842374 -0.12493905412038374 0.09736560047325679
0.1713223720250592 -0.12459465429310768 0.09804741479242723
0.17185271867924576 -0.12395464971251167 0.09749345144472216
0.17153911614003595 -0.12360130142301141 0.09820331717029168
0.17205705016474693 -0.1229659689063161 0.09762578633131676
0.1717862764342578 -0.12260899577476948 0.09836338818796898
0.17230678729893933 -0.12201064739134643 0.09776857615145867
0.17210372293332254 -0.12165706209672833 0.09850454019146324
0.1726146994423544 -0.12108079181663758 0.09794689942083513
0.1724614088458074 -0.12076411023663525 0.0987076595436629
0.17297595552108527 -0.12019081066974195 0.09822521904432532
0.17289546335933545 -0.11984188782824273 0.09908117003359349
0.17328415647225698 -0.11948068874090287 0.09852600523079218
0.17368525420303013 -0.11889410941608233 0.09857029157668899
0.17385913869592745 -0.11828624039170568 0.09922885735703134
0.15421607979486704 -0.17161164065159604 0.09942470848876875
0.15415415436724347 -0.17080714674245864 0.09962367801412084
0.15386698987149672 -0.16992962876318735 0.10034396119794621
0.1540324823525377 -0.1699391212187468 0.09990693397338467
0.15413124794008357 -0.1695259786136324 0.09966891238082441
0.15398546339605443 -0.16946274716056006 0.09999801551110261
0.15398910656780793 -0.16894858351627065 0.10005823793002915
0.15401928147541843 -0.16799794244040445 0.1000250460634943
0.15442283770278642 -0.16706602467220866 0.09896047693795265
0.1541299159802995 -0.16686377431597343 0.09976152752053917
0.1543581930546228 -0.16641199762952555 0.0992502359569873
0.15442128180792042 -0.16556301912806617 0.09933171329386253
0.15498890455846914 -0.16462665052910458 0.09834586339145965
0.15462360269753722 -0.1644409570515152 0.09922087886657223
0.15490562125131166 -0.16384860883863733 0.09878597947971708
0.15510789537931624 -0.16337263757872397 0.09848878222261526
0.1548444879984443 -0.1629416220194432 0.09918644205966197
0.15517343160748062 -0.16263519225114223 0.0985807692283645
0.15495451914291597 -0.1620815962506665 0.09925163243736779
0.15520317484164373 -0.16193450001785006 0.09874359541557945
0.15529040388119775 -0.161241245304324 0.09874562723810366
0.1556973143564653 -0.16052538671411107 0.09810878148407061
0.15545097626891258 -0.160424381376765 0.09865800572403613
0.15564099737141252 -0.1600088722962177 0.09837684955491001
0.15569225649213336 -0.1592295782241284 0.09855844865175738
0.15622718652671716 -0.1584743514044845 0.09782588547241379
0.15592895898458234 -0.1582104535418455 0.09851985276341169
0.15620992302079512 -0.15788095144413464 0.09812463093482346
0.15637556744053752 -0.15720711505808246 0.09817048324582792
0.15704855803331583 -0.15640136503741273 0.09755543179348522
0.15663216439057828 -0.1560743040325394 0.09838519751144223
0.15727800897605082 -0.15554893635014658 0.09773693728484216
0.15692105753044364 -0.15490577980474968 0.09859460275153127
0.15738448375602415 -0.15465459524604375 0.09808432277979891
0.1576706086938615 -0.1542503754988867 0.09792760837302163
0.1574411430398624 -0.15420368777921423 0.09825063330838205
0.15757848169913302 -0.15372831336041554 0.0983369673697216
0.1579642929024183 -0.15308834232357607 0.09818762920905053
0.15861956335325458 -0.15234334682496065 0.0977426708768669
0.15825851218820358 -0.15252745904828546 0.0981091109751501
0.1584069816541425 -0.15182441002268332 0.09827406262144081
0.1587772624371719 -0.1510487793761453 0.09821787774027908
0.159582025260752 -0.15032250983789536 0.097592277398413
0.15909254506195494 -0.15005895825999696 0.0983715089693033
0.1598371325985673 -0.1496093692674034 0.09769538347943331
0.1595166005696744 -0.14898913900981162 0.0985033205335161
0.16003800704439827 -0.1487731926902689 0.09798464478775852
0.16034923886255478 -0.14843202249769605 0.0977999546544493
0.16016563294880884 -0.14832567939564387 0.09812049860911641
0.16031951535274386 -0.14787402628251287 0.09821435341668663
0.16073185155786734 -0.14717040116462188 0.09813444657483683
0.16154628488570147 -0.14634532941073428 0.09750127660868725
0.16110650918711664 -0.14610175367327916 0.0983295451850032
0.16165439446077168 -0.14556839225190427 0.09786403862932608
0.16141917041629913 -0.14502438257417832 0.09859177618360566
0.1617757289984791 -0.14482126820508703 0.09817615392095472
0.16202759205013628 -0.1440912329455129 0.09823921511654457
0.16271629810478247 -0.14345393335808476 0.09746453847157817
0.16242537206954966 -0.143292187244872 0.09809162429531938
0.1628017201517155 -0.14268691005671322 0.09784390143068739
0.1625105101890903 -0.14222094875967875 0.09867545928228486
0.16289800686172326 -0.14191568449349148 0.09821985804647372
0.16319077672822987 -0.14112823842535602 0.09828209299112077
0.16393809818405553 -0.14052785702967022 0.09741334561705943
0.16366404863772271 -0.140296378747874 0.09809146255856738
0.16418097164698642 -0.13966601691540118 0.09768551960943578
0.16382467350310095 -0.13912243220176712 0.09874700491307967
0.16436407594060398 -0.138635504497661 0.09822839651964686
0.16477194184560823 -0.1381263950761056 0.09796238620535606
0.1645513034549277 -0.13769698147674025 0.09872632102099502
0.1650121774482341 -0.1373914926056392 0.09821605043137091
0.16487590740613592 -0.13687266921609795 0.09892015436115881
0.16519967903890953 -0.13672506438736276 0.098517518771814
0.1655027719726429 -0.13604872853138206 0.09862534062423277
0.16627607197124006 -0.1353780715867335 0.09784828748917285
0.1659910352562862 -0.13516946460424367 0.09858079738642692
0.16639424017961635 -0.13478155089959543 0.09820697256517714
0.16669329600129643 -0.1339674860164534 0.09839925002760616
0.16694318398759417 -0.13320327709977475 0.0986314758755186
0.16748461570308606 -0.13262337025268117 0.09811146498705259
0.16719410322442524 -0.132443353302754 0.09884146591594302
0.16759528803305157 -0.1320366526982811 0.09844090059843036
0.1679280639480299 -0.1312678043410475 0.09853991630472483
0.16876193483175392 -0.13066158453238658 0.09775539997660151
0.1684655796213127 -0.13044103622256722 0.09838044771775759
0.16903930133924672 -0.129874563295466 0.09800511070933669
0.16865018121254674 -0.12933104416197228 0.09897075961947581
0.16924124761630105 -0.1288867321558494 0.09845636574027487
0.16969993581389642 -0.12841334224097783 0.09818255607536264
0.16943112685094763 -0.12802472609380752 0.09878792356847435
0.1699338746422121 -0.12761235269109467 0.09837820272839962
0.16961296554832594 -0.1270763250588254 0.0991425699421071
0.17016806139764543 -0.12669656177192154 0.09861532556673931
0.1699677242551698 -0.12614181042577655 0.0992328180594455
0.17036168022474454 -0.125962063084174 0.09876868243413851
0.17075134554578417 -0.12525710676470964 0.09859091765781776
0.17100232769097207 -0.12421949857703776 0.09876261152109307
0.1712668579936177 -0.12323528819868784 0.09895334527572729
0.1715787593888367 -0.12218127995022315 0.0992165620616444
0.17200937939103872 -0.12130506115231658 0.09915011618060918
0.1723255415066812 -0.12056161935455453 0.099501213403064
0.17268151883047006 -0.11984448766635519 0.09983271305034665
0.17336087296994965 -0.11909529174809053 0.09907519144306519
0.17313738016604263 -0.11907080881341245 0.09982936506679997
0.17364943068527086 -0.11849989687203198 0.09945094735948169
0.17345383191182934 -0.11837646514363782 0.10022955922631682
0.17379899593722045 -0.1181497925747742 0.09968397656067543
0.15384883291251666 -0.16940632771910452 0.10037521196907224
0.1536194393663905 -0.1690336393344623 0.10100796929080702
0.1537501055584435 -0.16878040581530088 0.10067842655114638
0.15383203121732425 -0.16838495510985532 0.10048595249241833
0.15370590179714314 -0.16834808389014405 0.10080892232318314
0.15369329162658638 -0.1678513920406602 0.10088626587334415
0.15373585085988614 -0.16691827138533888 0.10087083703613134
0.15416533755506173 -0.16599452705686954 0.09979356014193307
0.15386232251706958 -0.16580949473974532 0.10058226174373604
0.15410711890612702 -0.16536877375056652 0.10010398960003992
0.1541661258637772 -0.16453351750651293 0.10020408130982761
0.15465198088017817 -0.1635322525362061 0.0994316006061349
0.15433730610322483 -0.1634649388681504 0.10014220046581193
0.15455740738547438 -0.1629542064866192 0.09980823014942676
0.1545981142579083 -0.16218072723606586 0.09997030079453564
0.155060668154061 -0.16151453125887827 0.09918400184317347
0.15479984820837864 -0.16127660477230873 0.09982382759242578
0.1550435554621658 -0.1610152971900017 0.09935387812444517
0.15515546944069303 -0.16047779120222033 0.09926901177305476
0.1554729998091574 -0.15972141841132925 0.09884250268762591
0.1552682329398459 -0.1598869271408289 0.09921521014427302
0.15530437283345302 -0.15910926444657733 0.09944600340005105
0.15552056098247719 -0.1582263633172703 0.09933722985667315
0.15605760399439417 -0.15738585332208668 0.09864430416673414
0.1557145568195788 -0.15707653416400746 0.09948908041211595
0.1561296911169864 -0.15658071060089088 0.09893469841883694
0.15589665790424515 -0.15598188193536694 0.09969942316606206
0.1562049314794738 -0.15579211635757684 0.09922610131069351
0.15638940335398235 -0.1549902853343591 0.09935496470377421
0.1571922432738077 -0.15416401362699167 0.0986110673133984
0.15674873447061963 -0.15397775651739962 0.0993498845962223
0.1571897778296797 -0.153470106333106 0.0989884982974025
0.15755737833163128 -0.15306953505679757 0.09871685601789976
0.15726040722512524 -0.1526488311402071 0.09931827415537271
0.1578447284384381 -0.15236148713884237 0.09870924403984946
0.15752019657790547 -0.15178091474388264 0.09941023247230235
0.15799436383212676 -0.15153371363884172 0.09892911614675284
0.1583560472721459 -0.15118268686483177 0.09866099534075227
0.15811924147035 -0.15090101186283023 0.09910057763646278
0.15849416046848272 -0.15060530026874433 0.09879848239682998
0.15822653703508444 -0.15048558429226652 0.09918997674764359
0.15840341535323232 -0.14998137937156766 0.09925830199071657
0.1588122631074088 -0.14910893388469476 0.09928560062428925
0.1598999975156991 -0.1482814889103232 0.09848508230470489
0.15937434387249144 -0.14818794785439737 0.09919765128989728
0.15991622831944832 -0.147628408266036 0.09890171498756978
0.16030987374456226 -0.14720381454889314 0.09868612375636103
0.15997361432991963 -0.14685582162851177 0.09935140978352476
0.1605337638385507 -0.1465445666289155 0.09884024309405351
0.16029401243935867 -0.1461005817656678 0.09945790855042705
0.16068494604446273 -0.1458773306686341 0.09909173609356813
0.160905242959718 -0.14512468843795773 0.09927367472275347
0.16167061279977332 -0.1443794041317694 0.09863755713262078
0.16133656323043286 -0.14415456720780967 0.09928109993839013
0.16173754743969765 -0.14380637668690624 0.09890248046060046
0.16201398360458794 -0.14305309413940004 0.09894301278110099
0.1620881354180153 -0.1420022610335421 0.09951921130211283
0.162808250816773 -0.1414474898212201 0.09870995622464175
0.16252416503508302 -0.1411629372344858 0.09938878958915975
0.16291660079706383 -0.14082368131784476 0.09897434836368837
0.16324035704905687 -0.14003291072052257 0.09901313577835981
0.1633561893199527 -0.13893315483938845 0.09965806364403455
0.16415583956117813 -0.13823218041037158 0.09892581653168332
0.16381885628662293 -0.13804439506379035 0.09961755621102354
0.16421874284562518 -0.13763953371564888 0.0993214628812284
0.16446369178066597 -0.1369240167678624 0.09953996842618411
0.16514605941560875 -0.13632738704550454 0.09897922740528792
0.16488706746589768 -0.13612413836897733 0.09957916581420681
0.16524592442874206 -0.13582826887606791 0.09927463475251706
0.165517504468853 -0.13514057929154033 0.09944865444720556
0.16629933317418705 -0.13439847387339343 0.09876014907608432
0.16599842207211352 -0.13422576882053902 0.09947221768040268
0.16640041459393953 -0.13381115159180068 0.09913043951069059
0.16669234069471606 -0.1330023580143415 0.09932854860947916
0.1669365743035371 -0.13223023347569662 0.09955273971390133
0.16751236427470959 -0.13163503294745516 0.09896948061810151
0.16721130049236796 -0.1314483582700642 0.09973117010913748
0.16764257664249482 -0.1310196601355824 0.09927610341016244
0.16801283555225985 -0.1302112630631367 0.0992954692258916
0.16817699965866528 -0.12914030937542031 0.099865869354381
0.16900914577744136 -0.12845589056618328 0.09907033617011403
0.16864732235630792 -0.12835983354020555 0.09967520279789675
0.16910726092179942 -0.12770973284735646 0.09943577948577115
0.16878103129174027 -0.12735496344455052 0.10018776175267943
0.16921985960756228 -0.12701138253088962 0.09974376678796701
0.16952321826900285 -0.12632782811326315 0.09977677676035412
0.17029122054562465 -0.12548161632885632 0.09916717598620615
0.1699115171823818 -0.12526697122562247 0.09991335144539744
0.17048969316112622 -0.12474321126393656 0.09931014274807312
0.17030890963851952 -0.12431438680141167 0.09992920169973561
0.17075203136400427 -0.12383817918570734 0.09948084780198034
0.17052287685596504 -0.12352602598524066 0.10021109131291643
0.17101694543106224 -0.12293441774818688 0.09972494011866727
0.17081569649244052 -0.12259152068259906 0.10053777288710426
0.1712584802475451 -0.12217176500727561 0.0999758063516577
0.17173186032952995 -0.12133205993172198 0.09993235662645711
0.17223507968179017 -0.12026711065397501 0.10041012637012456
0.1727279626259334 -0.11946333735168987 0.10039533524513217
0.17301847708225193 -0.11877086419230257 0.1007547981798712
0.17315425377783863 -0.1182519812599278 0.10117043884187876
0.15356943750354618 -0.16835503833321655 0.10117815587734968
0.15323774482060284 -0.16811866515111015 0.1019504278984879
0.15344473542905843 -0.16773516370062577 0.10152927831966332
0.15353986994745397 -0.1673120792483146 0.10135575152051474
0.15340071096740404 -0.167317728053841 0.10169483022550511
0.1533398314728 -0.16682848916114387 0.1018087741319029
0.15338975108604225 -0.16584866721964409 0.10166375185935075
0.15393673717988907 -0.1649773838372442 0.10063612753829251
0.15362198578471029 -0.16486913401962153 0.10135103333901127
0.1538588426864796 -0.16439109918413003 0.10094368383942165
0.1538885432702841 -0.16357461618381908 0.10106737387204712
0.1543809298730071 -0.16266084954777335 0.10030674974534141
0.1540969134892598 -0.1625964621511154 0.10095201301076495
0.15430855385256728 -0.1621039263610658 0.10063317894925973
0.15436513830685958 -0.16126900802692345 0.1007734637912866
0.15492689389043973 -0.1605679464686022 0.09976607355942381
0.15464322921331466 -0.1603588772384398 0.10048073913392586
0.15497295121499713 -0.15976232597621454 0.09991840219805444
0.15459102108506323 -0.15927801054554078 0.10098339055673261
0.15495855701232197 -0.15877158755095708 0.10034063264016514
0.15521054079650293 -0.15828306183340413 0.09997966677038159
0.15496805375538683 -0.1578430637059172 0.10073716457698098
0.15531179286363694 -0.15751269889400352 0.1000995433108298
0.15513691978089256 -0.1569488645265424 0.10083662202779803
0.1553942085080364 -0.15676216214286479 0.10032477834365365
0.15554730998116204 -0.15601074126799516 0.10043518989264025
0.15605245505571183 -0.1553343642108609 0.09973912497503334
0.1557906446001704 -0.15510390769984428 0.100387718903951
0.1560601150005892 -0.15477569978497027 0.10002397553505113
0.15622996278863682 -0.154034817167878 0.10014442346498151
0.15690556787911633 -0.15316746438456177 0.0995469093551772
0.15653576727306512 -0.15305788771758558 0.10017283691330275
0.15687033999647168 -0.15263317072135155 0.09987277744952679
0.15704779139054834 -0.15198029448169612 0.09994671502757424
0.15776042184771727 -0.1511361471579982 0.09943246618239208
0.15730842082114527 -0.15099343084934128 0.10010431704828004
0.15790980187104023 -0.15047208282898894 0.09959815367303174
0.1575953413342902 -0.15006103850051533 0.1002245851952561
0.15801637707641894 -0.14977544970760723 0.09984517793253997
0.15830783257997671 -0.14942268397538716 0.09969299342328472
0.1580938194221471 -0.14937140360808926 0.0999803200019725
0.15824420509941722 -0.1489333164684003 0.1000745404272579
0.15874610318982915 -0.14828098112834956 0.0998873630862849
0.15954932136426175 -0.14744702239492488 0.0994804441014369
0.15912934270074622 -0.14767653977143347 0.09982925421356138
0.15930047907364114 -0.14694768891933016 0.1001111986491689
0.15980783787189506 -0.14619101968131426 0.10000138498335923
0.16050077913372193 -0.14553724429023476 0.09956169658576913
0.1601587883472406 -0.1456416482036031 0.09992935283610183
0.16037830780584467 -0.14497062831438945 0.10008275435836969
0.16081016856894711 -0.14422555767676015 0.09998497180552313
0.1615901372492233 -0.14335848728003553 0.09941234275937096
0.1611410704552036 -0.14318050831173718 0.10018685379008044
0.16167981835259299 -0.14261058292258794 0.09976053853796514
0.161433479902794 -0.14219566037196527 0.10040698876618231
0.16177171600666496 -0.14188775512519464 0.10009845136483059
0.16201454999365145 -0.14109440859563613 0.10025527042206989
0.1628207158985802 -0.14035954906046005 0.09947149956231115
0.16249200182672668 -0.14021369916264836 0.10010982161191989
0.16292781625749325 -0.1395798299572418 0.09986813359488131
0.1626123633385116 -0.1391567469695213 0.10068281608416332
0.16302615540304324 -0.13881393362221567 0.10027929976024819
0.16330418240949096 -0.1380254660824296 0.10043800062282916
0.16409042800014115 -0.13728634618128296 0.09981072666546967
0.1637730919991855 -0.1370901652762485 0.10044851473083558
0.16416912173761047 -0.13674538796034078 0.1001406645959083
0.16444448623129393 -0.13608833196522913 0.1002916222956128
0.16514892501541753 -0.13547978649909145 0.09974253349495321
0.164860630283102 -0.13534114045618528 0.10031197863152139
0.1652220771512268 -0.13497098760727028 0.10009147925331328
0.1654852180833169 -0.13424659507263437 0.1003364249951404
0.16629618289909223 -0.13345247670313723 0.09967530688701069
0.1659816642321391 -0.1333467586779866 0.1003472648769955
0.16637922520728524 -0.13288163778960638 0.10006532700619349
0.1666598648237796 -0.13203358973033996 0.10029419976797892
0.1669514294029745 -0.13123019937116837 0.10045925737704235
0.16755793475840905 -0.13057674707259012 0.09982278452492115
0.167229531677119 -0.13045444469675127 0.10058874163830715
0.16771398940598 -0.12977826994959385 0.10019477116157983
0.16747313498722538 -0.12932800938036634 0.10105212253428163
0.167866652036351 -0.12899958444057721 0.1005299544985148
0.16821579156301308 -0.128202406653664 0.10051353672526725
0.1683754105544498 -0.12719512383211656 0.10100621500025378
0.16913142157740765 -0.12659811695212259 0.10018274640308487
0.16884147027083704 -0.12644765773577807 0.10077948012297913
0.16932359600277572 -0.1258534082211444 0.1004375937420764
0.16904271298706847 -0.1254163231144716 0.10127082556376267
0.16952102355938517 -0.12506829380962564 0.10071759398010818
0.16993737611307194 -0.12416279170967735 0.1007324238514495
0.17034515875603942 -0.12324263753982892 0.10084661545294982
0.17048654337424446 -0.12263298003281217 0.10121835802269602
0.17125809566971398 -0.12177918406041795 0.10051386145210946
0.17098115535291625 -0.12176088688822324 0.10130168102461226
0.1716123702064766 -0.12100164790646223 0.10085804561287018
0.17150311497774837 -0.12061161540278542 0.10179510599104784
0.17200265913786078 -0.12022522159254849 0.10120699328340799
0.1725057474056187 -0.1194325878208564 0.10118563347513918
0.17283155498505684 -0.11853565927682483 0.10160959699937593
0.1729400761941373 -0.11802841890345508 0.10196334135548289
0.15272559063831948 -0.1679553877423883 0.10295646992722317
0.15322225358727368 -0.16742404784610418 0.10207329251943413
0.152912884061963 -0.1676200648610322 0.10264750304999201
0.15290441553908576 -0.166818867694562 0.10270510270168182
0.15308138803202953 -0.1662198393614073 0.10227913453048294
0.15288376527257286 -0.1661555001814699 0.1026626378119905
0.15291311186619233 -0.16561629125695274 0.10262946694925348
0.15320138581727658 -0.1648879923203812 0.10222321119206353
0.15364270447077272 -0.164088022281189 0.10147318535821022
0.15339358296825822 -0.16425230435943936 0.1019740120523341
0.1534415336787974 -0.16345575605102897 0.10206268483407978
0.15370051683290784 -0.16264328543576445 0.10174471179319637
0.15412006200779219 -0.16181113124624646 0.10114176741993149
0.1538842792285273 -0.16197518795879795 0.10158702537595866
0.15394764725360374 -0.161161762333046 0.10174927440886603
0.15418249396270792 -0.16007821284178525 0.10162603035835341
0.15429779494019072 -0.15919472312413782 0.10171964662718436
0.15471783496505528 -0.15843088145232265 0.1010429670687012
0.15441670720165765 -0.1584323290656992 0.1018167345664343
0.15468361961184948 -0.15788489293203278 0.10140191824473527
0.15480146063632344 -0.1571368545507167 0.10157614725478628
0.15528937943087534 -0.15633127839474018 0.1008407577562175
0.15505913856788003 -0.15618538213142827 0.10154413664978598
0.1553103726229328 -0.15580018655627004 0.10112946909660224
0.15544553330563562 -0.15506316551917904 0.1012289555676288
0.15593484824483878 -0.15438523179990063 0.10048863105212781
0.15570758129327944 -0.154161977230952 0.10112238520946423
0.15595851869605556 -0.15384026455019648 0.10076150257368452
0.1561181846001981 -0.15319046782147253 0.10082257414981219
0.15668758307764258 -0.15226307863415306 0.10033910618592042
0.1563022919665352 -0.15209360398710675 0.10106813009683813
0.15676918464797684 -0.15151989061507382 0.10059896851215837
0.15650780664791222 -0.15098398693689918 0.10128429630312376
0.1568759774302747 -0.15079662430841184 0.10081059972626065
0.1571416542063012 -0.15019642073917808 0.10075821171437553
0.15783671933162816 -0.1494006663326256 0.10029389380349496
0.157437478909953 -0.14957117740200732 0.10071748411252031
0.15768900173433237 -0.1487579529980989 0.10089270709101851
0.15827157046762003 -0.1482764638873633 0.10046431625189021
0.1580720733793509 -0.14788290102732318 0.10096917110558024
0.15864002346750244 -0.1475861934666043 0.10047397635347576
0.1583200754898761 -0.14737467144168032 0.10100169488142346
0.15863622276896172 -0.1467429939657543 0.10104916679512788
0.15930011442974482 -0.1462054908789027 0.10061077242311527
0.15897286689805587 -0.1457354772121137 0.10132770545429631
0.15973739757257324 -0.1454427730938213 0.10058385291131564
0.1594490305223392 -0.14480577168387074 0.10137670702158967
0.1600156034103723 -0.1445862511972714 0.10080414008831133
0.16041955693366133 -0.14427088891086384 0.10048693922108608
0.16022217632868346 -0.14392245567747414 0.10097404097112414
0.16060333370304836 -0.143672196161152 0.10062602531356293
0.16037346638955888 -0.14348849813248635 0.10105632872302259
0.16059224983938583 -0.14296564766403053 0.10110416172389902
0.16102907280414383 -0.1422805731939346 0.1009462933544274
0.16162019955307608 -0.14155099323332732 0.1005555001871275
0.16132385518789197 -0.1416806759229447 0.10091298928773502
0.16153529804718175 -0.14091299527656842 0.10111684157752093
0.16203696507430612 -0.13995996732067212 0.10100824848904535
0.16222386301026495 -0.1389300845021782 0.10145053015083098
0.1629160808074075 -0.13840840109192337 0.1007523265317577
0.16262990288954368 -0.1382457448665501 0.10131257719147942
0.16298679603037017 -0.1378533116810924 0.10105442448734088
0.16322581014452062 -0.13709871171588842 0.1012562739816853
0.16406352965081372 -0.13636719871274933 0.1006150975708878
0.16373476082989194 -0.13612981855469836 0.10127130825269846
0.16416630219562392 -0.13584106313318375 0.10090470785533628
0.1644609738606385 -0.13532193289239183 0.10091639077015842
0.16507883087269334 -0.13467028483535687 0.10058922900048224
0.1647701448785337 -0.1347832713199285 0.1009394168665538
0.16502084204345047 -0.13406193349568676 0.10122314789287186
0.16552395395980168 -0.13334126893755247 0.10111701929330985
0.16622825498004162 -0.13257779327882074 0.10063122730234574
0.16590096254919665 -0.1327248078532999 0.10106823673309895
0.16617698954644605 -0.1319159811912807 0.10133577594300172
0.16669350836442579 -0.13099427747124098 0.10119853273285101
0.16700532285564618 -0.12984892706294282 0.10162714958298974
0.16725794392922902 -0.1291547913602767 0.1016873072527155
0.16779425816216073 -0.128569773097678 0.10102638652325277
0.1675105251006441 -0.12848370503422757 0.10171025719100081
0.16794172592066017 -0.12783018635616747 0.10133163346103169
0.16772752530553914 -0.12745411236625578 0.10212107540705047
0.16809554958835352 -0.12708198830802805 0.10163753038883702
0.16845090249235106 -0.12628115021892547 0.10162671653800724
0.16863981901647526 -0.1252751898190404 0.102141244149234
0.1694327846708572 -0.12460982261386479 0.1012380314525601
0.16915261888553276 -0.1243869562566546 0.10197958279820024
0.16959824005600058 -0.12399480587772616 0.10150361431060191
0.1700000251646876 -0.12324587345286495 0.10151461489554596
0.1703739089694331 -0.12228584629985964 0.10188801061220454
0.17082833012194512 -0.12134008910277769 0.10225555451377633
0.17122023979910458 -0.12041443274869727 0.10272417021350545
0.17207745199828045 -0.11980670653082584 0.101755213878083
0.17181564742610128 -0.11969820743467563 0.10243268013372261
0.17237783680899682 -0.1190658969749709 0.10206523384052389
0.1721179109414035 -0.11882486103380152 0.10285689542236179
0.17261935414244153 -0.1182844515478879 0.102397349537214
0.1723169442419998 -0.11818320466812528 0.10310631496554487
0.17271945185762702 -0.11792147375486065 0.10254829239156327
0.1523804114998064 -0.16788398506925825 0.10358238633956256
0.15214475096054114 -0.16754101755876133 0.10406795626929456
0.1525049847819951 -0.16746710050974223 0.10342979575062944
0.15218675388390757 -0.16703419177772108 0.10414118887291172
0.15249129962744953 -0.16667508834999076 0.10352888299475593
0.15267009611474405 -0.1661342557694864 0.10311396649815768
0.15245097558139784 -0.16616341757573516 0.10359025452280098
0.15245697585335638 -0.1655518856602626 0.10365613475911944
0.15281264430363042 -0.1648742673746733 0.10299162913584461
0.1524919969711178 -0.16445941963806043 0.1037667625841187
0.15302238393308792 -0.16404594002078376 0.1027805984747658
0.15270515125640735 -0.16349704102625162 0.10357842830021449
0.15307178922298204 -0.16307630123848613 0.10295659602865803
0.15336007340942606 -0.16260293222976405 0.10247088776102747
0.15306611648344676 -0.16213684616279309 0.10326726888281905
0.15355118928328665 -0.16176659031086657 0.1023532420816146
0.1532830191216411 -0.16112825053764876 0.10316742666826266
0.15363689987937518 -0.16086860116788065 0.10250948809654932
0.15384747152280878 -0.16047107555526757 0.10221511533775965
0.15369076223082898 -0.16039419191991985 0.10257654508774573
0.1537800330667836 -0.15992780836374793 0.10260253724370107
0.15400772723494907 -0.15905573107268062 0.10247796310520702
0.15416571615981967 -0.15834795358357975 0.10248792961207168
0.1545403611703211 -0.15765767762027716 0.10192367273114765
0.15427704807145562 -0.15775694219684275 0.10257008968813934
0.15451277763988872 -0.15716545370900645 0.10232416186629004
0.15468148784205124 -0.15641057524017515 0.10239744916534294
0.15520329800628793 -0.15543763224140514 0.10165352754639906
0.1549385417093789 -0.15530259059610646 0.10246919271686392
0.15522129403455076 -0.15486548646097328 0.10195057665651555
0.15536770458967367 -0.1540914557587041 0.10198589985987658
0.15585624553646596 -0.15342379414094617 0.1012129889059875
0.15562398676836456 -0.15325771328194354 0.10180974885928382
0.1559011740880478 -0.15267338354776874 0.10152587873713054
0.15561319710027402 -0.1521921180921414 0.10235120425503957
0.1559300859168798 -0.15189483194534803 0.1018489711995132
0.15610538759775996 -0.15115787576588188 0.10187668114382775
0.15675458513980836 -0.1502998727820816 0.10126190259569451
0.15635495938858907 -0.15005962376325607 0.1020233899806924
