# .PCD v.7 - Point Cloud Data file format
VERSION .7
FIELDS x y z
SIZE 4 4 4
TYPE f f f
COUNT 1 1 1
WIDTH 793
HEIGHT 1
VIEWPOINT 0 0 0 1 0 0 0
POINTS 793
DATA ascii
0.16034069157509512 -0.15713129469838757 0.08377820304033207
0.16021779362817926 -0.15606100614478444 0.0839405542541884
0.16037147897527446 -0.15521055637278805 0.08374325989034294
0.16028351329184506 -0.15448308669398178 0.08382866429366008
0.16024156395519962 -0.15362694945936164 0.0838794427552296
0.16023961419397303 -0.15275173841126027 0.08394597769682269
0.1602859257721636 -0.15191245036852358 0.08402669783569743
0.16031753230461396 -0.15125465235841823 0.08419610849832154
0.16099150250480124 -0.15053509498429848 0.08349882869448463
0.16054285285221823 -0.15047686877394514 0.08422952709185669
0.16101286536185055 -0.15001591761734212 0.08378650006119952
0.16128621705559676 -0.14928266058997983 0.08397862744816918
0.16222829985816067 -0.14847714397131756 0.0833595256166922
0.16179715969406055 -0.14837247491515962 0.08405048973367545
0.16228485710436943 -0.14795688364557322 0.08374182019518006
0.1626534619673011 -0.14723491281918527 0.08396064763596617
0.16294630892085957 -0.14655854081400801 0.08422597028604062
0.1636739792575004 -0.14594001043432744 0.08370782147769298
0.16325320295148782 -0.1458968153096113 0.08443722443443391
0.16377252946737583 -0.14541916230020696 0.08406175581468221
0.16417465581401086 -0.14464883480035343 0.08417793699540725
0.16460522106061187 -0.14384843837022776 0.08428887351274299
0.16484596362650114 -0.1431196791608802 0.08472630328628619
0.1654659858522641 -0.14263351134355054 0.08412475670052333
0.16583953249751537 -0.14181773295388436 0.08453022900620756
0.16636307442155301 -0.14096787649016226 0.08476629524700445
0.1669672469369637 -0.14054498071962887 0.08421982946997941
0.1673430021574596 -0.13978330237323355 0.08469517388092551
0.16793600000450426 -0.13899055345189817 0.08497214560301168
0.16855355057421392 -0.1385947137754088 0.0844516299743466
0.1689894461163871 -0.1378779227653957 0.08493823345830061
0.16942801974914296 -0.13736847920647455 0.08508787864893075
0.1701936283710996 -0.13683178636076967 0.08448892534910178
0.1698350607881071 -0.13693181240039493 0.08513622140838006
0.17034004560666985 -0.13648120530701885 0.08489381098929341
0.1708161825674152 -0.13581741222289737 0.08518474209532798
0.17171609023590706 -0.13511594594338963 0.0847195675364803
0.17216005229761014 -0.13443905891952274 0.08510476073211623
0.17260904743382177 -0.13376521310794556 0.08537771047926453
0.17311143895632414 -0.1330987052026444 0.08556434236573779
0.1736450081707048 -0.1323472351343434 0.08581252616588206
0.17453053341906297 -0.1318236008592086 0.085199325756214
0.17501289225826774 -0.13090259117241526 0.08545300953607678
0.1754795528277988 -0.1299617093751285 0.08573204537416386
0.17586262264532207 -0.1291558461829147 0.08602463695053328
0.17606714990776098 -0.12849155589186134 0.08635299295492811
0.15777400562727972 -0.17278583679465817 0.08609541607876539
0.15820833195701772 -0.17256763122497704 0.08524972783056649
0.1577790190109425 -0.1722953932293913 0.08581819029736908
0.15793419788465154 -0.17196508621030518 0.08536652321762181
0.15766153601103397 -0.171029455791477 0.08530958872822225
0.15729699954363485 -0.17013750388683505 0.0853724728747068
0.15739266468413185 -0.16952437290344533 0.08482610121734743
0.1568676540915937 -0.16929615315433588 0.08539052362539916
0.1570416693521962 -0.16894082853723874 0.08497320191433178
0.15688732001847658 -0.16827462867459195 0.0849093217836574
0.1572202718175947 -0.16743068207631145 0.08427898416510998
0.15655264915957998 -0.16717764524097142 0.08501652397431367
0.1568825552667342 -0.16668219295396283 0.0845241044794238
0.15628685306163365 -0.1661341687108098 0.0851528545292601
0.15662781968302908 -0.16598662917398524 0.08475922864833754
0.15667700116638816 -0.16536613311864204 0.08478686353162182
0.15741986489355225 -0.16465777227862227 0.08418533748783917
0.15689336162541662 -0.1646856088691529 0.08474860310994874
0.15711071035511184 -0.16406046400705787 0.08472924048399419
0.15740047640196914 -0.16361116426487066 0.08462203909207226
0.15694924972622804 -0.16330460783302142 0.08525324057394278
0.15744988158534828 -0.16313737802535028 0.08483734526227199
0.15773580597840595 -0.16262243349124372 0.08481994003689873
0.15871698127445086 -0.16204491638889193 0.08409828455262777
0.15814230443826974 -0.16201311502112453 0.08471841921409949
0.15854031121027615 -0.16140714816491433 0.08460135230104975
0.1589021930070688 -0.1608970919455546 0.08446531873367463
0.15840543436406287 -0.16068016917166936 0.08506079813587024
0.15889385373200918 -0.16023917308556818 0.08473773583539956
0.15835617194018822 -0.15982620158209562 0.08539449268898987
0.15885856498703252 -0.15960517603296726 0.08495259752266898
0.1590798774340882 -0.1589489903041683 0.08488561161088466
0.15996551765142383 -0.15839189757375946 0.08408193066261227
0.15949395542926112 -0.15825417799299293 0.08461357672439959
0.15989313401312985 -0.15767218681284428 0.08425842055149034
0.1593268736922953 -0.15735400134890645 0.08489431158628143
0.15977729817940434 -0.15676392323541533 0.08445085128988385
0.15919237325921673 -0.15634061855138975 0.08512632211719326
0.15968862346111687 -0.15598576840368744 0.08459660686362547
0.15986543716808918 -0.15519017342809102 0.08437473380324664
0.15979974701757174 -0.1542380894989626 0.08445328316838133
0.15978323925635202 -0.15334925736463637 0.08453560703308796
0.15978356503488064 -0.15239836724148184 0.084691984963848
0.15999837726764118 -0.15163234745062232 0.08456435793804083
0.16005360925309994 -0.15101825495703416 0.08472569541412861
0.1601310276123315 -0.15040917149154995 0.08493683179250199
0.1608093007338015 -0.14972034986334118 0.08432368794039792
0.16041233724756954 -0.14965180703414183 0.0850362272676494
0.1608682881286427 -0.14920109156116615 0.08465768505153255
0.16117896622033562 -0.14849655238257772 0.08485242915646471
0.1621136568346088 -0.14766292858908928 0.08426618396543292
0.16171026380701517 -0.14759115650779853 0.0849497114244667
0.1622004626556243 -0.14715869805066936 0.0846465660123712
0.16257770254400442 -0.14643736950256145 0.08487531825303689
0.16289224326974003 -0.14578142131630759 0.08509432960177059
0.16363127168343422 -0.14515756329507787 0.08457861299263858
0.16323176270478093 -0.1451506148919252 0.0852334734458732
0.1637510316034069 -0.14463739988985455 0.08493900242869688
0.16416769402784911 -0.14388442458036382 0.08503846352131242
0.16441339374904101 -0.14314353242782152 0.0854667961601679
0.16527127517231902 -0.14239705390068363 0.08483132056927718
0.1648682424076379 -0.1424564200240705 0.08551267652343805
0.1653894257269396 -0.14193838449277113 0.08523600073990314
0.1657722941738756 -0.14130189734424262 0.08537754539463975
0.16676012049988756 -0.14034303529216974 0.08494123277621456
0.16629015286721047 -0.14045972531661183 0.0856130898952373
0.16686020387821998 -0.13991832174324587 0.08537132370836695
0.16728975768589155 -0.13930061552870357 0.08555893864722271
0.16839123338935857 -0.1384011273350099 0.08517055518738845
0.1679179430851843 -0.13849806520530805 0.08583567964684195
0.1685773404956173 -0.13795878731289107 0.08562194753264445
0.1691976014147049 -0.13722272986135686 0.08585728906088001
0.1698235387875177 -0.13667546879126488 0.08575099876862921
0.17018323673895192 -0.13642748607114788 0.08541859371440681
0.1701824064116602 -0.13612227377045608 0.08606388732137767
0.17077466961866272 -0.13536970158728923 0.08623757606434491
0.17140703345705233 -0.13495620709651596 0.08561417464011378
0.17188357398828985 -0.13418223116059003 0.08604742224369367
0.17247323162506076 -0.13350150466203262 0.08607328192958395
0.17283575580285593 -0.13287994654048513 0.08639160220272653
0.17331062620534216 -0.13202004179172477 0.08676864402554414
0.17420846579959345 -0.13149653203015046 0.08606165725816142
0.17472964170217578 -0.13061445750041334 0.0863174020906927
0.17523433225071514 -0.1296020931785223 0.08667766339974585
0.17582626203257334 -0.1287224197570697 0.0866090489500477
0.17600213094162412 -0.12810431784657886 0.08693549985454649
0.17617056877537549 -0.12749050350144056 0.08729492420696446
0.1574585123396908 -0.1727190726475251 0.0865868837417643
0.15729843619139552 -0.1722445764117267 0.08660430038619409
0.15753788857470158 -0.17149397761254193 0.08575341299023204
0.15704806635887344 -0.17124170315626278 0.08636863800879162
0.15717458610305896 -0.1707993397225561 0.08593683284336981
0.1568835160808508 -0.16997612192525263 0.085866709496096
0.15616032773978167 -0.16889211677370744 0.08610482726391176
0.15659500088202713 -0.16846895561039968 0.08531084002985298
0.15613682158395714 -0.16822003654342352 0.08582389138714477
0.15625944434462055 -0.16769470259708794 0.08548906088595627
0.15559955232826567 -0.16720233989712402 0.08613557066261963
0.1559105898763943 -0.16693074891102677 0.08570951123836036
0.15574730426545394 -0.16615754679969116 0.08578200933016777
0.1562852623995332 -0.16555702331861127 0.08515265238735693
0.15582096101174217 -0.16526927040609457 0.08571719448121441
0.15621658402782596 -0.16506695904517968 0.08533816825689217
0.1564303857740719 -0.16470178942203484 0.08523485223862576
0.1564237259650435 -0.16396357230515501 0.08548074157921565
0.1562716984077096 -0.16312355147081406 0.08595006550213972
0.15725463151866373 -0.16277157115849591 0.08523884605089084
0.15675242678454868 -0.16246440388710337 0.08581188184815926
0.1573198925433156 -0.1623375249657999 0.08538470706235143
0.15764167156717307 -0.16201466062763475 0.08523537091235713
0.15780602690681347 -0.1612687117117632 0.08541226955660745
0.15786414148037548 -0.1603927871008713 0.08569703901228166
0.1577195064002469 -0.15965324300597628 0.08604951644005392
0.15860676465703635 -0.15920113095298313 0.08532045187499178
0.15811061952104863 -0.15893194141847866 0.08585872721816626
0.15860015520780932 -0.15866745627984274 0.08544638770601623
0.15884003650155779 -0.1580113704760177 0.08531093132603446
0.15875368684275465 -0.15704468638756616 0.08552606537627122
0.15864130007278002 -0.1562843948935788 0.08572045790562545
0.1593755274919514 -0.15554449461410585 0.08496239054157277
0.15878740856810533 -0.15537172636753793 0.08565284741149005
0.15934564949316243 -0.15479515709082248 0.08501104696984509
0.1589513492836363 -0.15443658771851992 0.08554237597383421
0.15935092250433824 -0.1539445615982168 0.08507559688240066
0.15891599696057748 -0.15369681081809386 0.08570974990894718
0.15934416155867304 -0.1531131814859197 0.08520868072103809
0.15893911720207457 -0.15282846522976132 0.08592926872968594
0.15935692490337802 -0.1524105698915259 0.08538718092400775
0.1595921681640399 -0.15157957795084084 0.0853170490683788
0.15981192559364824 -0.15077675412036676 0.08529844662072665
0.15991051666973713 -0.15015869267709667 0.08552544784895641
0.16004608784843738 -0.14956167680421995 0.08577144201474017
0.16071325469122424 -0.14891332588563633 0.08516596253130175
0.16036345863471002 -0.14888555174000623 0.08582932960805936
0.16079836695022148 -0.14840912299837503 0.08553535521550884
0.16114543927826536 -0.1477625592658505 0.0856805105025658
0.16203432616282165 -0.14686941532815648 0.08520763205120784
0.1616100777127861 -0.1468172019374125 0.0859650013061214
0.16215421675402347 -0.14636256748175153 0.08560724741601447
0.1625644718161969 -0.14561688656175736 0.08581074538360131
0.16303963853862063 -0.14464271970077203 0.08613359827938165
0.1635765684315389 -0.1442948679160923 0.08561753466818169
0.16391118753637032 -0.14345687161986698 0.08600914422577305
0.16435280269784108 -0.1427762627161574 0.08604918237055045
0.16465345596177855 -0.14211319668080705 0.08636248226744139
0.16522291894919455 -0.14168364875576078 0.08589911878778324
0.16561898457423518 -0.14091374952790212 0.08620869357102745
0.16604298758348648 -0.1400921752726815 0.08662462646303462
0.16666065043139697 -0.13968833305634396 0.08605007705990161
0.16709607099681442 -0.13891765040603005 0.08647870277030038
0.1677170654500133 -0.1381322310098319 0.08675822883090663
0.1683711054260235 -0.13775666703221526 0.08631088009316565
0.16868373457934985 -0.13714953914107836 0.08685664437050275
0.16968404536679846 -0.13658516127368708 0.08623227662991317
0.169326074470359 -0.13662685736911018 0.0867889068521318
0.169817576294633 -0.136219012047082 0.08667252597744762
0.17020945387935688 -0.1356596359121952 0.08690149327967049
0.17124809966991716 -0.13473634853546884 0.08639106492130107
0.17079904799437826 -0.13480684498902767 0.08721162386506742
0.17144481181019242 -0.13428253538448182 0.08680456442431432
0.1719799089961719 -0.1335162711596768 0.08693442172555142
0.1725420852549007 -0.13268060751901756 0.08709514325377274
0.17271598938059948 -0.13214548072524387 0.08752152875489444
0.17398517767811628 -0.13120159858726918 0.08680940048309857
0.1733567435051178 -0.13129593942893988 0.08762012845080881
0.17433242906193983 -0.1304682321572553 0.08720386082739
0.17392676371083515 -0.13024120613636303 0.0881508458897313
0.17472218301558004 -0.1297068677881351 0.08755120863074535
0.17540094059142147 -0.12870485116904776 0.08750913253868775
0.17595577293831466 -0.12775232479787496 0.08752749461582379
0.17610736558143825 -0.12712808942483098 0.08787231244426609
0.1762260819409687 -0.12650049149518228 0.08824367771324443
0.15671844862190867 -0.1729377737085358 0.08822508315990313
0.15712764021574244 -0.17248566672579999 0.08704516818613266
0.1566411771200211 -0.17231923534236426 0.08776617656229709
0.1568545229794392 -0.17206214731140548 0.08720907265602582
0.15662032649706226 -0.17133243946225288 0.08706949663241968
0.15668876529524867 -0.17029852552282537 0.0863512015551941
0.15605059540764202 -0.17008266248569126 0.08700480280621115
0.15612562758804707 -0.16943808985814443 0.08648646352207082
0.15544770244476183 -0.16884768717181814 0.08700945405764778
0.15566703707320195 -0.16860902281483464 0.08660281138462379
0.15551474219626432 -0.1679004572989346 0.08648764713350351
0.15499859918422096 -0.16696827483406917 0.08674206219829829
0.15548069356650085 -0.16648955988389466 0.08610608601542658
0.1550126735981209 -0.1663107718862073 0.0865878542124796
0.15522764120261118 -0.16594584604488657 0.0863322791351925
0.15510989915920356 -0.1652348448155055 0.08646392000793338
0.1559899628682144 -0.1645113115216646 0.0857237776887617
0.1553402417196177 -0.16428621069235297 0.08641699486560447
0.15581013967812773 -0.16386796649386287 0.0860971115464124
0.15597621778001522 -0.16350670705556936 0.08606226876136656
0.1557285435246991 -0.163496096801349 0.08630399670626544
0.155703766314476 -0.16311244443502776 0.08646551618070666
0.15589946500441537 -0.1623969000552688 0.08657981893637633
0.15717792089773275 -0.16179200214256248 0.08575156541494465
0.15641489975490863 -0.16152547333469253 0.08648798655775801
0.15709217421137942 -0.1610992288691068 0.086116751932211
0.15745086980676667 -0.16069891115372256 0.08597796197720681
0.157039054562309 -0.16049575113156525 0.08639039705836427
0.15738296264522267 -0.1601728714982532 0.08621342262172023
0.15703444469513123 -0.1601037683824973 0.08651720483394454
0.15709463656838818 -0.15961057491630976 0.08660244062608807
0.1574302410109585 -0.15891970802300856 0.08647940982831892
0.1583061575540127 -0.15822727594003025 0.08580242443237665
0.1576752435172217 -0.15796755966638854 0.0864450075178404
0.1582816601940631 -0.15752434781571822 0.08593428474119855
0.15785463716541684 -0.15712157566468196 0.08640808300161507
0.15826069541800666 -0.156724729010837 0.08607119200373532
0.15779028973731454 -0.1564051800098496 0.08659418335663704
0.15823566184170312 -0.15592937391547965 0.08620085856270042
0.15775989889919703 -0.15553848281374288 0.08683275315854228
0.15822719777049213 -0.15521140173097148 0.08635625045030128
0.1584309215213389 -0.1543435173903291 0.08629490423522208
0.15858645512169167 -0.15345500181785027 0.08630014861695434
0.15855642540398338 -0.15289754395540767 0.0865782285191742
0.15915737671506713 -0.15209585365170403 0.08583992110119781
0.15877605750369816 -0.1520884214123263 0.08658790154792574
0.15918328354341207 -0.1515533985927989 0.08606708735795802
0.15945532428165765 -0.15072563068197223 0.08609082767579299
0.15972152964272393 -0.14990474871284162 0.08613628064555837
0.15988180397020962 -0.14926873169263222 0.0864170267495736
0.1601374436581499 -0.14843508194288152 0.08677746505189439
0.16064071682318698 -0.14806481641735197 0.08620753838215003
0.16096149879323712 -0.14723828683492488 0.08658547465680357
0.16130156639924392 -0.1466464335280536 0.08670279921745352
0.1620085628854746 -0.1460803009208596 0.08615499146439276
0.16164661092129112 -0.14605159289217823 0.086832869449828
0.1621312162410848 -0.14556584420547625 0.08655927595819046
0.16251216283258776 -0.14488498020142224 0.08674883869813554
0.16339715835683685 -0.14395165165407078 0.08630170669661293
0.16299564243248413 -0.14391468396145168 0.08705471514866067
0.16352794588664266 -0.14343274842048648 0.08668897736367374
0.16398614894078883 -0.14267028046272964 0.08686863527956222
0.1645102242114597 -0.14173524614054278 0.08718058935923587
0.16504100620461548 -0.1413583610844418 0.08667862462405757
0.16539856691401045 -0.1405932409380131 0.08711281016901365
0.16575955209498427 -0.14003696968891466 0.08726727739194624
0.16649106679377113 -0.1394392111357367 0.08674046213178606
0.1661261027749187 -0.1394769544384035 0.08742836771447568
0.16665036471784023 -0.1389877120161804 0.08716174941524285
0.16711612113096252 -0.13839412434621245 0.08735801572722347
0.16812775731414362 -0.13758210226932321 0.08700135940249484
0.16769837055998654 -0.13765527134719763 0.08763688595019857
0.1682735200584879 -0.13717575636653107 0.08746974269855017
0.16886984828389823 -0.1365011884570619 0.08775020667713582
0.16963822912175916 -0.13603444298007372 0.08734507826297622
0.17006758873153943 -0.1353050757206731 0.08782488909443366
0.17048142454029055 -0.13474581857354964 0.08796348182929722
0.17131688612808862 -0.1340807249691841 0.08737260078103712
0.17086950412029353 -0.1341386844035179 0.08809119445813503
0.17147843321981787 -0.13357627844519374 0.08775005766733314
0.17200342313618946 -0.1327974843269975 0.08783076851737157
0.17247194513445388 -0.13187339144000967 0.0882523529919181
0.17301609481433713 -0.13100220723090247 0.08856713529241103
0.17340370061506336 -0.13028862439647848 0.08889598321298013
0.17465239719322448 -0.1293911138409078 0.08814890741071642
0.17415059548233094 -0.1293729819846561 0.08899104054532513
0.1749483806906228 -0.12874599319075083 0.08842187929693449
0.17559608471958343 -0.12773760937796688 0.0883873946290955
0.17603169168300112 -0.12676835849023627 0.08842853782356593
0.1761149345775468 -0.12612504744809946 0.08883221073341273
0.17616540421428936 -0.12548507439579806 0.08930221089577418
0.15623011875783166 -0.17327453641536583 0.0890661488556624
0.15656036000494244 -0.17315795023253724 0.08862254048675522
0.15639742152452532 -0.17262363674897932 0.08841381452289321
0.15638600553020382 -0.1715975216703126 0.08757441228749237
0.15575908754607865 -0.17140494544818466 0.08825588822783714
0.15588867243271184 -0.1707086088398291 0.08759241465377995
0.155118119449244 -0.17006020235360808 0.08807122067461562
0.15539961520365791 -0.16981583178676282 0.08760469384823495
0.15513137938790636 -0.16906354225765918 0.08750135554034032
0.15522372363193765 -0.16811765681163562 0.086937948894437
0.15464513402570798 -0.16792070379237853 0.08751931434754863
0.15487098857394255 -0.1674164589521547 0.08704958880887813
0.15434617642081716 -0.1668998538712148 0.08750531145803553
0.15459717467022718 -0.16677120190833808 0.08714813568446438
0.15457200805037924 -0.16629239712763863 0.08706192234933753
0.15485034726969918 -0.16566410704080237 0.08670121999449228
0.1545684480806163 -0.16579673461582373 0.08699028132136669
0.15441595574412553 -0.16513017628119162 0.08713110287505388
0.15450878304711427 -0.1642807006138389 0.08715607623607351
0.1554335838125761 -0.1635322198227121 0.08655505982319592
0.1548126359753919 -0.16345017895376626 0.0870826281467152
0.15520959208325014 -0.16304355343836335 0.08687646557363521
0.15541927353332796 -0.16270875110365554 0.08684278347271829
0.15514668659861494 -0.1626999216650364 0.0870475665932978
0.15516268377229406 -0.16228028025082103 0.08721112494239602
0.15555731269417883 -0.16157296344366834 0.08718467358470797
0.1566015478399513 -0.16075886529301092 0.08663327487389659
0.15586869930897765 -0.16056697989787894 0.08733907239837185
0.15660086509895516 -0.16007165876877943 0.08687409255046954
0.15606563665530598 -0.1595729801455083 0.08755562994360432
0.15656654183146296 -0.15929976546119362 0.08717685990567985
0.15693348530148452 -0.15895086630603852 0.08693700956885567
0.1565329177835299 -0.1585386279411337 0.08744842481512671
0.1570633989689867 -0.15832406558904952 0.08698659099209528
0.15670392340787767 -0.15780609773508752 0.087479507966176
0.15712376195836505 -0.15767191103250797 0.08707842351911031
0.15731109519511793 -0.15694246216385738 0.08703033249019436
0.15741787223103224 -0.15611753208901472 0.08710034584411981
0.15731793390980486 -0.15553576778122627 0.08741115085305523
0.15796016362496032 -0.15482107769658793 0.08678325045049806
0.15750520147539185 -0.15471776444888466 0.08746490304564546
0.1579354180474115 -0.15426350272673073 0.08699368273922842
0.1581580323805409 -0.15345428141041081 0.08702338346065842
0.15837343169486887 -0.15263881073497307 0.08705941295379227
0.15841438822804793 -0.152095119486023 0.08733583240922912
0.15901699838346423 -0.15126627980180862 0.08659199086872989
0.15867715491595802 -0.1512680186537554 0.08738947224862194
0.159083399763265 -0.15070906089929165 0.08688335665939534
0.15938890853516702 -0.1498651686601113 0.0869560597737241
0.15971020787863885 -0.1490056218096732 0.08709680400787324
0.15981184518210131 -0.14847484521997992 0.08747260686629606
0.1604976379397618 -0.14772648363023563 0.08688664814982465
0.1601633278929614 -0.14772640617745303 0.08761452375958972
0.16062331124261672 -0.1472291237065202 0.08725303761913994
0.16101745493173272 -0.1465093248469975 0.08742071319078568
0.1614971911673757 -0.14555182989406262 0.08774490101544614
0.16199244017512993 -0.14520994522864478 0.08724473665315699
0.16234790347293657 -0.14435255678315942 0.08765807995252528
0.16270794493496582 -0.14373732440720163 0.0877817701519075
0.16341641279445518 -0.1431662515980112 0.0872251219529039
0.16308015002166568 -0.1431339887802931 0.08790215162284098
0.16358119781272248 -0.14265756674073155 0.08761818420171914
0.16399542494821626 -0.14200350414388216 0.0877916567340081
0.16489612307637697 -0.1411094445187398 0.0873645995402407
0.16453032684343805 -0.14114912383793693 0.08805555496598867
0.16503960922475588 -0.14064207326885775 0.08779005409299603
0.1654982738102242 -0.13995841953085286 0.08791487418781674
0.16595251987360082 -0.13907172407264334 0.08842602370821089
0.1665411729319904 -0.13871378264930764 0.08785995883194234
0.16702131900458414 -0.13795394044811654 0.0882864214469118
0.16755703794940083 -0.1373212695178036 0.08842724942572285
0.16809634652996636 -0.13697171201741687 0.08811736685917353
0.16840460637983898 -0.1364262860239173 0.08858139148768147
0.16946923472745995 -0.1358022538413011 0.0880551715848654
0.16901803801714774 -0.13579055702818016 0.08876835838680769
0.1696643802328678 -0.13532564166029828 0.08852031615762654
0.17017621586532303 -0.13465508870499018 0.08865511278437907
0.17063376423520618 -0.13369871887405393 0.08912707800499681
0.17129372124146644 -0.1332742913078889 0.08846190260599954
0.17173522428844024 -0.13244421564395975 0.08875535237348746
0.17220084799717617 -0.13150294205637716 0.08919136404305592
0.17284299755006327 -0.13071048182888453 0.08923986299854536
0.173249297093919 -0.13004289816957545 0.08951399148745244
0.17368058454773658 -0.12934778189662968 0.0898020636692959
0.1748908721662931 -0.12840172178211387 0.08900109257684427
0.1743905576089908 -0.12833367106802357 0.0898533857765682
0.17520282522118355 -0.1277351644969936 0.0892611346439665
0.1756966221875982 -0.12681450539036915 0.08916907739294745
0.1759416968151884 -0.12580304474661033 0.08954924793644471
0.17603077631741862 -0.1251696483214334 0.0899228235382436
0.1559004946563801 -0.17330810254762322 0.08944376806310256
0.1562387342917435 -0.17293868206324414 0.08885958035068864
0.1557194925055668 -0.17279014382382998 0.08937363241780356
0.15582756634212658 -0.17221927502585907 0.08887858246972875
0.15546299852499235 -0.17206282926164887 0.089278684055614
0.15506212074188508 -0.17131213775725984 0.08909826210966285
0.15456184839419188 -0.1701551794759909 0.08877061482781703
0.15488966163513385 -0.16929612181643341 0.08790683525352802
0.15438145171966547 -0.16913091226948823 0.0883903146986411
0.1544572061140973 -0.16851125064240965 0.08799683134257547
0.1537964930813356 -0.16800924667035197 0.08862478957817346
0.1540595715694544 -0.16771074819308174 0.08813019940351026
0.15385915485126495 -0.16691238711672657 0.0880787157522485
0.15428263514181173 -0.16634240529460975 0.08740028088281761
0.1538611470499425 -0.16612991389695933 0.087850681583773
0.15411436730178973 -0.1656533469134144 0.08746581202840951
0.1534715255817319 -0.1650899996103608 0.08819986750819778
0.15387963150097048 -0.16483288269926238 0.0876986031457887
0.15407116339153326 -0.1645114161229474 0.08751215064186103
0.15382274190728307 -0.16439431881359545 0.087790693101355
0.15384515532130602 -0.16397587502410926 0.08783432625651724
0.15413649813794367 -0.16342296847990578 0.0876788555742345
0.15483680865924979 -0.16275010780276614 0.08727646330204583
0.1543917121649491 -0.1628771379291506 0.0876213044342426
0.1544168791048972 -0.16213872722328046 0.0878768623753757
0.15492481550236628 -0.16165239876566231 0.0876689276033987
0.15443121883819796 -0.1612414154972366 0.08825798141164888
0.1551179026742793 -0.1609768728534704 0.08781623487828596
0.1547094673832548 -0.1604639044531199 0.08841406668243415
0.1552149308220807 -0.16032773706730322 0.08803094824668324
0.1554244802360051 -0.15964690155253253 0.0881532121237269
0.1561982170913609 -0.15895814889135768 0.08764667760087297
0.15574555174676877 -0.15882334892789376 0.08816916163053772
0.15610031028591098 -0.15848588653783943 0.0879085589263336
0.15618619521111557 -0.15786257773805 0.08802160615706704
0.15688409343736007 -0.1572688095596953 0.08742146440626863
0.1564724704199532 -0.1570922471926801 0.08793816132410001
0.15684341640554908 -0.15678031026622885 0.08759592375955562
0.1569996363065696 -0.15611772665761098 0.08763877011777532
0.1569820502522707 -0.1551711788661432 0.0880215213126124
0.15715721067936425 -0.15453962001414295 0.08809352507741533
0.15772327111649162 -0.15394694404348963 0.08747684745427578
0.15735882741951657 -0.1538618442971903 0.08820163380347289
0.15775778335382265 -0.15340585339894897 0.0877473901945203
0.1580136862416093 -0.15262627504142287 0.08779911619621561
0.15826910958336182 -0.15182120933273435 0.08785541058958041
0.15833929396138954 -0.15128263507455753 0.08815870729850114
0.15895614796060606 -0.1504368429086386 0.08744995543702373
0.15863553802827682 -0.15045507748771406 0.08826458629255514
0.1590503811240363 -0.14987736623044212 0.08778531438142162
0.15938047488735202 -0.14903716923473903 0.08789476767493073
0.1597241473705637 -0.14823375125642027 0.0880288641326931
0.1598690962252351 -0.1477362664155249 0.08836313454096645
0.16053473038351518 -0.14700738253598256 0.08777538604354082
0.1602313178477822 -0.14706479980924628 0.08843028623421248
0.1606655761246676 -0.14653877703065263 0.08817049041495506
0.1610151871847265 -0.1458605999520984 0.08835222064939835
0.16186155235818625 -0.1448557526881304 0.08794074366551036
0.16149447158465263 -0.14484929917420597 0.0887131644710844
0.16200735538190958 -0.14432731037931737 0.08834524521286007
0.1624422395729893 -0.143560364784 0.08852421937956126
0.16299522121955248 -0.14260541512566682 0.08880820989944148
0.16348952944037187 -0.14230879302316493 0.08830282344565533
0.16390153928030865 -0.14150234990723615 0.08874743276787513
0.16442911008942057 -0.1406458183477529 0.08899577713010697
0.16493672600983347 -0.14032956678867564 0.08847558093452586
0.16533748774937182 -0.13954212246867298 0.08892874968323994
0.16569712597251762 -0.1389825883435048 0.0891064109522528
0.1664446465310081 -0.13841521772943977 0.08854806639446379
0.16609373331041308 -0.13841779364014423 0.08923595789652848
0.16664905571184213 -0.13793795704251632 0.08898243343277219
0.16718187845775992 -0.1372570866903108 0.08924469934563062
0.16784036258346635 -0.1367811775660419 0.08888614695555355
0.16825585942530352 -0.13609583075192747 0.08943024333595527
0.16890958928495714 -0.13531751972035 0.08977359095849688
0.16952068062472872 -0.1350221363504634 0.0892470113207823
0.16993950729653529 -0.13421470034623242 0.0896883594903177
0.17033705106853167 -0.13360606369480538 0.08982539057514927
0.17113763647540794 -0.13293092441058646 0.08916844031420441
0.17073260236624105 -0.13295292240984874 0.08990754783984618
0.17142835734755132 -0.1322340066692268 0.08957087636141198
0.17112416410506426 -0.13197345688244208 0.09040933745004096
0.1717389865380625 -0.13152234530424498 0.08993422883545141
0.1723778511326331 -0.13066120843271226 0.08999286800459091
0.17305424689624807 -0.12980457756804023 0.09010592966632788
0.17338746304628858 -0.129063807780694 0.09042343790441135
0.17369626010669167 -0.12805668642910614 0.09087836233319227
0.1751574909690678 -0.12731934572560571 0.08979216271620848
0.1746955036234635 -0.1271904497337517 0.09048901750069845
0.17544438396942538 -0.12643033775767176 0.09005041270468023
0.1750315627927691 -0.12608775801944003 0.09087594690855406
0.17568679565708997 -0.125463428317898 0.09037135851894434
0.17531745257264256 -0.12505696468843244 0.09115905774838758
0.1757986938019467 -0.12464912291289934 0.09077466829630941
0.17549679004095853 -0.12413566497046213 0.09149406803303368
0.17581318696365475 -0.12400566418601296 0.09118393094233118
0.15547800256238115 -0.17321815420093412 0.0898852929206259
0.15523847449605796 -0.17274136474992244 0.08989552365956299
0.15470400960746383 -0.17238148674843923 0.09026010497397015
0.15509458892057204 -0.17304609039328175 0.09025273959022159
0.15497979900578532 -0.1719275560727942 0.08967790543278051
0.1540651070452795 -0.17124519573339547 0.09021358610523908
0.1543652319960418 -0.17091778855044132 0.08958243979787336
0.15434969223304512 -0.17050493807984013 0.08925201260744414
0.15408483384558638 -0.17036902845880667 0.08951739561819012
0.15384599010718558 -0.16981452147890988 0.08942806889947993
0.15369318371437823 -0.1688634490650892 0.08909483728418134
0.15319783528238243 -0.16776207852795041 0.08929210753949408
0.15363242777857214 -0.1672469340058852 0.0884814115735409
0.15318037213074243 -0.16695578250355536 0.08904973136344675
0.15335959520356582 -0.1666295404715067 0.0886165287016834
0.15328198523029382 -0.16587281059845554 0.08854845362024787
0.15289363099418832 -0.164847388964369 0.08895164297783249
0.153542437309835 -0.16431654160009185 0.08812157376715787
0.15299697586911987 -0.16404392498862208 0.08879457685857697
0.15333233047219388 -0.16363186177298739 0.08841777743645056
0.15364066218636968 -0.16330964449514276 0.0881764714353565
0.15319507925617878 -0.16284636159058874 0.08872526833572285
0.1538333732969476 -0.16266085437273892 0.08819978701685109
0.15333634653311276 -0.16208597965499646 0.0888344051833228
0.1537991922090167 -0.16195876341558693 0.08844330590790746
0.15403599114939792 -0.16164515013803676 0.088373381475862
0.15377476321104178 -0.16160602894110251 0.08858628636339756
0.1538285492513631 -0.16121409773698706 0.08874054293618114
0.15404754256161823 -0.1605140043827954 0.08893761677095015
0.15496450130655431 -0.1599294187132413 0.08845779977647081
0.15449014457261248 -0.1597247468128807 0.08898149629313512
0.154953924663639 -0.15944653109980894 0.08870672500768582
0.15512601116070962 -0.15880944807245365 0.08883002188770477
0.1558500902002907 -0.15819664570564207 0.0882826531133068
0.15545216907317502 -0.15802416325877386 0.08881100910241083
0.1557892634057247 -0.15773014251953577 0.08852931010464454
0.15593405292647267 -0.15708585850947102 0.08862508673986955
0.1566126527422468 -0.15643122021795414 0.08798460406228675
0.15624497554171787 -0.1563434575722342 0.08850783145263637
0.1565870137295976 -0.1557757478191417 0.0882904829715867
0.15620794272520944 -0.15543638858869246 0.08904184287528857
0.15659121648510668 -0.1551037993297344 0.08861731302130944
0.15684846442946174 -0.15436331302117068 0.08871675115493932
0.15705955294434762 -0.15370612053576593 0.08884622651767994
0.15761211823568272 -0.15311774524309973 0.08825720957694086
0.1572891291630206 -0.15304558390383258 0.08897047083513919
0.15768042627266513 -0.15259541442821814 0.08854561474710866
0.15795057311071206 -0.15182449865519546 0.08860987920423148
0.1582275369294028 -0.1510356229621114 0.08870428247189807
0.15831733253290248 -0.15049410795151938 0.08907430938112619
0.15894766190728454 -0.14961117075248095 0.08836726048388015
0.15865161776287184 -0.14963678772679792 0.08920320239533654
0.15907361993388242 -0.14907012030996752 0.08871125212780616
0.1594331010610335 -0.148247556212209 0.08882179797297354
0.15982423494518755 -0.14744941516843932 0.08893541611460845
0.16007495612120748 -0.14676431749362479 0.08932595232237205
0.1605461766457174 -0.1462692936315249 0.08886237621312422
0.16090788638489498 -0.14546511434210135 0.08921220644281852
0.16119343930130675 -0.1447610709647886 0.08955867035117047
0.16193276077635105 -0.14404589544317387 0.08891602568312447
0.16162819592043332 -0.14398972983429192 0.08968899707809695
0.1621028154080193 -0.14351876301013433 0.08930701816481294
0.16249823440566086 -0.14279877315944914 0.08954751366424682
0.16341352035649467 -0.14197009905662544 0.08898267501559237
0.16310926264011752 -0.14192553147401182 0.08964911650191404
0.1635684005128657 -0.14151278018331617 0.08940223912912187
0.16392602352133195 -0.140867198894797 0.08968389463367313
0.164837338116367 -0.14001389135691822 0.08916616939067906
0.1645156656244447 -0.14000080074024607 0.08985626798170668
0.16500776890331922 -0.13954960292658952 0.08958557967389834
0.16545267891691576 -0.13885761466036667 0.08982759175679715
0.1660304260240356 -0.1379811401878527 0.09014753465536378
0.1665338253391879 -0.13768425394107053 0.0896559666325946
0.1668515325219155 -0.13712291745081945 0.09008007454904927
0.1676726608773516 -0.1366028830456982 0.08955477890137795
0.16733955299967984 -0.13664563416918435 0.09008419635553946
0.1678046665630988 -0.13618524986444955 0.09008248387913488
0.16826867061367642 -0.1355589236375861 0.09039873785842732
0.16938203945445954 -0.13470179767550983 0.089983490598035
0.16894461046307535 -0.1346564158386188 0.09075144468594569
0.16955602096565622 -0.13421316701809652 0.09037767830743855
0.1700373021035738 -0.13348484344024872 0.09051041212251966
0.17053327617293576 -0.13265039138580725 0.09066385706962077
0.17069329583528361 -0.1320645750960651 0.09108374702159885
0.17167290522543344 -0.13119070386511472 0.09046560376562365
0.1712224795168035 -0.13113324005453875 0.09119717377868564
0.17191664206233415 -0.13061894052360193 0.0907293503428814
0.17249744654975938 -0.1298366549073298 0.09071942589402957
0.1728733271480541 -0.12892611194077833 0.09108504850092969
0.17301414737948081 -0.12830585782055803 0.0914051784477293
0.1727048576829247 -0.12806522446452406 0.09195877674935395
0.1725357622416503 -0.12876803214610333 0.09161271808324471
0.1733547851555163 -0.1277102678216973 0.09150600284566641
0.17404543879675483 -0.12688706099652397 0.09136647318983862
0.17448304184357444 -0.1255924417664366 0.09173412455746267
0.17497258788704884 -0.12467194221702084 0.09177214895711644
0.17499655646220194 -0.12406754108392704 0.09211577852376662
0.1756785911335047 -0.12369469049724578 0.0915501404316465
0.17530613541671813 -0.1234406949386758 0.09219645407577699
0.17532600716163027 -0.12284830459907702 0.09264028079079131
0.15488413052474206 -0.17343185373747078 0.09087285189428285
0.1551188771339231 -0.17335920043470956 0.09045229488495896
0.1547072223728972 -0.17301159483225553 0.09077481881296258
0.15412046819598885 -0.17208473433643212 0.09082747707418892
0.15348624992028964 -0.17109371922277045 0.09093513845918959
0.15380910905659312 -0.17031318813356924 0.08986431606848594
0.1532514694820467 -0.17013545259082474 0.09050919786711766
0.15329011257697264 -0.16951345348066638 0.08999137877073152
0.15330751555282932 -0.16899940451063686 0.08964479528241044
0.15285131008262626 -0.16861009122535106 0.0901911165936507
0.15305622272462893 -0.16825566055137114 0.08966810223320841
0.15263709531316008 -0.1677529383168444 0.09016865313280747
0.1528230875131065 -0.16756909872023562 0.08976397139368691
0.1527805302977401 -0.16696791274027303 0.08968492744176357
0.15299452725599771 -0.16615308172698676 0.08902614093072213
0.15255323755220895 -0.1659636778094603 0.0897364575380405
0.15275724774059202 -0.16539699643852637 0.08925470206316939
0.15233418255307377 -0.16491727826034475 0.08985437122535331
0.15252982946228733 -0.16468920644820154 0.08947223596488578
0.15245378435933682 -0.1639988837282217 0.08954182956580892
0.1529296052302628 -0.16329220725771176 0.08891473746431464
0.15252464086880183 -0.1631440140314422 0.08950524565094319
0.15274979007703923 -0.16278195587489613 0.08922967110260535
0.1527715695862908 -0.1621255210554146 0.08941864755637302
0.1535225947626391 -0.16155270242308709 0.08885630761709604
0.1530709706322675 -0.16133927962535416 0.08945407231078642
0.15345179438470372 -0.1610653793254296 0.08916948113019636
0.15365148946314555 -0.16079414706175055 0.08911840006151998
0.15345546582241232 -0.1607469716315871 0.08932283846524461
0.15352400968142424 -0.16038343639197902 0.08947167632026991
0.15379963358938697 -0.1596882220621183 0.08964901045880758
0.15470508774017552 -0.15910226356956436 0.08910052724458407
0.15425899996132628 -0.15889756086318582 0.08966734488257413
0.15468081341033596 -0.15861615495056375 0.08936538552344316
0.1548740934790702 -0.15796581947640462 0.08950134086234682
0.15558579205439196 -0.1573968474160682 0.08892804580323518
0.15523218049562718 -0.15718105151550765 0.08947789592598317
0.15558112927098283 -0.15687875530413678 0.08918080730510423
0.155782524140015 -0.15620009818737232 0.08924409739184413
0.15577864827306423 -0.15529626240167677 0.08982906622166792
0.1564471006374073 -0.15473363357981412 0.08909947144642706
0.15616073013863563 -0.154538065761463 0.08977067904079283
0.15652260820161074 -0.15421063815351507 0.08939816122608986
0.15680207124436202 -0.15352462479892084 0.08951035814849088
0.15703662797935802 -0.15288385552257713 0.0896394462680927
0.15756196338805248 -0.1523138831312532 0.08904103088501764
0.15728799517769165 -0.1522838508248884 0.08970351186874781
0.15764737253275712 -0.1518011486155856 0.08935116621646301
0.15794349947428318 -0.15109018424783247 0.0894028687310546
0.1581792868053567 -0.1502428647354943 0.08978898226701079
0.1583839914588497 -0.1495562624606663 0.09008570273308025
0.15900118560691373 -0.1488083480088572 0.08929167219365697
0.1587376746666815 -0.14882199570651594 0.09005416972737108
0.15914492291494575 -0.1482545466908003 0.08966147487402014
0.15953906929418762 -0.14744244407907586 0.08974385792353032
0.15993565114415337 -0.14641459408508053 0.09029024839458434
0.1604242101749237 -0.14594544826824907 0.08968846834215588
0.16077677665970674 -0.14511484119582016 0.0900791074032012
0.16116981979484363 -0.14443537012997965 0.09012387039097915
0.16134793973991843 -0.14394179775851865 0.09045340857889665
0.16204520855482335 -0.1432458269753456 0.08987929912136348
0.16176536470957986 -0.14321646123738227 0.09060702881594872
0.16222169338308634 -0.14275853749085127 0.09026350875854412
0.16262515276739334 -0.14205659259771705 0.09047546251199194
0.16348546934205013 -0.14128789706295886 0.08990357286571128
0.16320046506644112 -0.14131044231075354 0.09045446771743922
0.16362380810715252 -0.14086312350513838 0.09031286158675207
0.16400485275849905 -0.14025695338490474 0.0905341746767692
0.16491238522027934 -0.13932032978903386 0.09014471649316848
0.1645426347468137 -0.13933472990449444 0.09088588111882992
0.16507180008865105 -0.13885668277143454 0.09056720173465252
0.16550331775974417 -0.13817119496304525 0.09086118985297355
0.16644260452570217 -0.13743371716263716 0.09030326711319739
0.1661958286770363 -0.13732535266485568 0.09101107187060112
0.16664081648211168 -0.13703568946994504 0.09063140952793204
0.16701701178393172 -0.13667944189146664 0.09058152189877826
0.16751854359003723 -0.13600343013233132 0.09093361314703256
0.1682091142553468 -0.13505038646837625 0.09141888926911676
0.16867526429730734 -0.13447472192565366 0.09151722170013374
0.16947033310501677 -0.13395258358332487 0.09091358030219777
0.16911335718349632 -0.13389830655103932 0.09159159757008718
0.1696693682032168 -0.13344420857702216 0.09127338923496466
0.17012952911199716 -0.13270712368109908 0.09134735030330814
0.17049605730365652 -0.1317911180225278 0.0917184316735049
0.17079492145146155 -0.13100433965737784 0.0919990902184454
0.17183015080731587 -0.13024726059631514 0.09120767203175999
0.17138115376273627 -0.13013786090260515 0.09189207036797878
0.17218637863717892 -0.12949632254676927 0.09145547403660659
0.17193692149445117 -0.12900836658341244 0.09212398298421373
0.17212045475249962 -0.1281875874548068 0.09252350762059662
0.17327030459326165 -0.1272524531912749 0.09191580342601272
0.17267063780859984 -0.1272124670689686 0.09258283936183383
0.17355855914770343 -0.12638534479053162 0.09215438854981356
0.1730526106849266 -0.12591574629040198 0.09293872992822999
0.1738146235314228 -0.12550663735256926 0.09241049359558454
0.1743758796038549 -0.12466956045069644 0.0924042684863506
0.17465951346116995 -0.12365645454172064 0.09276685020633292
0.17511027602144272 -0.1230076708483794 0.09279889573622979
0.175131420189196 -0.12275262666821997 0.09295990884462808
0.15453452742481752 -0.173241563416605 0.09129416101672846
0.15403010343019657 -0.1730877592675756 0.09192345799080803
0.15416648950917927 -0.1727301128449242 0.09141586693251273
0.1536116010311366 -0.1725245189968093 0.0920673720456482
0.15358169006407965 -0.17183926720187398 0.09144609463278894
0.1530607297083625 -0.17147434310262816 0.09210473882360412
0.15315462129292567 -0.17104318011744557 0.09149570301954746
0.1528491742898868 -0.17023533103826624 0.09128677636576044
0.15288353223672826 -0.16924553798339362 0.09045608203245807
0.15261896730116692 -0.16927710551049707 0.09099636452009005
0.15257172121837462 -0.16870278467642125 0.09069056549444876
0.15233421386307205 -0.16789991499046825 0.09080658371155025
0.15256639023523108 -0.16715761534532247 0.0900815891647964
0.15228378739209317 -0.16703899384192952 0.0906013248604781
0.15236820581965074 -0.16650115838076707 0.09022945543983336
0.1519891456041653 -0.16611582429806307 0.09094374587096565
0.1521684221073822 -0.16579762845418144 0.09044169865833417
0.15203764875768136 -0.1650440703803406 0.09050027323159472
0.15226943357837566 -0.16430883877754485 0.08985976547883841
0.15198593074203498 -0.16414782479153098 0.09042688637952113
0.1521096836787079 -0.1638153900750351 0.09010394734857656
0.15206239499992683 -0.16313840659227732 0.0902301050965866
0.15248165450624207 -0.16247114057322234 0.08965731988739485
0.1521466289031289 -0.16229479914208883 0.09023605155668438
0.1523730086849734 -0.16197303237418897 0.08995641362811585
0.15248214904244253 -0.16131030498573096 0.09014416206620074
0.15323170985487422 -0.1607164381449806 0.08957106348288521
0.15280905264804603 -0.16051224154741497 0.09018301881319955
0.15318143435241333 -0.16021786531334115 0.08989899960609965
0.15339583567900247 -0.15993980620478984 0.08985503528367932
0.15321769347915926 -0.1598778877035492 0.09007013117982211
0.15331718053005824 -0.159509890399459 0.0902435786257897
0.15361235803503218 -0.15882648362814905 0.09041872699261787
0.15447283784253255 -0.15826121416268685 0.08980519180608912
0.15408931275657872 -0.1580329652640668 0.09042196928891034
0.15449803467014925 -0.1577429926369232 0.09010421020675335
0.15471948050912002 -0.15708243665656835 0.09023169026732188
0.15541069380588687 -0.1564975726101294 0.08959983899635453
0.15508426409542098 -0.1563738550356248 0.09016483277151982
0.15542644535095476 -0.15584569951876875 0.0899807427855986
0.15511475766133978 -0.1554947760693357 0.09074054582775497
0.15546170598316592 -0.15520439322960902 0.0903858558358808
0.15570102624432341 -0.1545230635111931 0.09056855120019627
0.15641703713351413 -0.15387309955714026 0.08989564833298892
0.1561362255725483 -0.1536954018853303 0.09056686189296455
0.15650909089774148 -0.15336207432403412 0.09021664226246637
0.1568112346266583 -0.1526545640795387 0.09034959691790333
0.157186572098927 -0.1517464265614557 0.09055356054159037
0.15754508513751314 -0.15146800076384348 0.08999030025949338
0.15778900855731343 -0.15072653413186837 0.09025868762467724
0.1580266888707051 -0.14988476868810524 0.09068688388115316
0.15837215435205473 -0.1491579655017795 0.09068196199051697
0.15861989589596176 -0.1483790001035622 0.09105568046226943
0.15906334110980494 -0.14793351392701748 0.09041077643273944
0.15940851625942656 -0.1470303150361661 0.09080772258692127
0.1597346329163798 -0.14636755339509594 0.09097375734208459
0.16033322314177928 -0.14566409864505322 0.0903803137020076
0.16006540819130616 -0.14568174348978433 0.09115197837689
0.1604991524851391 -0.14516026007569632 0.09074837468480923
0.1609075010081589 -0.14441658851664912 0.09088918346567947
0.16130495084073074 -0.14367869177527492 0.09101198890307989
0.16149801903557373 -0.14318152003316245 0.09135125219859806
0.1621723069538604 -0.1424971404208286 0.09079986113241774
0.16190248009924912 -0.14251914537368307 0.09144630508168194
0.16236595572079782 -0.14198834028168503 0.09120989530264316
0.1628757097195726 -0.1411750720038612 0.09142610630786902
0.1635080944026725 -0.14062516601213731 0.09097727223801728
0.16392535732603908 -0.13980636325337592 0.09143659880468098
0.16430396346254048 -0.13920601574211755 0.09159806838087409
0.1649799503747362 -0.13861816826589993 0.09113428270477678
0.1646685548771458 -0.1386006717575922 0.09181076420853986
0.16516737234367976 -0.1381165905129338 0.09157523372537774
0.1656517249047285 -0.1374552708152928 0.09178256655099513
0.1667907414469689 -0.13658518627018082 0.09119468147735005
0.16633669768016926 -0.13654120403100772 0.09210159456995452
0.16708188016702302 -0.13589837544974265 0.09190386342084542
0.16763399001257528 -0.13540632062735858 0.09180551542531547
0.1674298328235884 -0.13512149450240785 0.09258970055206156
0.16793386406694727 -0.13489125562330542 0.09216545539541827
0.168445998011398 -0.13423455059327272 0.09226495359121081
0.16903665696911083 -0.13334719769385805 0.0924318756111459
0.1695637867662379 -0.13308771496371508 0.09190481388747135
0.16993432506763456 -0.13231988754086868 0.0921520741955711
0.1702521642861258 -0.1314648111147567 0.09243659148972366
0.17064931180295012 -0.13046872167328297 0.09267067153701421
0.1712221122273363 -0.1295922804174092 0.09255523789393556
0.17145266651417146 -0.1287903251920952 0.09282946597822522
0.17178397475369875 -0.12785930148813146 0.09308752344591245
0.17204860094606933 -0.12678617415679855 0.09341361133531444
0.1724182136373749 -0.1256543981366162 0.09368807438907147
0.1736622878238856 -0.12503681462258928 0.09286190790030095
0.1731707007225943 -0.12488174218370036 0.0934255425853394
0.17393169675212528 -0.12425833997887853 0.09312605043361291
0.1734657301707054 -0.12384807828951176 0.09381212777365405
0.1741506224316202 -0.12353688610819501 0.09337461492803717
0.17459189022706165 -0.12302294913720367 0.0933160790930831
0.1534989686898129 -0.1730570198482191 0.09273679530282021
0.15318296414594468 -0.17233066534983102 0.09275965899034293
0.15271835527328567 -0.17141533730636188 0.09291213327069042
