# .PCD v.7 - Point Cloud Data file format
VERSION .7
FIELDS x y z
SIZE 4 4 4
TYPE f f f
COUNT 1 1 1
WIDTH 790
HEIGHT 1
VIEWPOINT 0 0 0 1 0 0 0
POINTS 790
DATA ascii
0.1719621574180232 -0.08682359896384587 0.0723364993357935
0.17182811156386876 -0.08583505075433273 0.0723119707807265
0.1716128259146661 -0.08488640889968863 0.07230705908036146
0.1713130279783266 -0.0839995438643521 0.07231423474920089
0.1709881221337695 -0.08324584844129831 0.0723013227726812
0.1704681632912422 -0.08206303853439031 0.07188019816009589
0.17067758714497328 -0.08271031327366071 0.07237511974582377
0.1698316008323585 -0.08072094863426775 0.07154674438515105
0.17006889163036937 -0.08156360060039333 0.0722012488533849
0.16942825337654593 -0.07999113184986985 0.07173329794269723
0.1690464530473896 -0.07915682074233672 0.07179731108873864
0.16867320599921365 -0.07833120179031654 0.07177260737996084
0.1683518174158639 -0.07759982574984782 0.07167265053338967
0.1679107615294127 -0.07669576947249986 0.0714114344791586
0.16815676865512832 -0.07715576924656059 0.07156456089660976
0.16712094714711323 -0.07543604291868994 0.07133387281773752
0.16751941552439853 -0.076215450576284 0.07163630916474253
0.16656783501609757 -0.07451625441098543 0.07143476209968311
0.16629722888072812 -0.07377249884606925 0.07111298427017224
0.16604913824199588 -0.07324294346103218 0.07119962407036182
0.16618804685626457 -0.07395876819338852 0.07180827173937074
0.16573785755583015 -0.07249594783695985 0.07124828516276081
0.16537582781598695 -0.07167991325569341 0.07129146922633621
0.1650280498182026 -0.07097794138387806 0.07129217952270676
0.164416248129137 -0.06998130929989153 0.0709404772678042
0.16469487560367319 -0.07048992824561838 0.07137560908815228
0.16350919362013228 -0.06900006606349642 0.07086858230865867
0.16394227891753602 -0.06958992967546763 0.07135237409449965
0.16260615428273348 -0.06789846411320735 0.07066987953258264
0.16298204505172006 -0.06849671541263666 0.0712979643065423
0.1619098317978166 -0.06671128241566794 0.07036518067824922
0.16218818370620694 -0.06731690764571399 0.07101412404757561
0.16158714500673693 -0.06608492238814072 0.07065078774327392
0.16129481168320564 -0.06544376713824937 0.0709295561542588
0.16075522869595193 -0.06419828729330503 0.07055272096017626
0.16101025997816013 -0.06480469042097978 0.07120543120170464
0.16012781687166383 -0.06301627071459599 0.07025708815071711
0.16043045881037923 -0.06359162577204178 0.07087130462693912
0.1597859121031013 -0.062428023515225105 0.07061380958779365
0.15920452593679113 -0.06123308003753845 0.07036092394542742
0.15947610866615197 -0.06182658655583283 0.07097702917625869
0.15876552752423276 -0.059896663261880125 0.07003204228637852
0.1589548273007612 -0.060575474301579675 0.07069395852402231
0.15858055220487896 -0.0591956770974254 0.07033111699744721
0.15840498823180496 -0.05849732335453116 0.07063320470566514
0.15807566518798877 -0.05706223045521252 0.07029279593286743
0.1582348690069663 -0.05780179414247701 0.07094621696744285
0.1577328469082458 -0.055569520608447054 0.06994344030588334
0.15786946603596005 -0.05633183276143753 0.07063707569736863
0.1574727118652605 -0.05469068696507841 0.0701605882203482
0.15732207004166018 -0.054036870600305834 0.06996239824805842
0.1570098678855913 -0.053237882434163226 0.07005553681852106
0.15719120206838488 -0.053717459307888585 0.0700603935039356
0.15641386137395602 -0.05185038742669261 0.07024936783268342
0.15671473194776508 -0.05265456106846818 0.07041034241740032
0.15592344896646623 -0.05028858817526883 0.06996303854894377
0.1560076939206003 -0.050943520509674094 0.0705911045726525
0.15548949808828036 -0.04926791402077553 0.07015015704652361
0.15571824841818582 -0.049820617334312645 0.07009741852306957
0.15487876507105222 -0.04782758739002677 0.07050356218116524
0.155160604873322 -0.048652584442929685 0.07060346804665506
0.15439162639849882 -0.04626129514950364 0.07053494586020216
0.15455370809905197 -0.0470353020124551 0.07089042170664252
0.1539163076722029 -0.04461091388057049 0.07075360597919828
0.1540560933990501 -0.04559971960888379 0.07115332566529689
0.153463821523691 -0.042910187568200135 0.07077027137593836
0.15359273830016318 -0.04385962043143731 0.07133886741002247
0.15307225283359938 -0.041480913142106265 0.07058733397061889
0.15316663269262104 -0.0421966994817075 0.0711975724723976
0.15288204376104136 -0.04113702704863199 0.0709098355714889
0.17418033732636054 -0.1143338963391834 0.07401272910672432
0.17401902569340114 -0.1137719996914133 0.074275040356332
0.17383830071481177 -0.11292338561980221 0.07443166940050874
0.1736800060525878 -0.11202192443034756 0.07456472247499181
0.1735820895928717 -0.11110290801905565 0.07466382402106012
0.17353384012502088 -0.11032492901304759 0.07485899671640277
0.1738157275849574 -0.10905894828585656 0.07364625574466385
0.17357941983289893 -0.10933233736223331 0.07469950784874765
0.17377161238784403 -0.10843969621726854 0.07414478279865519
0.17393493204548777 -0.10780994036560118 0.07379554569609689
0.17375480840067514 -0.10781477382914892 0.07450662495961574
0.17391910868975818 -0.10728178589795442 0.07404681647315658
0.17399617536739517 -0.10637987310476063 0.07387283105774001
0.173997527837858 -0.10530996328851597 0.0740163393665335
0.17396988211545927 -0.10439035708375435 0.07403266564408502
0.17389562603684638 -0.10348915011206888 0.07405461292264764
0.173781004394975 -0.10255517115246668 0.07404848901561177
0.17363361998880175 -0.10159765187544288 0.07402539430659677
0.17348573967829603 -0.10061495193968326 0.07399379513949904
0.17334153880717657 -0.099621260289031 0.07395367971759952
0.17320517318572654 -0.09863753018812965 0.07390130182660194
0.17307972514574113 -0.09765515865581999 0.07385594872383146
0.1729491847229793 -0.09667964893651682 0.07381369841457985
0.17281969769841593 -0.09570081741348437 0.0737773780900748
0.17267299461139762 -0.0947248315748506 0.07373114147849212
0.17254579658865737 -0.09375207123095516 0.07368423246409994
0.17242445412758556 -0.09278016282345017 0.07363874645185434
0.17229894325654255 -0.0918040825498952 0.07359163365632393
0.17220005626994211 -0.09081818951920534 0.07354678702180964
0.17211032796475917 -0.08982155790097271 0.07349256780981198
0.17202535731201166 -0.08881553161040971 0.07343030364555501
0.17194701624627498 -0.08780588696751976 0.07336960361561362
0.17183073638268687 -0.08680416541386382 0.07331621545962473
0.1716639826847871 -0.08582100510944403 0.07328627604950712
0.17139272700777428 -0.08485349487402309 0.07326956099267996
0.17100996342778693 -0.08387059835381425 0.07319750537294158
0.17077763462863052 -0.0831629146623155 0.07283131090045401
0.17034933688086473 -0.08239168281542344 0.07276389730582346
0.17059656475097346 -0.08285428237390491 0.07285277612703554
0.16963371694343854 -0.08101605862747531 0.07268989943006708
0.169978365971522 -0.08187702975901184 0.07301643077285916
0.16917918794665543 -0.08005724499779726 0.07274688897158843
0.16877556225116794 -0.07913306220146488 0.07274040057755744
0.16836306707637505 -0.07815967910925939 0.07258167562514951
0.1680765004115787 -0.07733974971600156 0.07211640110762477
0.16788091415553053 -0.0773562005490854 0.07274354715049837
0.16810151258942974 -0.07770709993229818 0.07268785515793275
0.16770680548713662 -0.07678990304287134 0.07218501606807098
0.1672763716649166 -0.07624738225606767 0.07242919616147743
0.1675849753418939 -0.07692686306433766 0.07280505584821383
0.16677285785340482 -0.07539690749928289 0.07238849787532714
0.16635853733667283 -0.07466896706360261 0.07242838168952782
0.16585556699721504 -0.0733844456419817 0.07216014827453308
0.16608040400800342 -0.07414816937180504 0.07250164236633197
0.16548082439563144 -0.07246154100456903 0.072192089090103
0.16507222417398199 -0.0715390364776372 0.07216137829051908
0.16482239749555022 -0.07087799118290773 0.07180896322114352
0.16434461765402025 -0.07021913810620065 0.07179822869956555
0.16462987004460664 -0.07060025791968799 0.07183769430733379
0.1634422340971508 -0.06920039230594785 0.07199152609052344
0.16392111234230022 -0.06981471392140741 0.0721307506783631
0.16251512187362188 -0.06791973367700652 0.07165724855311918
0.16288106633816904 -0.06853763800280754 0.07233263373332591
0.16183765776658868 -0.06670168730983132 0.07131657809559794
0.16213098689191613 -0.0673121568734229 0.07197823380275746
0.16154030787211424 -0.06606600466839381 0.071598360395401
0.16127127744684452 -0.06542099606032027 0.07187390052389483
0.16071665900877988 -0.06417767512831227 0.07150363727026492
0.16100287700695326 -0.06477998763157031 0.07215641343369428
0.16009960953040328 -0.06299562807288826 0.07121462256142501
0.16041220846177448 -0.0635649625491464 0.0718330635249532
0.15977582246932084 -0.0623977470810001 0.07158071359109312
0.15920812876338622 -0.06119871646584779 0.07133143106591507
0.15949165723965983 -0.06178142510711944 0.07195042729022146
0.1587599234286075 -0.05989357211366263 0.07100545915585751
0.15898127327485853 -0.06054118631302675 0.07166617391180005
0.15858521782119392 -0.05920483068441634 0.07130756352578209
0.15841243747679437 -0.0585053549080486 0.07161438049960821
0.15805346480955984 -0.05709836076320778 0.07128366472300998
0.15825982196821792 -0.05780017895183677 0.07193608832031478
0.15758710125310313 -0.05548190467681737 0.07103676376392802
0.15782828416052985 -0.056368333856887956 0.0716764608335476
0.1573316407696032 -0.05469242516343159 0.07098536410523024
0.15712487552864937 -0.05433166174459448 0.07138480150293532
0.15730168277325937 -0.054936930545329506 0.07173619942977263
0.1571463616038923 -0.05396582931413414 0.07061216681800968
0.15687361680125167 -0.05372415939330257 0.0714041514821025
0.15681533370667008 -0.053222370905427724 0.07085022492088455
0.15643901116586964 -0.052502388946169626 0.07121246341492775
0.15667348325227945 -0.05319329059709201 0.07137178032646978
0.1561535668875067 -0.05165674781050864 0.07099303577600408
0.15566495039762554 -0.0500319787597648 0.07065779296487998
0.15541199637123268 -0.04999483284093494 0.0714878333623183
0.1557249492264783 -0.05063057226691385 0.07123946488149675
0.15589993567485888 -0.051202902126560854 0.07130771924343408
0.1552885566339819 -0.04929429676068196 0.07100474197820704
0.15488116400338872 -0.04855187964617007 0.07149725726224705
0.1551465063616994 -0.04936308463841325 0.07157945439579959
0.1546166769766639 -0.047606030446468744 0.07129494459412165
0.1542456193944209 -0.04657162113652764 0.07151695306726413
0.15444019856320912 -0.047167789881634004 0.0714542045747381
0.1536977890061118 -0.04493668902472672 0.07195358489589808
0.15393115148616804 -0.045888155223851944 0.07200806593173971
0.15326602621614546 -0.04309060769897121 0.07179651821825714
0.15335987803796483 -0.04400564392948497 0.07237968626395845
0.15290159556732633 -0.041576122153157466 0.07148537932688102
0.1529823539586973 -0.042379490842821846 0.07214865894872984
0.1527681958330031 -0.04126814754192072 0.07159752963675949
0.17414379257774174 -0.11415501539728663 0.07468635480005553
0.1739834735116993 -0.11357974662444384 0.07510228766264923
0.17381746220272346 -0.11284416521657106 0.07537933795889228
0.17365353648423323 -0.11195656225402416 0.07549706275733434
0.17352499406204402 -0.11104161752038658 0.07560332281004987
0.1734341267812665 -0.11009097537985 0.07570076704465027
0.17336856937860895 -0.10898399586656028 0.07591337484475313
0.17358108542286088 -0.10838007917849377 0.07498267371063125
0.17361521005553207 -0.10782390945610545 0.07502984051096334
0.17367905541749865 -0.10715411698718251 0.07499627299217847
0.17373819381219843 -0.10599925644539361 0.07510079067171076
0.1738332076015251 -0.10503691971994158 0.0748313521699812
0.17379482738495608 -0.10426226183023085 0.07494634192305359
0.17373989408261523 -0.10337148767844899 0.07495872987320068
0.1736229781948701 -0.1024562103363626 0.07498378078117299
0.17347637636045704 -0.10149044775850027 0.07497972214503643
0.17333428063646808 -0.10050810899452707 0.07495785410949021
0.1731936772710022 -0.09952010926917108 0.07491202512526147
0.17306702941283467 -0.09854496513152104 0.07485307674971642
0.17294430433699629 -0.09758682649862942 0.07480817185562386
0.17281986959642237 -0.09662497111085072 0.07478538403157878
0.17269395565495432 -0.09565815057918736 0.0747614391031089
0.17256848005392797 -0.09469119578182998 0.07472729988358014
0.1724530631604181 -0.0937304033489078 0.07468683221924532
0.17233634617698848 -0.09276483927225 0.0746474039236599
0.1722290067975801 -0.0917935371475024 0.0746040580590891
0.17213041940750165 -0.09080667064795464 0.07455456234599776
0.172030146059705 -0.08980642287375414 0.07448976311039639
0.17194402893002647 -0.08879664888947131 0.07441964033399608
0.17184268532910923 -0.08778937228656075 0.07434739786050268
0.17170686597070747 -0.08679310154228206 0.07429524918073796
0.17149274743020276 -0.08581222330779467 0.07427600161645097
0.17114557104659786 -0.08479246268271301 0.07430967163031707
0.17082298820302494 -0.08392429428648925 0.07398900429759377
0.17057445174796623 -0.08359332751335902 0.07427352790650717
0.17078404304822592 -0.08422025470369124 0.07477373788574153
0.17057311483518064 -0.08316822004457008 0.07345667377737486
0.17029188818363758 -0.08307504822066719 0.07419702252904976
0.1701454230681013 -0.08250536537643777 0.07357606743973592
0.1697551680603002 -0.08189885611114253 0.07381302644458758
0.17000432232156898 -0.0825983241185039 0.0741997064735928
0.1693346689872541 -0.08097336804582259 0.07374568029308401
0.16893065277736677 -0.08005926921233558 0.07376318311726335
0.16849101879237738 -0.07905236244930162 0.07379926624940072
0.16807650602777513 -0.0780065422257259 0.07334423100383039
0.16785265658308904 -0.07787931388947086 0.07393940309737981
0.16811848215173508 -0.07851299312760956 0.07433913168429519
0.1677191879220337 -0.0774039520002508 0.07336249623298574
0.16736484558594136 -0.07683496386032534 0.07334020472237254
0.16754873637148102 -0.07741910213987863 0.07403611002238356
0.16695075927212738 -0.07614375115898049 0.07331947970129088
0.16647719242532324 -0.07533268995929517 0.07338357897146645
0.16617170474926793 -0.07460630493914153 0.07303719079009373
0.16592573206208566 -0.07406174526494595 0.07308685993826249
0.1661166135387403 -0.07475435971426878 0.07377681190412091
0.16562367322870755 -0.07329791543906494 0.07311495594662609
0.16522449957123514 -0.07239766753905448 0.07321376434938817
0.16489254508135617 -0.07159230056117556 0.07293818877459732
0.16465115630831886 -0.0712882385279589 0.07322566166559483
0.16487170030719583 -0.07187770025250306 0.0737078517184976
0.16462417359122436 -0.07089147908982063 0.0724320009214183
0.16436454778839893 -0.07080906892029304 0.0731700950347389
0.16417423496943173 -0.07031227556822801 0.0726075278062358
0.16373929064572412 -0.06983729255820856 0.07293940330263635
0.16406674893715673 -0.07038616324311699 0.07322048384220785
0.16323053372685944 -0.06915857654882898 0.07307872368175423
0.1624553474814585 -0.06791798285997516 0.07264573162574245
0.16279318340942597 -0.06852411474830841 0.07333948256533022
0.16181309403806637 -0.06668316266306737 0.07226934330336897
0.16211156607523458 -0.06729103004581294 0.07294705159218624
0.16153826007014202 -0.06603653482250663 0.07255182096880153
0.16128798732875102 -0.06538636325924159 0.07283037627019891
0.1607195887713001 -0.06414626286633246 0.0724691970613294
0.1610301346514652 -0.06473937163546357 0.07312561647818988
0.1601013918307746 -0.06296121501842737 0.07218713217004902
0.16043118187138244 -0.06352505582725917 0.07280608844446028
0.1598012251320785 -0.062350056962178414 0.0725606960276018
0.15924954304223268 -0.06114899392813044 0.07230707368261675
0.15954135783324216 -0.061726804357089965 0.07293412384345516
0.1587945006140955 -0.05986342694896198 0.07198461802146935
0.1590322091180498 -0.06049458044248627 0.0726486926329038
0.1586245262205705 -0.059169845268841725 0.07229543662852118
0.15847206616665113 -0.058460640021856684 0.07260867847134128
0.15806900892158646 -0.057097297172038104 0.07229663426227263
0.1583133312381641 -0.057751314794613824 0.07294302773424606
0.15757637166407729 -0.05568728618650251 0.07216226349184446
0.15784640481227963 -0.05639894917285814 0.07271694130590381
0.15695904449408263 -0.05422870368954797 0.07219558429233759
0.1572756101478623 -0.05506007200037441 0.07269475319285078
0.15656644317940574 -0.05326272135598024 0.07200767480062886
0.15632891011154323 -0.05303967986730898 0.07274271240940494
0.1566268148517815 -0.053702546840682874 0.07291370753376618
0.15610015584237474 -0.052315207998377335 0.07222382019145161
0.15575726531324394 -0.05186754770419426 0.07283997802584431
0.15602159599571377 -0.05255993947314621 0.07313152444509091
0.15562117145719337 -0.05103161531935682 0.07211640231932659
0.15520644735273434 -0.05053957255770573 0.07290811575842149
0.15545210035565515 -0.05126927570501213 0.07319608581684837
0.156032706004612 -0.051752836694458085 0.07157145548023608
0.15502755599790496 -0.049667005240651235 0.07230508808150773
0.15465094181226216 -0.04923775838137883 0.07305649225836337
0.154861783921945 -0.0499435434187852 0.07330623196368767
0.15458069862495968 -0.04859555892468241 0.07254199582245789
0.15425540184171216 -0.04797494816764742 0.07294406078866257
0.1543643453776505 -0.04861273016533958 0.0733820353682202
0.15436736064576384 -0.04754537318680192 0.0720876703129334
0.1540294084802651 -0.04726396912937387 0.07299430414528708
0.15400201401956604 -0.04660225510499975 0.07245077168881997
0.1536754428258071 -0.04581059128307685 0.07291156514203048
0.15381629309847072 -0.04660657093275592 0.07315287147947898
0.15337454792088603 -0.0448315912097339 0.07303211001091942
0.1530782056943442 -0.043285195590366775 0.0727789623074342
0.15314792939392785 -0.04408540227799551 0.07326375503235992
0.15279829784511081 -0.04183411650790469 0.07219140254926018
0.15284828511618395 -0.0427741076773476 0.07308010750206734
0.17396343551716031 -0.11331454652721558 0.07604544287689412
0.1738472713854377 -0.1127567557968525 0.07631045544736044
0.1736709985672096 -0.11190067810558933 0.07645893856384892
0.17349869542745658 -0.11096982960513085 0.07656874668931368
0.1733437072747355 -0.11001079768183387 0.07670820590262321
0.17321961925142654 -0.10920291847956272 0.07696463094603272
0.17346391880783366 -0.10794015915224502 0.07562509058101158
0.17318816165543402 -0.10807566303274393 0.07684085264959255
0.1734118949649271 -0.107259228443577 0.07600805970188718
0.17353907232607324 -0.10668889086044724 0.075707693986085
0.17340892637895197 -0.1067804665710183 0.07616303992609147
0.1734336455054599 -0.10623170559756588 0.07620452486500513
0.173547132919364 -0.10510594370673426 0.07592146040156303
0.1736179204793515 -0.10405440170739975 0.07568874498090779
0.17352334689690435 -0.10325821453487641 0.07583800797605537
0.17340870672873546 -0.10230784514152891 0.07588680863854877
0.1732629930492596 -0.10134106527683871 0.07589627992888606
0.1731138266635962 -0.10034481200221684 0.07589675619375427
0.17300036015766085 -0.09935143078174906 0.07582080784044057
0.17290263123635383 -0.09841134758743522 0.07574384527885406
0.1727790000047915 -0.09748771553797536 0.07574079118398398
0.17266236620392036 -0.09653444036437686 0.07574915160422599
0.17254671254420528 -0.09557263484443308 0.07573899044568518
0.17245243078819547 -0.0946233042692917 0.07570406877163069
0.17235248654230811 -0.09368413027101226 0.07566682338127327
0.17225265727333633 -0.09273575670001266 0.07563901139105451
0.17215353355984953 -0.09177044904584408 0.0756055311796396
0.17205478117707262 -0.09078507826402636 0.07555497953525335
0.17196217427499547 -0.08978689330567972 0.07548400463315134
0.17186771616219837 -0.08877930745811713 0.07540355340845745
0.17175336087190643 -0.08777785197219212 0.0753297909961458
0.17159580761363002 -0.08680182560312831 0.07528579947715056
0.17135974374828558 -0.08586781401741353 0.07530621872000043
0.17105255195238714 -0.085061138779865 0.07546595996177147
0.17039405650960668 -0.08358815648430551 0.07498950859929204
0.1706933777027968 -0.08438064211242544 0.07571281678687086
0.1700959503868826 -0.08297752428984216 0.07468988530447945
0.16982162292938216 -0.08248676464715246 0.07471135399391468
0.17002573903780896 -0.08308991162222928 0.07534623846379739
0.16948342861170473 -0.0817799771061928 0.07469215683516747
0.1691183452935122 -0.08096627391968536 0.07473040804590146
0.16876087741499546 -0.08012028050711498 0.0748218211425734
0.16841511787300442 -0.07936286731791023 0.0750299653313806
0.16779556161796083 -0.07803144168649977 0.07466147063762481
0.1680803635076624 -0.07873272670233626 0.07530844835832722
0.16716772530642082 -0.07682963088228383 0.07413240238501036
0.1674362291611239 -0.07748211056364797 0.07484990107873228
0.16676270777607263 -0.07616530468719536 0.07426202013343221
0.16637718315195224 -0.07550038541458737 0.07447356282932019
0.1658091838953749 -0.07409313410914259 0.0739474709266992
0.16604459704565136 -0.07484645649346376 0.07471133456037657
0.1654917239269553 -0.07335248884605938 0.07410421798231773
0.1651557627469272 -0.07266155971603179 0.07434658044560209
0.16449522613318043 -0.0712944075676182 0.07393810568721389
0.1648117619541022 -0.07204753929794494 0.0746345705435583
0.1641876734009544 -0.07072017490508171 0.07367105070232415
0.16389917442501342 -0.07029805956203712 0.0737556055290263
0.1641489991930271 -0.07083475894340344 0.07433240137765106
0.1635213769138535 -0.06973928296596688 0.07385315007849076
0.1631183060064904 -0.06912126495453541 0.07406268980173814
0.1624296142094889 -0.06789612709901678 0.07363038473130726
0.16275649282451293 -0.06849768752505964 0.07432788331720194
0.1618255412305731 -0.06665120791806092 0.07323549621407521
0.16212916458704335 -0.06725909819727308 0.07392310007772596
0.16157332427501886 -0.06599710433108517 0.07351871197047569
0.16133599473471352 -0.06534106791223745 0.07380287919360312
0.16076330477442588 -0.06409932206784039 0.07344457936376034
0.16108352631062633 -0.06468672246356691 0.07410773006675793
0.16013504540890106 -0.0629116233961395 0.07316823945615494
0.1604858095305146 -0.06347574618454838 0.07378674181190067
0.15985272164833844 -0.062293926911393196 0.07354790947788273
0.15930538015405926 -0.06109468284693729 0.073296617962508
0.15960386785790553 -0.06167278251564216 0.07392461414161426
0.15884950029676687 -0.05980778170414006 0.07297961619981176
0.1590962254347513 -0.06043457458191371 0.07365047308216167
0.15870648946385496 -0.05910378445272181 0.07329737392521597
0.15856520466183996 -0.058395088826900254 0.07361489380444608
0.158118504266193 -0.05704914961473046 0.0733196316806953
0.1583901645421611 -0.05768363769366257 0.07395898916477286
0.1576018807496823 -0.055744509421969554 0.07319151057278725
0.15791028113239353 -0.05637211677584534 0.07374332632339628
0.15696378631677407 -0.05443531458913526 0.0732608739059593
0.15730629791406872 -0.0551116310009141 0.07371517558857574
0.15631611170607324 -0.05322938898461884 0.07348752504857081
0.1566622047833537 -0.0538780391098319 0.07384084383595685
0.1557019361071616 -0.052001983709333816 0.07360851977600946
0.15600172449855354 -0.05267540573624594 0.07399546979754587
0.155113268495815 -0.05069431431701879 0.07369181520255369
0.15539173216479496 -0.05140278753005808 0.07408387595218935
0.1545401127448372 -0.04933505611084146 0.07379866610248785
0.1547737096267465 -0.05007979043461996 0.07418055535604265
0.15402199378317064 -0.047818104469538845 0.0737460397776584
0.1542298953047474 -0.048663030662718834 0.07425787068328514
0.15381572287990503 -0.047031638576003745 0.07360268250340118
0.1535992937972614 -0.04637196028184051 0.07379134507562068
0.1536977704700772 -0.04710969542506958 0.07433638484344617
0.1532953735666 -0.04542395770246139 0.07392385058242076
0.15314896686684035 -0.04462512424110526 0.07369769847186236
0.15290814499925445 -0.04364929922796 0.07375980130209217
0.15303503770241608 -0.04421325047342026 0.07379953170210318
0.15270002785753803 -0.0432596728028813 0.07411029529512207
0.1740007908789073 -0.11315670795565698 0.07673284533115653
0.17390892428392407 -0.11261092094473804 0.07719635308612084
0.1737397574120024 -0.11187259148506741 0.07748075739551268
0.17351638192174354 -0.11093943789226979 0.07757483754139959
0.17330327447669572 -0.10999351808762711 0.07768613021211654
0.17311471268255366 -0.1090553209704466 0.07778558280866073
0.17297915944035452 -0.1082493692499219 0.07798262147991418
0.17325313818135296 -0.10694878513418923 0.07668856002001943
0.1729450333367659 -0.10712005758846566 0.07784392194687442
0.17317895836474387 -0.10630058449834982 0.07704610289172542
0.17330937591139536 -0.10574367284649136 0.07669490585776476
0.17316592110903214 -0.10580972022138774 0.07713378445806383
0.17318345735970547 -0.10522691146578031 0.07708395502983058
0.17333326578913538 -0.10416096735308158 0.07661961278077507
0.17325126896681783 -0.10308395666366192 0.07670023297594859
0.17312819700138116 -0.10212015345291116 0.07673894280164836
0.17297418823413158 -0.1011556605378892 0.07678005133711417
0.17279129654505015 -0.10008815210288928 0.07688904089881428
0.17279782030750393 -0.09908839645361432 0.07652024939280214
0.1726700773641931 -0.0982938269292679 0.07661545898161538
0.17255455206369563 -0.09735119497679552 0.07666436524828543
0.17244833322229552 -0.09639198809230227 0.07671978325105637
0.1723745263902046 -0.09542879876868866 0.07669239617931758
0.1723160276772745 -0.0945166591817782 0.07663065691462399
0.1722413884279549 -0.09362178619686236 0.07662434497633823
0.17216192865096627 -0.09269662098475343 0.0766178033066316
0.17208204993800824 -0.09174344133721782 0.07660160568753052
0.17198963879518686 -0.09076436313077149 0.07655071343080083
0.17190043107920167 -0.08976493491552874 0.0764769819901321
0.1717997263408285 -0.08876313597490913 0.07638970587315633
0.1716821538786136 -0.08777805271732059 0.07631810844046463
0.17151050176156796 -0.08683301977377847 0.07628738690149969
0.17127509286329828 -0.08595951544181718 0.07633900616648134
0.17096903733319657 -0.08518064511426607 0.07648095172089373
0.17031323774435156 -0.08376230353957775 0.07597220376472678
0.17061698509077816 -0.08448149620807771 0.07669113339069221
0.16966933506429455 -0.08248506120478545 0.0754998121531511
0.16993404486936972 -0.08316050912844683 0.0762176546469393
0.1693227248498606 -0.08177078081232961 0.07561328643113588
0.16899694980067564 -0.08100018114379626 0.0757309316809085
0.16867981687609776 -0.08023128023408396 0.07587240000591682
0.168366473939022 -0.07950740608287685 0.07605514871921469
0.16773895892782384 -0.07814041097352951 0.07554450954903173
0.16804532945149694 -0.07883808422165359 0.07626024677032785
0.16705078661624287 -0.07687358968456266 0.0750322328978907
0.1673665182202945 -0.07754107958492844 0.07575628925134656
0.16666756919577427 -0.0762357064973263 0.07523666217194373
0.16631521695881765 -0.07557725997417448 0.07546452114159631
0.1657375699799268 -0.07415838363148274 0.0749084128051026
0.16600192661995772 -0.07490143249095528 0.07568761314015325
0.16543221378559647 -0.07345975388494581 0.07511446447534548
0.16511262959469974 -0.07279334840266183 0.07534496575350368
0.16446079072031633 -0.07147332937332435 0.07491791292442818
0.16478248364710044 -0.07215909536937394 0.07559699968279059
0.16379841088922512 -0.07030619236925223 0.07456332326742648
0.16411019053281997 -0.07091446797744039 0.07520968168770335
0.16343351574716333 -0.06972172832235478 0.07478184930144154
0.16308282581910827 -0.06910339344266123 0.07503436590244018
0.16244662814068925 -0.06786720410883766 0.07461191932836148
0.16276875862273263 -0.06847476168691888 0.07530395065656877
0.1618692377040243 -0.06661125241233481 0.0742132532329447
0.16217688473201006 -0.06723087644365479 0.07490381185871847
0.16163515340655776 -0.06595533115445192 0.07450184850331709
0.16140082495082378 -0.06529449980973696 0.07479629819023982
0.1608275968418378 -0.06404371089937239 0.07443199196078819
0.16115779609814293 -0.06463567440702045 0.07510440170004237
0.16019240699857956 -0.06285632962640651 0.07415733914992952
0.16055057750504584 -0.06341564872342109 0.07478007303748893
0.15992287949827932 -0.062239550591842226 0.0745375000378324
0.15936948261007006 -0.06104183749996296 0.07429663524997754
0.15967235298867932 -0.06162844038106467 0.07491479239452489
0.15893923426165796 -0.059743987137890725 0.07399075628958812
0.1591846308407653 -0.06038246189471757 0.07466463268111496
0.158810870240214 -0.05904015792161706 0.07431476932049513
0.15866009155275257 -0.05832658524360449 0.07463899718065356
0.15821250153474947 -0.056983494474927884 0.07434094350619556
0.15849668923398857 -0.05760574677508022 0.07498574925711161
0.15765994971451766 -0.05572455395441562 0.07422055651752334
0.15799941345141355 -0.05631976631988342 0.07477029559614477
0.15701696663314452 -0.05449955174869763 0.07426458985074644
0.1573927746383528 -0.05508955141244459 0.07474401508775401
0.15633968685319855 -0.053319173799652564 0.07439040281349828
0.15671808888443575 -0.05391184130009348 0.07481846357295814
0.15569717268784702 -0.05208120172283799 0.07450374244968397
0.15603764910827575 -0.05270874719527272 0.0749340013401579
0.15507053383772718 -0.050787438600924925 0.07459154007147471
0.15538482027651498 -0.05145454274072204 0.07502719430050635
0.15446124489757118 -0.04941063521228803 0.07470149513404131
0.15475453502262845 -0.05011462907647669 0.07513613714015849
0.1539021071561333 -0.047946064828161335 0.07477272701564033
0.15415645848009854 -0.048723748446688954 0.07523952073699502
0.15335388470842848 -0.04625275804813528 0.0748049152736868
0.1535827749666376 -0.04719015385745738 0.07533639609087354
0.15307475432498124 -0.04541411938697355 0.07477755690669949
0.1528719151605228 -0.04502482850616439 0.07519727950766793
0.15302133366090384 -0.0456736824847518 0.07553882558956279
0.15294424817879373 -0.04456099397115852 0.07439550439025244
0.15269368366977693 -0.04443288104626572 0.07522003466706643
0.1526877359469491 -0.04378262080595961 0.07461877842361272
0.15256574738450304 -0.04345982212962571 0.07472721674653605
0.15256238053489396 -0.04393085389262297 0.07515917973413219
0.1740676840820977 -0.11261437773994513 0.07846338942810129
0.17385856284284523 -0.11188541816835842 0.07852314338708836
0.17358968595953994 -0.11092053689302082 0.07857844801216635
0.1732785118720197 -0.10993468093451678 0.07864271554656588
0.17302865798228945 -0.10899804391654525 0.07872364179478068
0.17285006233680208 -0.10808261793782788 0.07879653336216812
0.17270726824423854 -0.1072881750215735 0.07897174270028638
0.172981564728074 -0.1059647072764979 0.07765266469647794
0.17263859155217487 -0.1061657239900163 0.07879543973151479
0.17285463816199936 -0.10522174050154612 0.07797571391040582
0.1730371067716199 -0.10455233742471284 0.07746828613171579
0.17276890700206113 -0.10439526350636397 0.078125235600577
0.1730117377651419 -0.1037582481205624 0.07745487089760479
0.17267128849845007 -0.10353136901882913 0.07820902017167146
0.17292402853406302 -0.10283967642731752 0.07749816804542277
0.1725618272125265 -0.10260981464565913 0.07824630970816474
0.17279475770466685 -0.10191652195058676 0.07753342728941456
0.17245497849450364 -0.1017080008459762 0.07823724156890224
0.1726451337940339 -0.10105568533651324 0.07761857623024578
0.17239776654786163 -0.10109320945332088 0.07818403116167988
0.17236300949656258 -0.10036252042934313 0.07802878659716338
0.17248147718158835 -0.09919968947741889 0.07745096376881057
0.1723679180378449 -0.0981287794432305 0.07748617278753643
0.17226560962823279 -0.09718713805365072 0.07758674423056393
0.17215285702536665 -0.0961731052283054 0.07781021795411605
0.1722114534547271 -0.09518958635197815 0.07747080085031856
0.17216071642406428 -0.09443097325351874 0.07755207803232766
0.1721295782346107 -0.09355863829608656 0.07756042749099946
0.17207789702939286 -0.09267152918451518 0.07759962098707689
0.17200905493337398 -0.09172464395748695 0.07759766453392379
0.1719329441669836 -0.09074480396090888 0.0775488443035474
0.17184879937821615 -0.08974701525161917 0.07746906977941388
0.17174995254192627 -0.08875472107801993 0.07737843489206372
0.17162390659253068 -0.08778377530409226 0.07730970692573033
0.17144371966323368 -0.08686035823972908 0.07728937254810976
0.17121090941025716 -0.08600949356299736 0.07734512977945536
0.17090919950984257 -0.08523638223374491 0.07747492974254744
0.170245297950083 -0.08383589548118667 0.07692851743056356
0.17056844739960622 -0.08452900847909547 0.07767150385185465
0.1695728634294728 -0.08250249551647153 0.07641360581180477
0.1698684560995114 -0.0831913144414437 0.07716241384570657
0.16924270983179754 -0.08178881221181124 0.07657960705218045
0.16893394050362948 -0.08104318315463592 0.07672607347873106
0.16863388897409878 -0.08029384220666425 0.07686767279372417
0.16833374121131203 -0.07956423290431953 0.07702440689080707
0.1677004943865929 -0.07820857965022784 0.07647295069266942
0.168021429270551 -0.07888596847965042 0.07720292686119834
0.16698856393928216 -0.07692302966677463 0.07598481870879667
0.1673317425054469 -0.07759561839684839 0.07670775817736268
0.16662035601232128 -0.07628563185663728 0.0762212909846572
0.16628309089160898 -0.07561722507539531 0.0764537988560091
0.16570272223794197 -0.07421462369766758 0.07589296115068436
0.16597583303867014 -0.07493510334569219 0.07666822203715586
0.16540061456340333 -0.07352893524010326 0.07609878822232242
0.16508765370888115 -0.07285692616773866 0.0763148440269839
0.16444347173175763 -0.07155592501802 0.07586407940099886
0.1647663467426946 -0.07221529904984778 0.07654258403346959
0.16375818480116383 -0.07033354116011048 0.07547691888317253
0.16409978769115485 -0.07096839142480565 0.07614873412832505
0.16341231608269416 -0.0697224739704663 0.07574451410783042
0.16309123748309118 -0.06909228382531196 0.07600698854463148
0.1624888224898852 -0.06784699796536976 0.07559069404050067
0.1627995346896099 -0.06846348266460693 0.07627138188625993
0.16193158465633728 -0.06658228023894051 0.07520596288348501
0.1622372261252735 -0.06721981499832004 0.0758963043638943
0.16170942280861733 -0.06592228231112289 0.07550663385765415
0.16147709773815627 -0.06525484073325709 0.07580768003266079
0.16090678834828792 -0.06399216693011231 0.07542570931352507
0.16123569459944753 -0.06459481000583876 0.07611060325892718
0.16026316140383173 -0.06279538208869342 0.07515124446751245
0.1606174659852473 -0.06336377015840643 0.07577718814061817
0.15999539930866688 -0.0621871683276914 0.07552202094156413
0.15944942046939528 -0.061009716671107925 0.07529751708174011
0.1597434951081124 -0.06159910754039627 0.07588633919461434
0.1590536175120818 -0.05969923475658652 0.07501845859408325
0.15929159576456922 -0.06037017031978098 0.07568394934267193
0.15891905449333146 -0.05899066253002695 0.07535470498901949
0.15876497168226153 -0.0582541602799058 0.07567985416957684
0.15832037418303746 -0.05691552080944973 0.07536830093165625
0.15860681235094942 -0.05753519117324134 0.07601105402658334
0.15775907716350396 -0.05567091909049773 0.07526094594215627
0.1581053546757635 -0.05625575463387858 0.07581619959417374
0.15710434496313153 -0.05447914303437459 0.07528854652443848
0.15750202735697982 -0.05504064978125998 0.07579264833059235
0.15640502952522317 -0.05329536785842988 0.07538278076805724
0.1568023241543082 -0.05385227166355275 0.07585692487508607
0.15574329002155463 -0.05207606651586823 0.07547999039896462
0.1561077704210717 -0.052657146593175594 0.075950147340493
0.1550858772381065 -0.05077425627763769 0.07558935319347286
0.1554448176820953 -0.05139476251708336 0.0760554321606009
0.15446062045810258 -0.04942068270666154 0.07570405701979188
0.15480434127705694 -0.050075893815007703 0.07617366573034053
0.1538371690850409 -0.048019700788052525 0.07580457063088976
0.15415646273685357 -0.04873450269751282 0.07627957143411035
0.15325774800957304 -0.04647175459400767 0.07592906454903153
0.15353286024497886 -0.04728364848343222 0.07639858291789413
0.15274404882708958 -0.04503798393837269 0.07595646124068839
0.15295680221234115 -0.045812997663020064 0.07649518872434646
0.1525841107504887 -0.04447658926758507 0.07572795919134577
0.15260046685734271 -0.044831937177634916 0.07628595820198608
0.17434756694743145 -0.113125554570976 0.07937876793247728
0.17424027434370454 -0.11271712249711842 0.079418729938506
0.17400892109043614 -0.11186426741884342 0.07950507756683273
0.17365995837441578 -0.11086276343591517 0.07956914910657065
0.17329037002564002 -0.10985283490779853 0.07960158053451703
0.1729753153810902 -0.10889604188139555 0.07963113615375636
0.1727314706341851 -0.1080041224780925 0.07969514910449021
0.17256373847108217 -0.10711240328271328 0.07975238765207757
0.17240740472073515 -0.10633250764018727 0.07987729585373878
0.17258592065076928 -0.10506350136533031 0.07868171161441492
0.17233996315184863 -0.10530950680324104 0.07960495685813923
0.1724573812116872 -0.10429396817767944 0.07889646236454964
0.17216248601564443 -0.1042001908175135 0.07975073676232176
0.17231697038403593 -0.10334715932735743 0.07897656118248284
0.17199742662132167 -0.10317512533792159 0.07978245046918672
0.17220300470217667 -0.10235972498040412 0.07897530376581682
0.17185173731517128 -0.1021342528815731 0.07977033719468002
0.17211006603526707 -0.10126435735314752 0.07883999622711038
0.1716785712859722 -0.10101218643375076 0.07981365700037929
0.17194999513187348 -0.10026420705529723 0.07890015374467765
0.17214669667691934 -0.0995975098935362 0.07830713982350695
0.17184888777637983 -0.09940893078200563 0.07892876303701805
0.17211688905290373 -0.09879992171345282 0.07824476597964099
0.1717802955276434 -0.09857323965261185 0.07898354803879111
0.17203605224817597 -0.0979254817675928 0.07830577468086422
0.17174140860098017 -0.09775179658271942 0.07905155115609513
0.17194646076588882 -0.09712070682470303 0.07848079282721804
0.1717391078403649 -0.09718907664776139 0.0790776425061163
0.17179356331555298 -0.09652639380211572 0.07904510888739738
0.17197622128581924 -0.09531933042214485 0.07860818808021153
0.1720438443833735 -0.0942977283297459 0.07833870590608512
0.1720215547578166 -0.09357123601700569 0.07852360635046117
0.17199992913909987 -0.0926707139083511 0.07860443391064063
0.17195418625704845 -0.09171705129022557 0.07860492277254996
0.17188832589364433 -0.09073223153716423 0.07854931927433735
0.17180505963031065 -0.08973337625810596 0.0784613745417378
0.17171207212251857 -0.08874425828472887 0.07837295639973753
0.17157870138012393 -0.08778449498661607 0.07830359501168543
0.17140044852019512 -0.08687329234200447 0.07828727080966388
0.17116341860563253 -0.0860290527987097 0.07833910163883782
0.1708691799357791 -0.08525301273777243 0.0784656495400449
0.17020064244224617 -0.08386656696201464 0.0778992963371344
0.1705382480664988 -0.08454463660974142 0.07865593308723504
0.16952226601342685 -0.08251367734470487 0.07738096225561344
0.1698358761896179 -0.08320699555957972 0.07813936423199715
0.169202589612873 -0.08180387783165853 0.07756337173030452
0.1688978704006019 -0.08106258265618099 0.07770987251826428
0.16860524466844234 -0.08030605272577383 0.07783922119212724
0.16830937167140306 -0.07957920946767102 0.07796357942943245
0.16768092306407695 -0.07826436406117004 0.07741538761156969
0.16799965138303186 -0.07892526508923503 0.07811198996883724
0.16695833277505134 -0.07697804246252289 0.07697077560323241
0.1673196351974886 -0.07766813518919703 0.07768754608051845
0.16659240061527453 -0.07632653617210008 0.07722891678426642
0.16625534199999445 -0.07563786968353169 0.07744675729786626
0.1656782916914095 -0.07425159082968728 0.07687154522875012
0.16595070788462424 -0.07495853885592448 0.07763841438104908
0.165374059501436 -0.07355736108562569 0.07707809289300485
0.16506046693376442 -0.07287384913449943 0.07726460160339034
0.16444092133389038 -0.07161572161032681 0.07680868274712978
0.1647536324087401 -0.07225128359972262 0.07745696897936252
0.1637574366136385 -0.07036466653417144 0.0764467046568582
0.16411261751226766 -0.07103874830650272 0.07712054525706483
0.16341889584357433 -0.06972884457927961 0.0767356790837156
0.16310395669512 -0.0690778671432718 0.0769765184722404
0.16254493153576635 -0.06785546925203212 0.07655942623961821
0.16283454836107508 -0.06846724172143376 0.07720053929770085
0.1620080213513713 -0.06658040229185355 0.07621881235987946
0.16230847433748258 -0.06725533917738387 0.07689501463966976
0.1617840533539393 -0.06591833980612422 0.07653552287133361
0.16154356565118635 -0.06523538731675992 0.076832668210134
0.16097142630405928 -0.06395430669563071 0.0764319794420347
0.16129751678771112 -0.0645671809594661 0.07712137534309775
0.16033206047685528 -0.06274504807962893 0.07614184212311416
0.16068319865142852 -0.06332570519445967 0.07678826679098828
0.1600563491100333 -0.06215023439393539 0.0764716283909472
0.15954867503244652 -0.06102115112498312 0.07628528900977706
0.15980872920283037 -0.06160820324488111 0.0767803559439015
0.15916519369819188 -0.05969848138419269 0.07607770484618788
0.15941387466930784 -0.06041522881941743 0.07670421177441572
0.15901383088122437 -0.058955080414090505 0.07642528100902655
0.15885504779426238 -0.05818589983416086 0.0767053907038804
0.15842041248802136 -0.056867529297518996 0.07639578526027047
0.158691799221076 -0.05749197209465712 0.0769996226514399
0.15787532414787434 -0.0556125596713346 0.07633263539684783
0.15822219679660848 -0.05622755837701293 0.07687396448450019
0.15719716529498637 -0.054414071040843934 0.0763536160511422
0.15759537302913765 -0.05498389980715821 0.07688830821663997
0.1565076650262777 -0.053212411107234014 0.07643464982901443
0.15690558431066162 -0.0537637976708075 0.07693643613517506
0.15582645105036677 -0.05197933001256 0.07653625522050311
0.15621105642855726 -0.05255092075464987 0.0770237535116818
0.15517313006141573 -0.050690686509272824 0.07665251064486964
0.15555284873647304 -0.05128399417232661 0.07713746195874115
0.15450903261737375 -0.04938110363105147 0.0767654020583172
0.154889623045603 -0.04999235239151355 0.07725361716417439
0.15385281885895924 -0.04801927307782357 0.0768774823191787
0.15421326691386394 -0.04867839132099565 0.07736656813329623
0.15322445245351646 -0.04657574585669803 0.07697787771246996
0.15355230523598257 -0.047303623002084697 0.0774639738346164
0.1527354808976277 -0.045357891960331555 0.0768775922577127
0.15294843954879409 -0.045963702911622356 0.07745621819930733
0.17441520201046382 -0.113113740422247 0.07986145756491776
0.17432697194363136 -0.11253417415585497 0.08018330737511689
0.1741493520877452 -0.111722071528755 0.08045428851889654
0.17375645956564564 -0.11070738661785304 0.08056013852857655
0.17330615561640783 -0.10968532383947482 0.08051689893568555
0.17294651764118704 -0.10876298856868194 0.08049977691480824
0.1726797660196125 -0.10788203792488434 0.08056155632509727
0.1724621249791167 -0.10700495006214207 0.08061398958683924
0.17227795390122083 -0.10608578836836463 0.08060378301474372
0.1721171481943944 -0.10508333058953516 0.08059549764993214
0.17193660625432194 -0.104052588838284 0.080622021704615
0.17175039771636996 -0.10303185203213301 0.08061531770437746
0.17158418428460284 -0.1020409579121083 0.0806226945689062
0.17144255016113777 -0.10123582644479194 0.08070960552493064
0.17165619659089634 -0.10002140826183988 0.0795292150803677
0.17141369968078798 -0.10021676447338514 0.08039341597859019
0.1715518270934797 -0.09927188274210007 0.07966577269785029
0.17132808331894014 -0.09914889367631331 0.08048824019676624
0.17150749101943683 -0.09836912885110433 0.07974217404225317
0.17131369722722709 -0.0982080251945272 0.08057204025838552
0.17154480805673544 -0.09741116254630885 0.07974642861823271
0.1713488234336676 -0.0973499283915121 0.08072002658049193
0.17155145898296076 -0.09661389269095251 0.08004519647483445
0.17173525398863781 -0.09595092094501784 0.07953174527089815
0.17161685260066695 -0.09594554483489147 0.08028148786962878
0.17178152201687466 -0.09540130949646639 0.07964557059133606
0.17190329008313093 -0.09456917825706475 0.07938029291203089
0.1719450123493244 -0.09361536828666887 0.07956870382159491
0.17195316620659645 -0.0926838591761391 0.07963988611410179
0.1719164803055496 -0.09171572453654639 0.07962113083222375
0.17185681631123342 -0.09071931319961396 0.07955253589380129
0.1717806761736779 -0.08972108390012613 0.07945841528225187
0.171685547324337 -0.08873487372125458 0.07936711273752031
0.17154627887602955 -0.08777799418882669 0.07929724731373
0.17137022418664766 -0.0868707415720909 0.0792832845216957
0.17113125484752076 -0.08602953914830698 0.07932964220173219
0.17084368106179854 -0.08525707650743697 0.07944958780290301
0.17017711574108332 -0.08388287429355079 0.07888189654842945
0.17051190530856658 -0.08456155887995007 0.07962674702860702
0.16949728672592618 -0.08252850115342203 0.07836771571926889
0.16982293172116197 -0.08323074301054717 0.0791337083010809
0.1691753477947547 -0.08181438513872348 0.07855469944553946
0.16886577337200773 -0.08105620815430008 0.0786924338311333
0.16856789908079767 -0.08028288060551214 0.07878761906331558
0.16826493868143164 -0.0795653820534846 0.07884169623591158
0.16767522841587107 -0.07835546797477341 0.07835201623128421
0.16797690506062596 -0.07897285823748158 0.07893801595082978
0.16694564001977183 -0.07705816403838023 0.07801890316519937
0.1673275098876021 -0.07781164051526772 0.07869490497785274
0.16655739581493306 -0.0763599249314193 0.07828177863797944
0.1662078515781293 -0.07563270271444648 0.07839421500477803
0.16565173003435713 -0.07429022832526813 0.07787365405774356
0.16592480944387172 -0.07500734351599882 0.07856013494006153
0.1653261630864445 -0.07355568999083435 0.07807816033350612
0.16500842315252998 -0.07283893293742393 0.07814513705940919
0.16445961235490597 -0.07171217014142439 0.07774362767249617
0.1647470091863477 -0.07229856796122097 0.07825994456524216
0.16376873077105014 -0.0704303061049886 0.0774817894618748
0.16414848859458595 -0.07117899713448848 0.07812471116717327
0.1634091373198117 -0.06972990750533321 0.07776530058629975
0.16308500876507095 -0.06903164505461401 0.077878103843437
0.16260237931774796 -0.0679253686564747 0.07750605485992766
0.16285517660648524 -0.06849917777538282 0.07801441151325594
0.1620812095398686 -0.06663361254940299 0.07727948245187749
0.16237694882368614 -0.06738323198469016 0.07790608766817814
0.16184008825703108 -0.06593942405922083 0.07761202171891199
0.16159436544241662 -0.0652169417803457 0.0778511324873686
0.1610358011061847 -0.06393882057598568 0.07744238100449384
0.16134705775695385 -0.06456386722372057 0.07809555711492518
0.1603800079420027 -0.06269682995538509 0.07714488432558816
0.16074431465229524 -0.06332559958883631 0.07782569004367863
0.1600670938791053 -0.06207161719641761 0.07735596441944965
0.15967838589702982 -0.06113223520008857 0.07728868728052093
0.15986222053503477 -0.061636847166293765 0.07737736142965107
0.15928434858820864 -0.059760790941844666 0.07726832734499237
0.15952037839729272 -0.06052883433229995 0.0775500825164693
0.159079850183604 -0.058861194628876116 0.07748333324283181
0.15891204277260207 -0.058097063832576915 0.07766851463703627
0.15851659146737476 -0.0568726172161764 0.07740408323985504
0.1587505528533311 -0.05747168980458064 0.07789506574613511
0.15798391053351568 -0.05561466850283426 0.07744040993881629
0.15833358791035765 -0.05628934053375218 0.07792382540127772
0.1573075013665623 -0.05432954356082077 0.07746480949799762
0.15768977472587087 -0.05495857176908462 0.07802499410853687
0.1566146862330443 -0.053107832271021525 0.07752676702027268
0.15701303997219468 -0.053684030683338546 0.0780388901567874
0.15594164055485735 -0.05185909230699368 0.07762879120940301
0.1563372957852227 -0.052426551284387925 0.07813197978814812
0.15527505627199314 -0.05058276927803118 0.07774760115315738
0.15566317809325655 -0.05116838308742179 0.07823652199373435
0.15460128250100078 -0.049286433278836826 0.07786363230420687
0.15499198305545123 -0.04987797382753422 0.07836367094852614
0.15391331063343372 -0.04796824861463417 0.0779634815816406
