# .PCD v.7 - Point Cloud Data file format
VERSION .7
FIELDS x y z
SIZE 4 4 4
TYPE f f f
COUNT 1 1 1
WIDTH 790
HEIGHT 1
VIEWPOINT 0 0 0 1 0 0 0
POINTS 790
DATA ascii
0.17375872544380563 -0.10154316419590095 0.0710021652476147
0.17362004932524597 -0.10055617373538292 0.070965827976475
0.17348440849239669 -0.0995683381583502 0.07095200622623665
0.1733403563618301 -0.09861711108907034 0.0709592218914943
0.1732314780146789 -0.09766339778366347 0.07091382139392212
0.1731206173497022 -0.09666204191021933 0.07085073259257926
0.17299120728326509 -0.09564923427060995 0.0708225093386635
0.17284987475883204 -0.09464542081890222 0.07074899137074764
0.17269267159101762 -0.0936137055942813 0.07061574908063582
0.17250422721331465 -0.09257261261809252 0.07048736205052758
0.17229149315771927 -0.09155759308988155 0.07041276491473104
0.172112421541575 -0.09057217849368021 0.07035571834378983
0.17197554319035838 -0.0895969473620526 0.0703094386629445
0.1718860565683032 -0.08862192826832108 0.07026376853167819
0.17182089179853605 -0.08763422755102844 0.07022307370843696
0.17175123976407936 -0.08663645109653188 0.07018346897914755
0.17166093149307918 -0.08563387470468882 0.07016148452503751
0.1715185124862408 -0.08464492976492127 0.07016500188574407
0.17126636872953027 -0.08369022729845563 0.07020847768640875
0.17092159681445365 -0.08286887348949848 0.07035978958642773
0.1703039162932787 -0.08139657895655501 0.06988023474122391
0.170511860672907 -0.08220398474587541 0.07056894929521798
0.1700323422621279 -0.08077386305701852 0.06958519293732551
0.16973823357794962 -0.08030869785329134 0.06961213953419589
0.16987739579378786 -0.08092543159016732 0.0702304918567802
0.1693623771722273 -0.07965716685477879 0.06961577892820422
0.16895049061158515 -0.07891180741526956 0.06969937252095718
0.1685527289053995 -0.07816841139273319 0.06979908046480572
0.1681451845490436 -0.07746477974189031 0.06990325491704523
0.16752380979140985 -0.07618198551002525 0.06939827569846406
0.1677537139481735 -0.07682708967953798 0.07005370272572513
0.1668092827451399 -0.07493614824688467 0.06899185709933596
0.16706976357254053 -0.07562309379224616 0.06965435822101455
0.16636209324844525 -0.0743149881256786 0.06922919837701283
0.16596487511375635 -0.07366099588927143 0.06942505516158216
0.1654429764735793 -0.07226042516384423 0.06896964414263838
0.16560783498482423 -0.07302604743999355 0.06962152852665178
0.16505711672074405 -0.07156878206160186 0.06919089027241287
0.16463475744585374 -0.07088461453194923 0.06936335603599249
0.16384380685413463 -0.06974889433997154 0.06892732899042843
0.16417606231185122 -0.07029570454941242 0.06955054152534765
0.16287159187995062 -0.06880401332272354 0.06869630607617566
0.16328811791296788 -0.06928628591306332 0.06925095735135525
0.16190008368255707 -0.06785653193799118 0.06848776802582637
0.16228821250557834 -0.06836088114782173 0.06905739933375589
0.16115166211369308 -0.06676651252365452 0.06820933097751036
0.16142314205413194 -0.06733807807660319 0.06881395555823565
0.16077283913232415 -0.06616625968107305 0.0684877102027379
0.1604241359214538 -0.06555473554581305 0.06874172727827803
0.15984588631079155 -0.06434380119374351 0.06837401837007127
0.16008749823883434 -0.06494090098837603 0.06900161020864602
0.15918654046920072 -0.06320551377509423 0.06807124195762726
0.15946505052924762 -0.06376854105816104 0.06865597958887183
0.15878603800945879 -0.06265826628291864 0.06838412213350868
0.15818466104001613 -0.061494150268802825 0.06812552183477162
0.15842014925559442 -0.06209212228206496 0.0687148010805708
0.15777854263455254 -0.060117097670060245 0.06776823482324613
0.15790583205927208 -0.06085275008239088 0.06842150142706567
0.15758197009953007 -0.05935755737559491 0.06801227033699694
0.15739955171518638 -0.0586417543561552 0.06831116089922297
0.15715390133408882 -0.057155454460669074 0.0680158162892518
0.1572195316038862 -0.057991024662890536 0.06863565490228604
0.15706136552706143 -0.05650193510881162 0.06777727500996834
0.15691519530076398 -0.05600791887745534 0.06786154280345809
0.1569557152704768 -0.05661848425907721 0.0684050455421226
0.15672849091835475 -0.05534150745433052 0.06796452081848896
0.15652712809160818 -0.054638114673155706 0.06816108421881426
0.15616645282489175 -0.053353273622324476 0.06790117952702399
0.1563004525278054 -0.0540039761979716 0.06842643776401053
0.15565035422258605 -0.05209160673599827 0.06783221460062373
0.1558915940045345 -0.05276668871543975 0.06832556685638501
0.15515460945234452 -0.05079501254521621 0.06780959798039518
0.15535778640163714 -0.05143915597836773 0.06829735243116984
0.1547229801845978 -0.049461410117480516 0.06787490139522794
0.15488630642544401 -0.05013233855013118 0.06829767057337206
0.15436913338133612 -0.04803086913595114 0.0680020995796216
0.15448604646365932 -0.0487935911801108 0.06843050787730012
0.15402809048578076 -0.046449939410863415 0.06810078335342332
0.15411463925077085 -0.04730746587924739 0.06856415657555939
0.15369953002150802 -0.04450803037578512 0.06811444069740509
0.15378833442313775 -0.045612368677047516 0.06866186187732973
0.15353006995341273 -0.0435342635658319 0.06811286895404038
0.1533751504685727 -0.043110449694723434 0.06855258536729962
0.1534251111592603 -0.043851943816178136 0.0688860642022358
0.1534658814060826 -0.04264826844736646 0.06775082089549161
0.1532217531260272 -0.04248961507479438 0.06861922188501401
0.15321153013056024 -0.04190053611310725 0.06807934346494976
0.15297471168818982 -0.041547497434841714 0.06865320592295147
0.15304438362781803 -0.04196069120938206 0.0687676108561398
0.17467888674871823 -0.11606260298610546 0.07161413324274615
0.17448290554805604 -0.11544746696048726 0.07195698848046198
0.1742484108900757 -0.11467525232002751 0.0721908061361174
0.17402097702727173 -0.1137911893141921 0.07231505653244952
0.17384589151653954 -0.11286419236779179 0.07241261090373295
0.17373765290759824 -0.11189079344743925 0.07253662714659206
0.17367188343863788 -0.11081117745400233 0.07275531423429732
0.17388796126469702 -0.11022409226012224 0.07182902252688265
0.17392188743062995 -0.10963386955191698 0.07184505846115476
0.17402715425664358 -0.10893877931811634 0.07183108790651042
0.1740925602220841 -0.10780726142110196 0.07201098391120284
0.1741813479748191 -0.10685147392779008 0.0717611612554628
0.1741548160315496 -0.10610229557825222 0.07189582602913076
0.1741080031681154 -0.10524181599943569 0.07193473435000738
0.1740141032410285 -0.10435087665522863 0.07198736006458391
0.17389925007148832 -0.10341044058584384 0.07200147434305085
0.17375528191590478 -0.10245134565938457 0.07198027951480329
0.1735976880939578 -0.10147679184022182 0.07194103451648874
0.1734489680635902 -0.10049238249826585 0.07190333525360686
0.1732934487360962 -0.09951153620021654 0.0718699067940301
0.17314727812103076 -0.09852915929159979 0.07183612997717884
0.17301815564118664 -0.0975461899708776 0.0717869908803804
0.1728942030616094 -0.09654740414483812 0.07174527990669327
0.17275515497679517 -0.09555178970912354 0.07169193201879427
0.17260003892565123 -0.09454952757152191 0.07161763150323754
0.17243427536364322 -0.09354766047864889 0.0715249971204659
0.17225807121403824 -0.09254732818735398 0.07144749224032874
0.17209210865439545 -0.09155909325860097 0.07138887246920482
0.17195557315444282 -0.09058590485753908 0.071335006486328
0.17185019182738237 -0.08960691257046881 0.07129014452197849
0.1717641285313644 -0.08861933859695832 0.07124195723112836
0.17168722233101874 -0.08762106244469559 0.07119361977318629
0.17161107353532962 -0.08662119690028629 0.0711490587469019
0.17149882486950946 -0.08562484272144981 0.07112880213283271
0.1713102427838174 -0.08465933366827781 0.0711342593213654
0.1710348822035725 -0.08376542409069437 0.07118435619835048
0.17068517818490514 -0.08299107560961214 0.07127779864222157
0.17009441040602163 -0.0816345586935134 0.07080643127849696
0.17030762114737816 -0.0823603552200162 0.07142153912557024
0.16947750032950934 -0.08036687683502589 0.0703963584839091
0.16966973863567703 -0.08110694385465694 0.0710655608074276
0.16907447916975796 -0.07969531053518493 0.0705271680588158
0.1686858934245915 -0.07894087777453332 0.07063239291909075
0.16829679104938322 -0.07818081398225787 0.07068606062915243
0.16791643726932928 -0.07747324914676211 0.0707269239343643
0.16735140649465632 -0.07629187512486706 0.0702782131036596
0.16758035499716123 -0.07690160921291103 0.07082032434521102
0.1666074453747467 -0.07505511033341264 0.06995391059737592
0.16691171303935637 -0.07579610508625356 0.07058328023233895
0.16614403100024294 -0.07440102251410984 0.07018756617618759
0.1657503604791992 -0.07371351139372412 0.07026346816516298
0.16523625217590088 -0.07243649491302438 0.07001596477669553
0.16547317351204147 -0.07318373461683632 0.07033188134148774
0.16482370301652202 -0.07160197585346308 0.07012419945762931
0.1644218204041448 -0.07089720448381087 0.07023312018863002
0.1636811688207818 -0.06980254573471575 0.06980614553776711
0.16400165655576787 -0.07033668264656429 0.07037446956685112
0.16271600247762644 -0.06885991798863407 0.06960973166489455
0.16315435067484993 -0.0693744438460575 0.07014292310569814
0.16175901416682453 -0.06787825167205057 0.06940575824752228
0.1621553459490197 -0.06841306941330047 0.06998050730081389
0.1610134235983651 -0.06676821260651244 0.06911494734391953
0.16130019985255342 -0.06734273109018626 0.06972875942988925
0.160651056067258 -0.06616572595774799 0.06938384389759587
0.1603214830616461 -0.06554655116368527 0.06964180122277232
0.15974476355456665 -0.0643443052917981 0.06926660883160625
0.16000783538369132 -0.06492984396187891 0.06990253322764717
0.1590841353681184 -0.06321004481997636 0.06896118567656238
0.15938771921454453 -0.06376329166924974 0.06955512993478535
0.15871625542391474 -0.06265265789829517 0.06929242884794938
0.15810964874928182 -0.061495636386246416 0.06903577128816495
0.15838097701208959 -0.06207868457811014 0.0696277726765218
0.1576822524600101 -0.060168311155407384 0.0686968887869999
0.1578487723719346 -0.060859361957503216 0.06934181106429832
0.15748733046114222 -0.0594622878994502 0.06897646076846335
0.1573236253210604 -0.05877169009458253 0.06926354596449376
0.1570319502200871 -0.05734277522150126 0.06894921887411945
0.15715286630391415 -0.0580981045517465 0.0695634300242964
0.15677264730188406 -0.05598923779934618 0.0686327364804024
0.15686219390529588 -0.0566840157238729 0.06925661917101462
0.15657849950838498 -0.055267290797317695 0.06883251056855091
0.156398492078286 -0.05458085518130611 0.06898427465721202
0.1560637298609405 -0.053440851661791834 0.06878994964359932
0.15619811057819688 -0.054039447008237755 0.06918033666361227
0.1555588235072007 -0.05214804821460492 0.06879910122665484
0.1557775168403936 -0.0528835807637247 0.06923430283884685
0.1550826660663498 -0.05076897424487006 0.06873430432234849
0.15524064584844166 -0.051441965298926896 0.06923690525119482
0.15465679802169582 -0.04950784802810561 0.06882355162273515
0.15483198785046898 -0.050172558027008395 0.06914616769979517
0.1542160928593421 -0.048124923053583464 0.06901040294078692
0.15439736772609067 -0.04890774806392817 0.06938464664226177
0.15385526132808794 -0.0465517401141547 0.06912664423062101
0.1539555991216437 -0.0474005539230722 0.06956768450107995
0.1535154975622764 -0.04482059670394418 0.06927450116178005
0.15359253569307585 -0.0457940970398879 0.06971797619861632
0.1531878771857627 -0.04307557156855603 0.06935706389727092
0.15325736148716831 -0.04404874559785082 0.06988129452054705
0.15304878613473777 -0.04234152598653641 0.06920257567617033
0.1528816634436537 -0.041836748565652476 0.06938276683378614
0.15292281308638056 -0.04245320843895158 0.06990679357421042
0.15272255617046643 -0.04147652019711567 0.06966322649698492
0.17436113420805702 -0.1150627387020928 0.07259160434820595
0.17415351898105041 -0.11442603245500521 0.0729872763639924
0.17393838558162217 -0.11366833081551884 0.0732515744661811
0.17375380673508314 -0.11277102867932241 0.07337514969188932
0.17361183607827457 -0.11183124571755326 0.0735159855677417
0.17350883222739288 -0.11103321928560703 0.0737559358575118
0.17377482624005314 -0.10975848372189381 0.07244664500338835
0.17353670917862896 -0.1099351855710276 0.07363219318726372
0.17376690669254052 -0.10909099535970668 0.07283777135044078
0.17390454507783076 -0.10850928450771088 0.07257096464601855
0.17377624725226679 -0.10862539590839632 0.0730170396261497
0.17380837570959431 -0.10807638491582021 0.07310881854381872
0.1739465323901045 -0.1069611983979346 0.07286819896916437
0.17400162172180625 -0.10594461444585077 0.07268800680709898
0.1739429037487223 -0.10518703780224169 0.07288895053533238
0.17387599464912618 -0.10427222225238152 0.07295750121808958
0.17377309598190416 -0.1033401910559236 0.07296535629065458
0.17363204718042966 -0.10238952448405156 0.07294583960384912
0.17347516085842327 -0.10142341591439683 0.07290766893756326
0.1733183089229902 -0.10044307654886615 0.07286688831573288
0.17315386277159855 -0.09945544015070308 0.07282063686321777
0.17300651868031197 -0.09846780367471406 0.07277109972391023
0.17287069912687428 -0.09747881227259675 0.07272291780411065
0.172735675243498 -0.09648914201414892 0.07267668096807986
0.17258857064194502 -0.0955005063972113 0.07262394236076677
0.17243147624647845 -0.09451317156654246 0.07256052534927501
0.17226447809643505 -0.09352833201108157 0.07249283060764221
0.17211959550457664 -0.09254810783112875 0.07243570013319521
0.17197582489165772 -0.09157419729374348 0.07237872001418856
0.17185420187182196 -0.09059592133538141 0.07232788016289363
0.17174816306363247 -0.08960434680780553 0.07227937866638132
0.17166116099033452 -0.08860705620882693 0.07222306589956443
0.17158553438519678 -0.0876028604980853 0.07216815197161383
0.1714855037165084 -0.0866003786531679 0.0721190188656198
0.17133842095251273 -0.08561162381059051 0.0720934278184769
0.17110859234966355 -0.08466376635112241 0.07208742563732701
0.17079389263864264 -0.08377852459446641 0.0720926818494163
0.17045578539142095 -0.08302697305265153 0.0720777429591781
0.16991351574548547 -0.08185161408993552 0.07165753287443499
0.17013493940543273 -0.08249422380007214 0.07214737222046312
0.16924972264540916 -0.08052131533263855 0.07132040769072086
0.16950321351868214 -0.08135654769964093 0.0719687450892066
0.16882985061965158 -0.07979767675752077 0.07149881539572016
0.16843070415351855 -0.07896993171569651 0.07155585177394863
0.16803794523071108 -0.07815121706041836 0.07152448658704233
0.1676997438014537 -0.07742499077884152 0.07142189189782683
0.1672382367672571 -0.07653075515389723 0.07116065876653353
0.16749540510264008 -0.07698468967265218 0.07131380593087819
0.1664162900365381 -0.07528815758404393 0.07107493327403101
0.16683452061133497 -0.076056791151856 0.0713770513343295
0.16584001812687307 -0.07437911059876734 0.07116477748049664
0.16554870296075688 -0.07364298013135012 0.07084523781103934
0.16528644270949971 -0.07311793493601361 0.07092555682711801
0.1654461262639146 -0.07382828267256004 0.07152362011397341
0.16495609230177227 -0.0723774088176865 0.07096716658395899
0.16457110473697614 -0.07157013613655595 0.07100157732825062
0.16420206440702537 -0.07087955777546977 0.07099449217811882
0.1635524729396577 -0.06990755909771516 0.07063835134711802
0.1638523820349707 -0.07040298034582138 0.07106649215369447
0.1626007293013707 -0.0689646165882584 0.07054786546343106
0.16306535556410964 -0.06953050615555478 0.07102837242971975
0.16164854460645747 -0.06790652042664608 0.07033450516945126
0.16205721602424653 -0.06847971007742006 0.0709522725697673
0.16091012912559174 -0.06676038655780744 0.07002339212705931
0.16121756242033802 -0.06734070809074898 0.0706587181153548
0.16057373178850584 -0.06615254518743428 0.07029001513666937
0.1602705051886002 -0.06552821888718961 0.07055129121808273
0.15969076265220455 -0.06433042210561325 0.07017064572590438
0.15997768860831904 -0.06490860008758295 0.07080621013231818
0.15903251241877286 -0.06319456200082503 0.06987122345577584
0.15936113852934852 -0.06374251825886736 0.07046823588275093
0.15869053183860332 -0.06262511900770167 0.07020861836924627
0.1580911343554686 -0.06147806052532661 0.06995568894601303
0.15838442688874452 -0.0620418816168592 0.07055304799320776
0.1576406208815466 -0.06018943760290501 0.06963461843505575
0.15784756743961711 -0.06083836220567474 0.070272930748891
0.157468401658044 -0.05950239171649417 0.06991480704960111
0.15730827652355298 -0.05881447120502864 0.07019945407027622
0.1569822488157007 -0.05741244172984469 0.06987183455496702
0.157154658604206 -0.05812752642751716 0.07049851074682285
0.15665220670199692 -0.05594691474394842 0.06953663283367854
0.15679622826077108 -0.05668882868572347 0.07020173848044761
0.15641102222465167 -0.05507868064566115 0.06974346425621368
0.15626681803039078 -0.05443600697159081 0.06955220219219654
0.1559724839735017 -0.05364626290059224 0.069639486915081
0.15614289666843384 -0.05411979855103402 0.06964572852562866
0.1554185463067747 -0.05227448511389736 0.06982294982843208
0.15570066676360425 -0.0530677991439815 0.06998042919223885
0.1549796298717869 -0.05073399036028464 0.06954180233298295
0.15505098864899586 -0.05137618478671391 0.07015420512550394
0.15459377756222495 -0.049721781178000794 0.06972405322053542
0.15479688407686631 -0.050269075615688164 0.06967107581636715
0.15406887962801336 -0.04828626147711007 0.07007558039964742
0.15430554428573792 -0.04910666753810553 0.07016856196207899
0.15368565071205242 -0.046715759267454096 0.07011968558565716
0.1538018412643076 -0.04748897183911976 0.07045884851490414
0.1533283280644313 -0.045038275715294354 0.07035878002765032
0.153402771856532 -0.04603748615642697 0.07073366517983858
0.1529941350271276 -0.04330111462503701 0.07040096202061079
0.1530691132135513 -0.0442649540045254 0.07094345481931974
0.15269660170946625 -0.041842664616624725 0.07024111513443083
0.15275387654266825 -0.042566786106656714 0.07082991920341346
0.15253238794079477 -0.04149018455839368 0.07056177077788754
0.17405944601631532 -0.11412376506281384 0.07391494824479775
0.17389055875469994 -0.11355949654429394 0.07417344211389151
0.17369920556594975 -0.11270819009476506 0.07432532393900171
0.1735294359789896 -0.11180341413115523 0.07445346510663133
0.17342052452821027 -0.11088107111396332 0.07454849305316495
0.17336367820270315 -0.11010073952083504 0.07473955221426407
0.17362818160706947 -0.10883220304131995 0.07352984621469431
0.1733967176485493 -0.10910529354182265 0.07457736674236932
0.17357745361167565 -0.10820996887194259 0.07402330176277266
0.17373360609396443 -0.1075787551327268 0.07367421051042458
0.17355327937087062 -0.10758299155630657 0.07438050833248053
0.1737110764856904 -0.10704902327248622 0.07392166717063652
0.1737772786412119 -0.1061448566187771 0.07374503948814917
0.17376668322544087 -0.10507229580071749 0.07388350831381484
0.17372785470320745 -0.1041512761599812 0.07389535061690083
0.17364246763190094 -0.10324915258709545 0.07391276137134417
0.1735151100266582 -0.10231499482192992 0.07390173551821683
0.17335377793521095 -0.1013581160526475 0.07387288682430923
0.1731927263403026 -0.10037601158283611 0.07383585120495026
0.17303562060301972 -0.09938284320630676 0.07379046280659093
0.17288600113455946 -0.09840042445581841 0.07373264916767497
0.17274812784796048 -0.0974189172799875 0.07368215334896963
0.172604396261043 -0.09644453395453786 0.07363431320210598
0.1724624379692067 -0.09546660982444209 0.0735920258406519
0.17230172145010544 -0.09449190467748592 0.0735383880774629
0.17216139789363155 -0.09352071032653915 0.0734852885441205
0.1720274471128175 -0.09255028397674935 0.07343352078027142
0.17188867282494766 -0.09157543255896242 0.07337940548410875
0.1717776470839824 -0.0905904489002414 0.073329072272702
0.17167475029282558 -0.08959446581459204 0.0732701343880652
0.171576745082303 -0.0885887942556493 0.07320326939069259
0.17148604021160896 -0.08757933345668213 0.07313966813823788
0.17135598110453762 -0.08657770162297551 0.0730840654219519
0.1711752206363929 -0.0855953435768876 0.07305344412814571
0.1708886551459873 -0.08462941428619188 0.0730346077395511
0.1704886695221811 -0.08364912117398364 0.07295966502021299
0.17024370690465276 -0.08294405849172214 0.07259721339863875
0.16979957562430345 -0.08217818968065217 0.07252639645862005
0.17005640993046237 -0.08263725607283065 0.07261652432347682
0.1690561299504572 -0.08081459478022887 0.07244390732085498
0.1694188452758042 -0.0816677394055319 0.07277116292570802
0.16858153862932126 -0.07986404130553376 0.07249273930942046
0.1681591108752313 -0.0789469339389673 0.07247859070625481
0.16772479022690862 -0.07798084475748339 0.07231552286152917
0.16741890529009207 -0.07716801861360734 0.07185536221975419
0.1672252960177795 -0.07718480727178402 0.07246921982461557
0.1674537681337013 -0.07753184100314041 0.07241646235143447
0.1670359954289342 -0.07662469808088988 0.07191817120580819
0.16659309290855878 -0.07608895354229425 0.07215234690772089
0.16691826444078203 -0.07676096968941959 0.07252614901939666
0.16606884080105755 -0.0752499777952891 0.07210388359475964
0.16563648816102847 -0.0745315507538775 0.07213527708310899
0.16509990099327707 -0.07325987821494948 0.07186046115733404
0.16534470190459113 -0.07401750569274006 0.07220014159947753
0.16470143541241586 -0.07234584430460972 0.07188418113053321
0.16426740772720594 -0.07143415913454758 0.07184458672571283
0.1639953788336947 -0.07078319807471668 0.07149228203375732
0.16349488344704458 -0.0701399192091918 0.07147048306683138
0.1637926737428625 -0.07051212510610098 0.07151442396817682
0.16255407621490478 -0.06915710996675406 0.07163883401302369
0.16306000955711966 -0.06974801884477443 0.07178647966026554
0.16157506694004392 -0.0679217790491085 0.07129051088681009
0.16197501712762918 -0.06851581838569172 0.07195621432556618
0.16085543214679482 -0.06674404748541693 0.07094189099561034
0.16118008207825463 -0.0673306578645719 0.07159145572030835
0.16054763214213202 -0.06612588148641865 0.07120463547621314
0.1602704597761151 -0.06549821143654559 0.07146025183816276
0.15967877046753493 -0.064299964260475 0.0710836944926295
0.15999676407408936 -0.06487451545103991 0.07172140450132858
0.15903073052001587 -0.06316354723107753 0.0707904331613017
0.15937206466198775 -0.06370421783688505 0.07139490820720668
0.15871109030158595 -0.06258059435351745 0.07113790603141933
0.158123088444091 -0.06143172676004124 0.07089025337020033
0.1584336714020268 -0.06198225635345539 0.0714907719814416
0.1576641736742532 -0.06017285914104035 0.07056645802903551
0.15790703908103704 -0.06078966656054633 0.07120714995460957
0.15750641211352895 -0.05949447963889755 0.07084899689694234
0.15734916213923977 -0.05880370339967666 0.07114230409865224
0.15699412066901958 -0.05742996130374599 0.07082033324229452
0.15721507176596292 -0.05810692243882795 0.07145152123985804
0.1565368243152317 -0.05584597947557312 0.07058626343620246
0.15678989228426832 -0.05670506428532823 0.0711996245566723
0.1562890114827928 -0.0550709246504968 0.0705372904329009
0.15609868496418886 -0.05470992815761162 0.07092379097198315
0.15627946642668103 -0.0552979677642039 0.07126066884208151
0.15610663621922105 -0.05435894822648617 0.07017697583548264
0.15585831440859232 -0.054111227482688255 0.07094345996558236
0.1557956972687434 -0.05362416870193623 0.070407938367183
0.15544834305518826 -0.052909390478855865 0.07075816489671806
0.15566784505805864 -0.053589472546584624 0.07091291617237354
0.15518010370471422 -0.05207723920507343 0.07054521028249863
0.1547474501683521 -0.05047348681266945 0.07021871972574859
0.15451709768803004 -0.05042735468392903 0.07102836356327154
0.15479630313860718 -0.05106039699798418 0.07078534591822003
0.15495002513630288 -0.051625674467380624 0.07085148264327053
0.15441023871656306 -0.04973886485794417 0.07055870084519453
0.15405675085060835 -0.04899334766934816 0.07104207480675087
0.15428205068578316 -0.04979915217855064 0.07111904948452023
0.15383753529122315 -0.04805385834768929 0.07084909679699528
0.15353620016528138 -0.0470129807318183 0.07107711492661288
0.1536904414667392 -0.04761332690422724 0.07100847809708048
0.15310799934696948 -0.04535202354672428 0.07152876537280348
0.15327836371928874 -0.04631483655369937 0.07156724236091576
0.15279930899690833 -0.04347361228239312 0.07140364090086072
0.15284082401315713 -0.044398607312584465 0.07196239925985974
0.152532690632019 -0.04193205449829301 0.07112052468758588
0.15257025855546946 -0.042742531587537574 0.07176011788946697
0.152420164330246 -0.04161763402860148 0.07123463762636095
0.1740217463541456 -0.11394262133110136 0.07458406213066182
0.17385401863779612 -0.11336489602820321 0.07499469402341263
0.1736793677318595 -0.11262636189401454 0.07526661009410908
0.1735049580992488 -0.11173565362675715 0.07537995028686309
0.17336567495428004 -0.11081815725188598 0.07548209585753439
0.17326300971893557 -0.10986512049580607 0.07557534470104796
0.17318416339149298 -0.10875469743852051 0.07578250424102335
0.1733870205918987 -0.10814972389585249 0.07485522067049821
0.17341383872336952 -0.10759202862766344 0.07489977615469363
0.17346955773925302 -0.10692012699994496 0.0748638440917631
0.17351581071137062 -0.10576196906560037 0.07496333953269971
0.17359893687283498 -0.10479762406536462 0.07469156169530543
0.17355158432020723 -0.10402120566194704 0.07480227712901509
0.1734858531261477 -0.10312956367654352 0.07481005303296123
0.1733565502816267 -0.10221409201476382 0.07482954431919843
0.1731964934997118 -0.10124843710616518 0.07481951846017462
0.17304173635392714 -0.10026693157514578 0.07479189585048056
0.17288804178546285 -0.09928002595206828 0.0747400543277685
0.17274854523292638 -0.09830609576900354 0.07467521468560229
0.172612795024115 -0.0973493687344412 0.07462449339204145
0.1724760582167228 -0.09638859429673738 0.07459537523553583
0.17233741023527605 -0.09542297218670708 0.07456450397203013
0.17219887060027947 -0.09445719247642721 0.0745230714674533
0.1720710669751184 -0.09349771826271967 0.07447544232377647
0.17194213264392227 -0.09253292829390057 0.07442871319932426
0.17182224204206648 -0.09156262677946582 0.07437899792395604
0.17171141362741701 -0.09057642884375115 0.0743236168621183
0.17159773060393851 -0.08957668295018845 0.07425311347727127
0.17149920653603967 -0.088567311520933 0.07417868167709077
0.1713841332499108 -0.08756051407384174 0.07410343109075766
0.1712342341523892 -0.08656489729379117 0.07404967031234025
0.17100603983079665 -0.08558555191724075 0.07402779352184008
0.17064296953991942 -0.08456800281278194 0.07405722008474722
0.17030380233656506 -0.08370249267115114 0.0737378803602896
0.17005041535752902 -0.08337286825872493 0.07401634397526473
0.17027261872980845 -0.08399750661786981 0.07451106573585704
0.17003956898167166 -0.08294967245961762 0.0732112463245453
0.16975728187181172 -0.08285777489273684 0.07393890772560807
0.16959842240320364 -0.08229163871946817 0.07332454051749832
0.16919680146402902 -0.08169069200411287 0.07355323032875341
0.16945948969288416 -0.08238499498005022 0.07393827132259269
0.16875696099647094 -0.08077340751415994 0.07347984591506738
0.168334817256888 -0.07986645740319855 0.07348879805836732
0.1678768587513697 -0.07886620563763325 0.07351628949764667
0.1674377758937259 -0.07782854204106242 0.07306253755101563
0.16721390050604082 -0.0777033572631691 0.07364505164529003
0.16749694499524118 -0.07833016952712002 0.07404121936365762
0.16706667932509472 -0.0772327184047075 0.07307618449799182
0.16669825501270694 -0.07667085961402376 0.07304855910514273
0.166899833532806 -0.07724867038352448 0.07373496729285536
0.16626844751769787 -0.0759878476649086 0.07302076417894944
0.16577611539041887 -0.07518703670538297 0.0730747424557293
0.16545071847908208 -0.07447020424227692 0.07272821813235515
0.16519120926919706 -0.0739320462340027 0.07277119417154318
0.16540476001809826 -0.0746158830711637 0.07345395931933968
0.16487195683542452 -0.07317525289938528 0.07279217787713517
0.16445139871281464 -0.07228562227407527 0.07287871500054512
0.16409480886632657 -0.0714907629254101 0.07260012698960869
0.16384701938691046 -0.07119351210264897 0.07287537291225554
0.16408988516325188 -0.07177417150642505 0.07335460724500877
0.1638005599766611 -0.0707999899887236 0.07209704711982129
0.16354620658772379 -0.07072254331074225 0.07281333937919193
0.16333441201120463 -0.07023312299461681 0.07225867862335636
0.16288795184144556 -0.06977380672658756 0.07257229441742935
0.16323792491989686 -0.07030773369178209 0.07285588308682282
0.162359384896108 -0.06911566027168506 0.07269311803215442
0.1615383584286335 -0.06791285207282541 0.07224733415092532
0.16190979912668932 -0.0684971802183167 0.07293213536331322
0.1608530131977548 -0.06671801683391186 0.07186171925580077
0.1611858108290062 -0.06730085739872443 0.07252894888050526
0.16057106375727104 -0.06608692592064914 0.07212538973053997
0.16031467497720225 -0.06545480934892481 0.07238427450767648
0.15971129366758555 -0.06425603548606065 0.07201725978667733
0.16005417011940415 -0.06482248721883971 0.07266166094308098
0.1590638088059716 -0.06311558949874725 0.07173017609929319
0.15942484838254795 -0.06365019965623721 0.07233616481866444
0.158771132496654 -0.06251877542060526 0.0720866821239945
0.1582028346101991 -0.06136524971685236 0.07182877138968656
0.15852141929461727 -0.061912219772145345 0.07244293173841948
0.15773458594038575 -0.060124750149526895 0.071508237657085
0.15799873904649347 -0.06072244563072248 0.07215337110124678
0.15757974829240734 -0.05944147372627499 0.07180504174243979
0.15744606290925686 -0.05873977959694348 0.0721048136433648
0.15704495000329893 -0.0574089346206436 0.07179912104513951
0.15730852297278067 -0.058035811146013715 0.07242613683488254
0.15656331823489064 -0.056025446583343554 0.0716689915595293
0.15684477263817306 -0.056713686765210165 0.07220677022954401
0.15596330674988115 -0.054593689830878186 0.07170742476284239
0.1562890259053861 -0.055397832357149915 0.07218629807365348
0.15558271771786192 -0.05364673767355784 0.07152688796676578
0.15537853528365392 -0.05341353865926437 0.07223921242387549
0.15566851871658943 -0.05406192058661116 0.07240448154468536
0.15514943562346845 -0.05270819375737804 0.07173674255030482
0.15484011502164252 -0.05225595959557904 0.0723384105753592
0.1550971164949261 -0.05293244534835577 0.07261921663386472
0.15470702613982934 -0.05144374647786665 0.07163794619097161
0.15433750613148228 -0.05094352323072564 0.07241256730352423
0.15456786069140674 -0.05165848309823602 0.07268924503407709
0.15507316428495646 -0.052165130412845456 0.07110664814641315
0.15417386589502108 -0.05008852292260955 0.0718269315041838
0.15383932522095026 -0.049649314541855116 0.07256517994414614
0.1540281890383751 -0.05034502623014649 0.07280556057363058
0.15378490402239287 -0.04901983083084113 0.07206479931775726
0.15350297862090265 -0.04839320073641684 0.07246360721250286
0.1535954914240416 -0.04902016517266897 0.0728885872602157
0.1536141128202745 -0.04797938885115411 0.07162626932275723
0.1533158597949182 -0.047680309965882565 0.0725199997984919
0.15331408830265603 -0.04702642748665407 0.07199291246254767
0.15305187168091725 -0.046220421034000835 0.0724564875337602
0.15314622209967668 -0.047017255891306876 0.07268376013974026
0.15281249787583553 -0.04522771733857649 0.07258932732253721
0.15261805519291782 -0.04365660192737207 0.07236601405239224
0.1526422599619556 -0.04446341088269745 0.07282974522169837
0.1524220309772501 -0.04218697832320867 0.07180970916925501
0.15242940894836252 -0.04313077749292511 0.07266984818155407
0.17383351171585454 -0.11309695470481058 0.07593103723697532
0.17371162771950438 -0.1125368869978688 0.07619217993925298
0.17352534219553184 -0.11167828567540897 0.07633616541194942
0.17334162150733143 -0.11074528286354332 0.0764417016313423
0.1731747910896024 -0.10978378244469728 0.0765765455631638
0.1730413298794556 -0.10897347889559883 0.07682782796613684
0.1732655760687091 -0.10770810734713107 0.07549159557013116
0.17299516850932184 -0.10784299877360104 0.0767001157476447
0.1732059690702616 -0.10702459276855239 0.07586892162816208
0.17332532787061652 -0.10645291189324185 0.07556846677153502
0.17319747350200032 -0.10654436775612125 0.07602095421674193
0.17321544701518468 -0.10599450050038724 0.07606028012538621
0.17331465967885024 -0.10486604034861778 0.07577441725880509
0.17337278591387534 -0.10381233814577473 0.0755385977275877
0.17326857676276883 -0.10301488887462651 0.07568261206713192
0.1731418648477016 -0.1020640192927811 0.0757256591243034
0.17298259742684258 -0.10109798057618981 0.07572874450419638
0.17282083359357156 -0.10010254066620872 0.07572261105556138
0.17269446183603115 -0.09911043198779886 0.0756407402822425
0.17258430780495898 -0.09817168165702027 0.07555810761072275
0.17244805823251552 -0.09724950936852039 0.07554820141469881
0.17231945134651871 -0.09629757144039676 0.07554922800188915
0.17219113181010592 -0.09533697947617131 0.07553086876700384
0.17208462596515828 -0.09438898404186695 0.0754886418862169
0.17197255950901136 -0.09345064364042965 0.07544362780263936
0.17186132873677337 -0.09250249143092222 0.07540840333977034
0.17175108945927364 -0.09153740897717207 0.07536764877856965
0.17164016498724982 -0.09055234812366912 0.07531063553030054
0.1715346711241378 -0.0895549795715556 0.07523441073388311
0.17142681605148188 -0.0885480051091337 0.07514996695765068
0.17129852624251388 -0.08754720212425321 0.07507325909902698
0.17112759989210483 -0.08657266711851448 0.07502624296202909
0.1708780958184365 -0.08564052829959538 0.07504266603314215
0.1705587867505804 -0.08483577013697495 0.0751968309216566
0.16987250636135245 -0.08336849462709715 0.07472060493193894
0.17018987763877286 -0.08415706561348114 0.07543603881766017
0.16956027214771552 -0.08276212520808908 0.07442298419907446
0.1692763542007158 -0.08227564084170608 0.07444010406433658
0.16949605399004009 -0.08287473047618556 0.07506781348479083
0.16892498885796875 -0.08157428030659841 0.07441457856278907
0.1685444460063624 -0.0807665318427112 0.07444468829306565
0.1681729682951561 -0.07992571557650456 0.07452731832042561
0.1678152858952302 -0.07917278510715325 0.07472596984101107
0.1671663964593809 -0.07785317545124291 0.0743534073918103
0.16747110887317218 -0.07854662052491965 0.07499419680972391
0.1665062760368923 -0.07666545596804876 0.07382294293145565
0.16679585865226418 -0.0773103813445322 0.07453268692101649
0.16608796838806902 -0.07600924510933178 0.07394348455704322
0.1656894332815835 -0.07535245098942209 0.0741437708379146
0.16508319711762903 -0.07396271121111797 0.07361405022513538
0.16534411579258956 -0.07470659720541371 0.07437109838899325
0.16475095548830138 -0.07323037220567027 0.07376079110407911
0.16440036366198713 -0.0725494903147974 0.07399065211291407
0.16369878435665663 -0.07120244523526849 0.07357001049413033
0.1640453313983947 -0.07194543601789977 0.07426360526772857
0.16337376231017958 -0.07063632172437889 0.07329959019373834
0.16307488991748464 -0.07022340755047358 0.07337613950513847
0.16334604741913503 -0.07075117328911706 0.0739486463400564
0.1626815981839732 -0.06967945838349075 0.0734595030628098
0.16226753353765389 -0.06907456749054425 0.07365036075706438
0.16153753288309128 -0.06788290007876581 0.07320378612246264
0.16189703722518053 -0.06846484875203303 0.07389668824637118
0.16089191189166901 -0.06667671723525055 0.07279854068362152
0.1612312544610472 -0.06726042960439758 0.07347796207988419
0.1606349518920901 -0.06603864290608304 0.07306337471273626
0.1603957890182912 -0.06539713453671775 0.07332781832073725
0.15978988265710758 -0.06419583681453539 0.0729629093580772
0.16014447381896607 -0.06475486680681475 0.07361655856497876
0.1591358778904315 -0.06304922950096763 0.072680396331184
0.15951754260744214 -0.06358529653217769 0.07328723483860569
0.1588625793748603 -0.062446081392460655 0.0730451774134658
0.15829802663258333 -0.06129272655139776 0.072788424036445
0.1586257093637219 -0.061839565210544005 0.07340577889503706
0.15782924436034376 -0.060048008825364714 0.07247220417816587
0.1581022575611782 -0.060643467797164945 0.07312933935085979
0.1577037740763763 -0.05935435993695785 0.07277681547448087
0.15758497997948392 -0.05865053107603492 0.07307876630505443
0.15713453309320802 -0.05733773160042566 0.07279190671090952
0.15742896634787237 -0.057943964583854965 0.07341279041181516
0.15662715902410962 -0.056059646760900896 0.07266738238519486
0.15695241857827685 -0.05666193072128503 0.07320261435658752
0.1560074335923721 -0.05477311235641853 0.07273938959449953
0.15636041276646437 -0.05542531620338923 0.0731784329334544
0.15539216612021026 -0.053582049092645266 0.07296232377902113
0.15574308270280404 -0.05421002112076234 0.07330253886534395
0.1548110825880962 -0.05237168954426772 0.07308746661257813
0.15511131141932294 -0.053023975857434624 0.07346060254806636
0.15426818154295036 -0.05107908375214066 0.07317648500442277
0.1545381655145707 -0.051769546050710984 0.07355560577175108
0.15375048522794038 -0.049730525741042024 0.07329311860594956
0.15396783727589933 -0.050459182550480056 0.07366048660080184
0.15330379862975205 -0.048218323000907205 0.07325360294314988
0.1534895787156279 -0.04905055257073416 0.07374943686578973
0.15313283334992478 -0.047433805044552024 0.07312137272349638
0.15296185378594868 -0.0467671422348238 0.07331525248960295
0.15303395860782698 -0.04749516170282707 0.07384386658149827
0.15271854433172527 -0.04580782433729141 0.0734573615178146
0.1526151808759451 -0.045003300108991735 0.07324716825937874
0.1524462037516054 -0.04400863595852804 0.07332574855936858
0.15253280523321402 -0.04458214723584999 0.0733549897945058
0.1522738524429243 -0.04360374957555813 0.07367778293834767
0.17387256451494654 -0.11293753516495107 0.07661405458551047
0.1737760064051063 -0.11238981298462822 0.0770725107021255
0.1735982110124636 -0.11164942378421659 0.07735194373415681
0.17336320241958708 -0.11071393537126814 0.07744144801001548
0.1731383494345267 -0.10976565646850066 0.07754816447652124
0.17293734781230902 -0.1088249362804929 0.07764310044024807
0.17279178224559266 -0.10801697059551774 0.07783587357803183
0.17304553937459485 -0.10671290426924229 0.07654425045677793
0.1727428002136569 -0.10688485828097148 0.07769336283062524
0.17296364626765126 -0.10606330764342949 0.07689697094960944
0.17308573254109486 -0.10550524337230106 0.07654555861933345
0.17294429798608466 -0.10557125437240639 0.07698204837272773
0.17295441395872233 -0.10498710910068462 0.07693014427630983
0.1730907103029877 -0.10391880290595133 0.07646396445433683
0.17299585204821946 -0.10284020309533992 0.07653862765442367
0.17285981294136005 -0.10187645310394665 0.07657096721870202
0.17269283060188378 -0.1009125494957239 0.07660526856130757
0.17249688005767874 -0.09984622768425412 0.07670651601959942
0.17248992904763633 -0.09884781536701746 0.07633322334799446
0.1723519779417109 -0.09805422741743552 0.07642147190387989
0.1722246251793838 -0.09711289864275245 0.07646247326486202
0.17210594075812166 -0.09615545938134619 0.07650931491336599
0.17201953976833448 -0.09519353968740094 0.07647375080896258
0.1719491598135407 -0.09428230912561923 0.07640437318603002
0.17186432961737963 -0.093387470650736 0.07638990004639655
0.17177474771918816 -0.09246192518359081 0.07637550445033935
0.1716848866620841 -0.09150856341877515 0.07635219911255044
0.1715803755425894 -0.09052988973442033 0.07629452395072096
0.17147898341041362 -0.08953092999335396 0.07621530412648916
0.17136426992554915 -0.08852994984717844 0.076124002285632
0.17123335436267587 -0.08754625669577502 0.07604927941813931
0.17104826136864948 -0.08660289464390877 0.07601458294394942
0.17080070808750594 -0.08573100596603198 0.07606126862004117
0.17048380607841662 -0.08495340508177612 0.0761962887029533
0.1698008296926283 -0.08354204738095239 0.07568732722569865
0.17012299180103832 -0.08425572141974176 0.07639864389222245
0.16912858785517426 -0.08227466004693143 0.07521281773658262
0.16941211968672812 -0.08294481836847585 0.07592396266362611
0.16877002785785952 -0.08156458528093631 0.0753180493292711
0.16843156976618653 -0.08079925320631201 0.07542810182804867
0.16810171923884126 -0.0800356324075596 0.07556091472670315
0.16777815899535203 -0.07931570641422606 0.07573400830168645
0.16712061213005594 -0.07795992206431608 0.07522093415261874
0.16744845113212964 -0.07865041457671945 0.07592979083058878
0.1663990659861281 -0.07670857220313891 0.07470555238967869
0.1667381586245887 -0.07736691126918266 0.07542205643253826
0.16600425175791197 -0.07607870510814077 0.07489922241212002
0.16564092166954925 -0.07542736679788563 0.07511636279774563
0.16502383755490974 -0.07402701690908982 0.07455777873833032
0.1653171011925313 -0.07475980297110617 0.07532982800866307
0.1647066044157926 -0.07333763642932871 0.07475244995683457
0.16437585071948554 -0.07268164150190866 0.07496926350860968
0.16368387204449847 -0.07138113045005828 0.0745312234436111
0.16403734755301302 -0.07205501518291224 0.07520609410473571
0.16298603867753556 -0.07023387766090546 0.07416654463566374
0.163325580018164 -0.07083144539591024 0.07480858739143229
0.1626112966857143 -0.06966155064042777 0.07436709394671084
0.16225416339430226 -0.06905399524997673 0.07460065392860113
0.16158198773347981 -0.06784756903775112 0.07416144669514234
0.16193663042228418 -0.06843639081624829 0.07485012531088905
0.16096704262304537 -0.06662732316989592 0.07375050564932965
0.16130855501094785 -0.06722463236763561 0.07443549688201595
0.16072975827139624 -0.06598633675333879 0.07402137942131179
0.16049527477738534 -0.06533836620018992 0.07429879031651546
0.15989267109143127 -0.0641252442364474 0.07392455190626199
0.16025580328435618 -0.064691074680099 0.07459146438436781
0.15923226578684008 -0.06297779796517929 0.07364403358076382
0.15962286290255082 -0.06350884537972276 0.07425757600650584
0.1589731798552373 -0.06237570808448808 0.07401087473373881
0.15840531397550656 -0.06121855567917773 0.07376366568353938
0.15873564291127273 -0.06177649837627436 0.07437421817762281
0.15796177037893303 -0.05996411771625173 0.07345751776790838
0.1582364953116943 -0.06056970410996426 0.07412022090540644
0.15785501496579488 -0.059267715386687625 0.07376617214679765
0.1577244901212151 -0.05855899947876202 0.07407773327753553
0.15727460197547874 -0.05724719874260625 0.07378422211812168
0.15758140782083246 -0.05784276253824255 0.07441556857500738
0.15673072992349246 -0.05601333962198753 0.07366759134241903
0.15708936377501276 -0.05658284502784862 0.07420137282781315
0.15610517883391165 -0.05481017496270465 0.07371436589364616
0.15649657900826025 -0.05537563400726758 0.07417893573558935
0.1554542715824163 -0.05364574553838627 0.0738410183834329
0.1558415009528834 -0.05421751124350859 0.07425624456637857
0.15484393010823502 -0.0524250529452792 0.07396008035132916
0.15518849588135447 -0.0530307738185827 0.07437681666980585
0.1542567126981437 -0.05114894749250362 0.07405734021931214
0.1545692131431129 -0.05179363620867975 0.07447790561661505
0.15370195655214636 -0.04978260185569617 0.07417870050742785
0.15398517211287555 -0.050468247287438435 0.0745984101302854
0.15321182399204916 -0.048321145600485234 0.07426316903778335
0.15344937526114497 -0.04908398068718428 0.07471273669842766
0.15275369688413576 -0.04662309285830314 0.07431583359124351
0.15294810535829298 -0.047548538971823956 0.07482809124850587
0.1525203766640798 -0.045778026021241314 0.07429856616283616
0.152354852244222 -0.04537150804647306 0.07471861823635313
0.15247351969788583 -0.04601962568691335 0.07504840859640026
0.1524342112832176 -0.044920477562401716 0.07393529801002963
0.15221785978915214 -0.044768763310097055 0.07474969104514799
0.15223881067641695 -0.04412251478001764 0.07416933166025089
0.152141871058218 -0.04379111940122203 0.0742823009162943
0.15211836811683796 -0.04425912229668395 0.07469841477639301
0.17394091838720238 -0.11239272157648886 0.07833251709156737
0.17372244599668699 -0.11166184648912979 0.07838832860739459
0.17344145165035832 -0.11069440763610301 0.07843902431923745
0.17311625888286752 -0.10970601066729646 0.07849863529402984
0.17285371670142402 -0.10876731755112887 0.0785755213469016
0.17266321983581662 -0.10785005707065395 0.07864450158839043
0.1725105310927707 -0.1070540167634753 0.0788150802944127
0.17276328698106166 -0.10572656860666903 0.07749847368923721
0.1724261257528496 -0.10592904421462855 0.07863427637735304
0.17262744199615554 -0.10498225077112948 0.0778160613048393
0.17280063876144122 -0.10431105243979139 0.07730909343132487
0.17253225677859269 -0.10415437059900395 0.07796076381478567
0.17276585499937253 -0.10351556031085071 0.07729204346234353
0.17242380271071744 -0.10328975024806171 0.07803910111389777
0.17266662638517408 -0.10259668849529134 0.07732974973773478
0.17230254437649775 -0.10236815817978447 0.07807047190935429
0.17252494163321705 -0.10167365668719601 0.07735867448343123
0.17218372762699544 -0.10146660342390201 0.07805579143371903
0.17236411453479716 -0.10081363218659878 0.07743752115860505
0.17211809748770426 -0.10085230120189169 0.07799860064095657
0.17207359440781303 -0.10012207188895339 0.07783900762056942
0.17217683213037752 -0.09895952550431189 0.07725714763795957
0.1720497177743886 -0.09788984894332016 0.07728339065031412
0.17193583148703423 -0.09694983327687019 0.07737470411890364
0.17181130557578786 -0.09593731428171355 0.07758630849114678
0.17185619729163618 -0.09495472003846356 0.07724159589511974
0.17179715405060805 -0.09419598946174892 0.07731434404504889
0.17175736666864297 -0.09332306011467875 0.07731500131478215
0.17169661382985943 -0.0924356513589707 0.077346617054062
0.1716179601841176 -0.09148835588653018 0.07733671091950521
0.17153045545170584 -0.09050870422929647 0.07728147232370362
0.17143390534597253 -0.08951142645056018 0.07719652204182723
0.17132149099882535 -0.0885204208767051 0.07710172148246204
0.17118244743642885 -0.08755068439126511 0.07702868727277751
0.17098980209851614 -0.08662826088724351 0.07700262373005376
0.17074557011038463 -0.08577878957182215 0.07705303122176857
0.17043335094795853 -0.08500689520250329 0.07717582437971122
0.1697426890141431 -0.083613898036307 0.07662833398874833
0.17008463300962645 -0.08430149019253058 0.07736506947010358
0.1690404798001725 -0.08229071500023105 0.0761114526455164
0.16935651348512754 -0.08297318546525675 0.07685353210428021
0.16869900241518979 -0.08158191497672913 0.07626968687653846
0.16837854551595793 -0.08084194307784183 0.07640738126798234
0.16806691881710664 -0.08009734922859588 0.07653968577993381
0.16775814801725997 -0.07937047253366424 0.07668707135909876
0.1670946085861328 -0.07802639012911709 0.07613336310554288
0.16743793491759998 -0.07869633298134307 0.07685773274110806
0.16635039104591415 -0.07675583005955297 0.07564054331645484
0.1667166441801367 -0.07741930697766651 0.07635826088248786
0.16597207581822343 -0.07612649531013234 0.07586582740230455
0.16562575433245771 -0.07546524210795219 0.0760877935172084
0.1650064771884121 -0.07408259133421781 0.07552405709877964
0.16530877244360276 -0.07479202303975241 0.07629243288589042
0.16469388218549968 -0.07340617290625964 0.07571662956994347
0.16437213018918806 -0.07274178012082498 0.07591875097750678
0.16369092945976219 -0.07145938818987577 0.07545789642640251
0.16404341624437319 -0.07210576450207166 0.07613195878959403
0.16296647231801897 -0.07026074209767544 0.07505996594659423
0.16333992560775631 -0.07088088888015011 0.07572804993351522
0.16261473681935806 -0.06965975009702945 0.07530980268966113
0.1622897278591796 -0.06903907154197785 0.07555234002505175
0.16165351885801404 -0.06782056168569542 0.07511999966589115
0.16199567232385276 -0.06841958890180094 0.07579930827050234
0.16106122498673722 -0.06658915466535424 0.07472248976725276
0.16140022772718454 -0.06720604278113909 0.07541063625627879
0.16083980138919138 -0.06594292352339877 0.07500599375243965
0.16060992840174335 -0.06528670910131329 0.07529158054340475
0.16001174323444672 -0.06405866254980355 0.07489593805075223
0.1603715206380727 -0.06463845086034523 0.07557993064422262
0.15934575764146908 -0.06290014446808581 0.0746165626044678
0.15973096081094162 -0.06344029424503196 0.07523536479973149
