# .PCD v.7 - Point Cloud Data file format
VERSION .7
FIELDS x y z
SIZE 4 4 4
TYPE f f f
COUNT 1 1 1
WIDTH 789
HEIGHT 1
VIEWPOINT 0 0 0 1 0 0 0
POINTS 789
DATA ascii
0.0712470080070396 -0.0822118588843457 0.081812575471384
0.07216256971541139 -0.08142509537850043 0.0817572685531201
0.07282164235318699 -0.08085390749144049 0.08171762344626715
0.07332119477778927 -0.08039646908060351 0.0816276127456235
0.07302572022639332 -0.0807623050101046 0.08217864579418903
0.07363386708982701 -0.08018738947730283 0.08192443055345071
0.0740996067198142 -0.0797199811779212 0.08134622938429983
0.07497786025746761 -0.07901040828306898 0.08116548879567945
0.07555359986940795 -0.0785672677795222 0.08130564663428924
0.0761893772128873 -0.07808911670948115 0.08099763043818697
0.07678508480031929 -0.07769733593845335 0.08114087624086984
0.07742837805092724 -0.07728568320796904 0.08123842997673088
0.07815013375237517 -0.07690443990222341 0.08130544190096328
0.07885560302351471 -0.07652630564253417 0.08135071665951224
0.07960680962940356 -0.07620203743092784 0.08137810353388343
0.08014123180588807 -0.0759199469121386 0.08120032348133611
0.08037195564804547 -0.07581894244990786 0.08095731123743191
0.08054709501334319 -0.07578455905101161 0.08129076262468912
0.08110376620519137 -0.07562643569041486 0.08137820840477548
0.08166104189762582 -0.07535792721622578 0.08145851553704674
0.0819160525710467 -0.07509863797563214 0.08138785079435315
0.08191322622689491 -0.07491923174155057 0.08118971005534298
0.08212131962236206 -0.07488038784587342 0.0815232731714762
0.08235553968196202 -0.07454842716622188 0.08158193817679897
0.08243751080921417 -0.07425578125599061 0.08150609483792795
0.08240531335323474 -0.07405751560532746 0.0813333182939966
0.08258243429398862 -0.07400297422245569 0.08171058012903401
0.08266300702597824 -0.0736158825251368 0.08184568626442038
0.08245646330333688 -0.07322070582049388 0.08163180041344718
0.08245420174151032 -0.0727682170915318 0.08192073380174057
0.08242767961239739 -0.07227869064046415 0.08220105682429883
0.08206893695405792 -0.07173532820502053 0.08202008488596471
0.08191757495417319 -0.07120716515129359 0.08225522215633933
0.08171680352712801 -0.07063171293269187 0.08244945315712418
0.08126408236854434 -0.06998176233315077 0.08220493011745868
0.08119014125311724 -0.06939912049778324 0.08255468612442539
0.08089527076850574 -0.0685795038600069 0.0827560280589128
0.08030571236463223 -0.06771287945598652 0.08255377501042727
0.0801914168621814 -0.0672597019097084 0.08296144822794062
0.07917583046633493 -0.06561996036578378 0.08257407024600821
0.07964777775709452 -0.06620211946165692 0.08306776522494264
0.07910137670296505 -0.0651843121560508 0.08290323588953998
0.07859289888798587 -0.06413047960205295 0.08305986394960074
0.07789117804272278 -0.06277797477236692 0.08292452092299352
0.07758541168866928 -0.0616775788658644 0.0833811268765248
0.07693639282907161 -0.06042981356014071 0.08331859000562344
0.07642246760526254 -0.05972363874006674 0.08310372192904518
0.07664464854756302 -0.05963136741476868 0.08361442032275555
0.07615907881152789 -0.058563540433629525 0.08364911677972364
0.07605628587678007 -0.05779802647846698 0.08391157354629093
0.07563610203738846 -0.0568602047175305 0.08367722813100302
0.07593164057620934 -0.05630304165791027 0.08424462510236794
0.07609174435959265 -0.05464862028633604 0.08492576235633306
0.06317938516805148 -0.08949944621514117 0.08450350725329676
0.06399045842420173 -0.08873307092255234 0.08405374741843263
0.06476797732919938 -0.08818325763752854 0.0839428804936231
0.06552091528955395 -0.08754696447059297 0.08362320526222888
0.06513803533118943 -0.08816637263519582 0.08441710412411957
0.06628679562508662 -0.08694037409648862 0.08340139087867858
0.06610984284982328 -0.08740600379024308 0.08416992465034998
0.06674653709049652 -0.08667666981511794 0.08362120130684496
0.06686344524080269 -0.0862590060999235 0.0829383106278905
0.06747987085394623 -0.08575076237534673 0.08285485818653898
0.06788351514419431 -0.08525418711620546 0.08249386063283544
0.06797081226046049 -0.08547773184289656 0.08315060455925852
0.06894094647543954 -0.0845377766756689 0.08297362851011957
0.0698409943695053 -0.08365421875706038 0.08275762402586906
0.07067422716320017 -0.0828889228889321 0.0825802502230626
0.07149747266419208 -0.08216713793317497 0.08248587027859298
0.07212393913277222 -0.08162367973555694 0.08232760603439021
0.07250659337377031 -0.08120178436143191 0.08210976922839762
0.0724215078053791 -0.08142299306110048 0.08263125559274007
0.07289945961364688 -0.0809766645947254 0.08275547866889875
0.0740813756896536 -0.07976509365028521 0.08196914720497527
0.07360113687417275 -0.08027316503524945 0.08255988376425955
0.07427966755260075 -0.07956916961071026 0.08230235617214555
0.07481828699802555 -0.07914045290903429 0.08178511340973127
0.07553140739358001 -0.07856278557283206 0.08174608968780281
0.07608242071930794 -0.07813353779752241 0.0814776618699428
0.0766314847110839 -0.0777549019664874 0.08164768038175675
0.07732235125605533 -0.07732200833403441 0.08176110614400485
0.07809304976822855 -0.07686271654652566 0.08182574890411477
0.07885537795619066 -0.07646477571825454 0.08184855452358049
0.07951159438031993 -0.07617397234551898 0.08189789333972508
0.08010362599507166 -0.07598031006312157 0.08160152112142974
0.08060150020486492 -0.07584802535926685 0.08181037636853188
0.08137702813562023 -0.07562588501546418 0.08187407266711974
0.0818345747202635 -0.07540721444435991 0.0818313131178068
0.08203649216879251 -0.07516658200795183 0.08170932234893069
0.08232676491207701 -0.07489036202675119 0.08203979737910662
0.08255630148987339 -0.07449804232036353 0.0819301206663406
0.0825558699242395 -0.07431124413478049 0.08176549708767612
0.08270271519325807 -0.07423708210166878 0.08208256268955001
0.08276618576112683 -0.07390672078530786 0.08207310067191716
0.08283699057494685 -0.07360679889663883 0.08228753274999429
0.08269014329491099 -0.0732209820364644 0.08211484734858492
0.08270790486009111 -0.07277264756904252 0.08238751499856307
0.08269260285140771 -0.07228456958122861 0.08264136038496196
0.08235925924959754 -0.07176550047142168 0.08249329700261174
0.08219906754735656 -0.07115015610091362 0.08277792592864211
0.08187569993211734 -0.07055094046790997 0.08278145654053154
0.0815596916328922 -0.07014815579197463 0.08260245947923
0.0816837199091962 -0.07003408416439955 0.08293609665465296
0.08134508979566345 -0.06924620655097087 0.08314476649083764
0.08099930412507185 -0.06849689696860412 0.08311634924432626
0.08066428292627756 -0.06800153243294493 0.08293834228570379
0.08068933348462379 -0.0678966054653762 0.08328242456946858
0.0802159928203941 -0.06709579195630251 0.08345060529538804
0.07979723471322608 -0.06619577798584342 0.08369799089521222
0.07925547132959132 -0.06526326846315292 0.08342592154077404
0.07886234317067911 -0.0643816869180156 0.08380290590198898
0.07831332873179159 -0.06319473164514644 0.08354815161447601
0.07813260718512251 -0.062488398714479525 0.08397372685183759
0.07726871392008137 -0.06072537338575571 0.08371676788745415
0.07772401178135327 -0.06141731932156947 0.08421733977953445
0.07721557731047016 -0.060275345018711055 0.08411239602166505
0.0767321252433085 -0.05899142444256875 0.08432272390077669
0.07635501130423049 -0.05782940087783108 0.08440703744857717
0.07603586151346266 -0.057116564119965595 0.08415876563776355
0.07638040209678859 -0.05710710882984206 0.08466427508661008
0.0763758821236579 -0.05614766294584313 0.08491256701556563
0.07614150138662716 -0.055246838495065766 0.08482208919991
0.0763547980103219 -0.05470564862242968 0.08541365111729131
0.06289793287032293 -0.09021149929517971 0.08545115799704305
0.06320933485408747 -0.08989194828137116 0.08528934978837605
0.06377313056703704 -0.0892943399355888 0.08489248407809097
0.06359776741488543 -0.0898195198192348 0.08563170367306518
0.06445059493965298 -0.08867919105415034 0.08450256800682486
0.06451105915963432 -0.08900846862679813 0.08521773935402142
0.06546520302423915 -0.08825614286813374 0.08504571812369918
0.0662956087371342 -0.0876429187114509 0.08489824573003754
0.06725553990511328 -0.08616060542940343 0.08336385958591183
0.06721244948428053 -0.08659661656653109 0.08426337094760045
0.0683904392054898 -0.08538391537488173 0.08390613975562008
0.06940766264445522 -0.08434363401957762 0.08371561797863127
0.07019509594417983 -0.08347450593707549 0.08328005107374345
0.07087422560854068 -0.08283639222878665 0.08327785476678155
0.07149465536728372 -0.08226018909661686 0.08303601686733139
0.07190455860986326 -0.08189905583223885 0.08271916514010993
0.07189421298968907 -0.08194752878360255 0.08314886500374061
0.0723904691273301 -0.08149259590403013 0.0832380656618335
0.07294546904690573 -0.08092663034132166 0.08326864350703732
0.07349438921886926 -0.08040798885215013 0.08327776232155015
0.07469805470588405 -0.07919390135349039 0.0823346079188847
0.07425936035545468 -0.07962239722692126 0.08292977073803708
0.07495160770509766 -0.07896440193504947 0.08255535968632759
0.07523480091412851 -0.07876526058971968 0.082132722899557
0.07584940887314925 -0.07825158192306148 0.08195827622810298
0.07620830931017422 -0.07793292659226471 0.08229904992887274
0.07714505854689799 -0.07730793236015109 0.08238496121152877
0.07796362925507265 -0.07676864482330928 0.08240158723054958
0.07881503236202776 -0.07634886139868631 0.08239289866812126
0.07949419287305041 -0.07610416483221166 0.08222406430187494
0.07997657228157048 -0.07603463618587945 0.08197713993477057
0.07991867857644804 -0.07601923354013429 0.08235349598254818
0.08079668998302103 -0.07582225068628187 0.08233817725711177
0.08140161548425778 -0.07567421726385205 0.08225891770922218
0.0817679698460004 -0.07550964524261304 0.08213311189510808
0.08153985516002416 -0.07557953256457248 0.08244295750759782
0.08204348469747551 -0.07526269876110737 0.08201877245753066
0.08197644218725504 -0.07529021255813512 0.08239377397208227
0.08226563180885337 -0.07497039648697576 0.08250323854475088
0.08261166858738243 -0.07452826580887457 0.08218601369792161
0.08252258465779776 -0.07464764788451053 0.08245086546059018
0.08270302956382626 -0.0743700062471844 0.08236499057604792
0.0827805082056124 -0.07404714392235323 0.08250487448689704
0.08286801785324917 -0.07357203500963887 0.08271627652405357
0.08286150945387283 -0.07320028241628702 0.082538762704822
0.08285403322790068 -0.07273413404676138 0.08280820392110558
0.0828243616359342 -0.0722454436936489 0.08302266886151548
0.08262363005867712 -0.0717776573317329 0.08289835366932136
0.08251483116055028 -0.07125807020306778 0.08326923864991724
0.08207648887544505 -0.07063816927419603 0.08314474442237589
0.08184025124703462 -0.06999646826046751 0.08341821354294005
0.08149389234372394 -0.06929419205058701 0.08368553283803559
0.08109921815618631 -0.06858277352724716 0.08349182704791606
0.08068020748691765 -0.06782885758112073 0.08375971716366824
0.08023528628746825 -0.06699406420191856 0.08402761775869944
0.07980029728709015 -0.06612708049476003 0.08426335543843744
0.07937593409923237 -0.0653486650167876 0.08402857227989002
0.07904677605536571 -0.06456409750711406 0.08449258475428824
0.07857218051271297 -0.06348808417046387 0.08419788207558752
0.07829462458494754 -0.06256145449763326 0.08458785451579241
0.07800534380016093 -0.06154056735867519 0.08499629156299278
0.07747212858821025 -0.06038996561639439 0.08471424950789229
0.07729819597102836 -0.059384838013954624 0.08517643472429856
0.07678036296677161 -0.05815184507780658 0.08495507489835112
0.07686532045831276 -0.057126956322184314 0.08538538754371067
0.07660980228786901 -0.056066545968757146 0.08542977822848356
0.07637026489450181 -0.05542169181343765 0.08520892965354292
0.07661153840170289 -0.055429033152423916 0.08573951019059993
0.07672678436230279 -0.05477326708252562 0.0860797063911781
0.07669434901493312 -0.05401727651927431 0.08631377940771279
0.06287000167667228 -0.09056523468512069 0.08602018807244992
0.06305239131851323 -0.09027589729477813 0.0857818278622569
0.06328492874207152 -0.09036270718970615 0.08624728990413516
0.06409624318997854 -0.08974491786113756 0.08614438197725052
0.06494241933995198 -0.08901546431502952 0.08586593906547159
0.06579214933600297 -0.08834788618546396 0.08567190540013572
0.066714938852982 -0.08758481975385352 0.08541077507071748
0.06738539716082663 -0.08689308141687396 0.08512649056922203
0.06799838666868646 -0.08613032964157054 0.08479852498483356
0.06769214830585216 -0.0867756549141149 0.08555877625848274
0.06882207041043188 -0.08522076387707292 0.0845880203573777
0.06835138821690939 -0.08597472281780126 0.08540164977457834
0.06947797231465402 -0.08448727868882584 0.08449576185741432
0.06914723015703371 -0.08505769074242103 0.08526784062977974
0.06975578511360649 -0.08424802618619276 0.08483661610146984
0.07016511876233834 -0.08366565185740307 0.08409411126456086
0.07076761162897391 -0.0829555997922575 0.08392926913988451
0.07130619351139142 -0.08245129336519828 0.08355768871295925
0.07171714323174176 -0.0820721859950912 0.08377951509742856
0.07224527361681751 -0.08156255686503777 0.0839257619358343
0.07291126742669383 -0.08094248302998074 0.08391689100208036
0.07359612144101353 -0.08025777901007561 0.0837860678778356
0.0742085587077487 -0.07960175558689404 0.08366304933909977
0.07546231105577064 -0.0785159769220683 0.08238253763037875
0.07508738600193618 -0.07876668171073929 0.0830949604059556
0.07609773111068893 -0.07788296139588381 0.08306653944266906
0.07695895673038945 -0.07720702478789544 0.08304410317125549
0.07777702190953384 -0.07663345559402948 0.08304149246524235
0.07863825158068447 -0.07632198154802662 0.08279893452391386
0.07922193667479686 -0.07617390099142463 0.0825139794689689
0.07912800167347829 -0.07618627789443377 0.08286482734169284
0.0798850600866009 -0.0759632934801319 0.0828878904338187
0.08071109868124202 -0.0758293305119829 0.08267761216149563
0.08117074957913487 -0.0757440247701792 0.08248275988019717
0.08105744328599397 -0.07569002567663477 0.0827332347010511
0.0814570039489462 -0.07542681766770856 0.08278031269871147
0.08188146113266577 -0.07514665855534045 0.08284767229677835
0.08226380185239685 -0.0747839969277202 0.08284727548841342
0.08253490533046452 -0.07453963070991143 0.08274993993892507
0.08266745843268919 -0.07437119225424257 0.08258176234515464
0.08258182367978124 -0.07426398119025428 0.08289425720183265
0.0827039029634828 -0.0738423701006746 0.08295879179644512
0.08281832974116624 -0.07343219751984421 0.08309769715151351
0.08289900331135848 -0.07313090673041292 0.08296117122195543
0.08284286922965475 -0.07258391626585206 0.0833420710056396
0.08282236093344902 -0.07208836336787626 0.0833526225785762
0.08276251926693119 -0.07182153313333169 0.08319064650492913
0.08265323615738998 -0.07163044117242945 0.08352919724175645
0.08244768582705304 -0.07103752751421523 0.08378294121987616
0.08224613712958254 -0.07057330316650126 0.08361493610862018
0.0818570524843404 -0.06990922070785999 0.08393038309336112
0.08144438624931545 -0.06918723478674656 0.08423308891906812
0.08111347147865033 -0.06853687847758476 0.08400133278855418
0.08063170743776396 -0.06771032598056471 0.08431478067232806
0.08013613997948765 -0.06673755481438665 0.08467500883938711
0.079670511826429 -0.06591118384860421 0.08472008136648854
0.07941630618113875 -0.0654584272158142 0.08448845298242658
0.0793465010144032 -0.06521680333220047 0.08497029892710654
0.07900744970877646 -0.06430778483154571 0.085174934546237
0.07867789483879985 -0.06352854242244661 0.08487039385224165
0.07846497935311078 -0.06262526275260283 0.08535147891844821
0.07814577286331834 -0.06155911803545856 0.08571666802190679
0.07774486210462032 -0.06053591672426128 0.08545838872996343
0.07767356111521143 -0.05959681639792701 0.08596477728620645
0.07730964779757446 -0.05842691050111793 0.08568716069739622
0.07738928348474639 -0.05752720668434202 0.08618473356029141
0.07698078199996256 -0.05638108162164825 0.08596820544674622
0.07703912475838458 -0.05556192930901497 0.08639541839454427
0.07705659045465509 -0.05459260032101754 0.08674574525085083
0.0769170125072593 -0.05362385432535854 0.08699183173300926
0.07676675731840646 -0.05337077758499556 0.0867132566467502
0.07691466625390515 -0.05302293680826229 0.08708157378279847
0.06289696454358769 -0.09069194735298956 0.08626275615487794
0.06386942369627335 -0.09027925204058404 0.08711462174362848
0.06453198558534039 -0.0896444919358316 0.08661272923646302
0.06520679918429667 -0.08907981119528802 0.08650143496796277
0.06609549898422518 -0.08841274746277172 0.08630723005738042
0.06681695495970554 -0.08780790845310231 0.08600989582380997
0.0671998585691661 -0.08732871624778062 0.08565580859897347
0.06721012845390541 -0.08749608131528204 0.08627738218806598
0.06790964528467411 -0.08670934634337313 0.08616691145085106
0.0685369419771048 -0.08590854403442384 0.0860516810777453
0.06907650872735689 -0.0852505984802385 0.08601304707892213
0.07012344202212778 -0.08379321793518754 0.08480828107642926
0.06976522639462478 -0.08432572544060153 0.08556608826785864
0.07034205389375786 -0.08354937774951313 0.08507754061169284
0.07053465223538537 -0.08325677808361266 0.08449527412904641
0.07106150337406178 -0.082670799768049 0.08421327403822046
0.07138779967836403 -0.08238376629958066 0.08467786179027682
0.07215150607188926 -0.08161840997540203 0.0847040761910108
0.07285311935171726 -0.0808507159610115 0.08461474186179253
0.07361297400504982 -0.08010915149538995 0.0844578616093004
0.07436688223978767 -0.07931199302211955 0.08418116795200246
0.07518273265119675 -0.07849572915936656 0.08392361399205042
0.075983438877781 -0.07774835450327522 0.08379634725116462
0.07668086068009032 -0.07711190676529957 0.08375077729247545
0.07729140608509671 -0.07669498102627215 0.08373830807993984
0.07819469187335408 -0.07639941051974782 0.0832704531664321
0.07860422296475826 -0.0762240944980988 0.08355332075028206
0.0794170339037335 -0.07601555874852076 0.08355922299973581
0.08034487820372259 -0.07582944812406078 0.08306696711087486
0.0807437295234786 -0.07558963297274811 0.0831817710399802
0.08116501681626716 -0.07528723987708445 0.08327691252086535
0.08163530087055779 -0.0749162521350521 0.08333966808409987
0.08211130748567082 -0.07464501314642324 0.08315886526747344
0.08240262244692012 -0.0745400397618215 0.08296532835220177
0.082234674373474 -0.07439462340263585 0.08324221733209013
0.08237209186878937 -0.0740379982573271 0.08332352910022772
0.08254082903664223 -0.07359492445123578 0.08341291001943796
0.08269627429833401 -0.07326620038035282 0.08335679168479695
0.08282924063351305 -0.07308002622202939 0.08325875188326715
0.08261346750368519 -0.07288250471223302 0.08362374390904677
0.08253172145378525 -0.07225506965706138 0.0839889261781413
0.08268995986974619 -0.07199490239750524 0.08373916595382033
0.08240190382196919 -0.07137549943475811 0.08406296956374584
0.08220002971513245 -0.07077988204770769 0.08423899889394555
0.08214557825011037 -0.07040354074039266 0.08410977529864497
0.08167205244673133 -0.06971842373031885 0.08442508814753764
0.0812315902722669 -0.06896805814764623 0.08473595833949821
0.08098302141659709 -0.06838869445170591 0.0845525666401818
0.08052868292759163 -0.06756658956385542 0.08492311646160271
0.08012396714918212 -0.06672950647049722 0.08534113656884135
0.07972080922544818 -0.06593381116418358 0.08519919537761976
0.079290845113095 -0.06493132100778831 0.08570234067176492
0.0789297151352218 -0.06402348677236126 0.08564760684925499
0.07877825265668786 -0.0635492952709972 0.08538533112713405
0.07872515286288173 -0.06323597704574209 0.08593560439089681
0.0784239843797711 -0.06228772361124594 0.08601545807744723
0.07825887567195401 -0.06154032791499049 0.08636703166941033
0.0779880497996838 -0.06066186308995869 0.08616564222140553
0.07793850563080416 -0.05983427736014508 0.08679834642234642
0.0776844757912524 -0.05865205722279759 0.08651014599884185
0.07774688973675475 -0.05770075623340239 0.08695547255156215
0.07744720965998585 -0.056629679482447515 0.08666875737503425
0.07750247621928347 -0.05568734270476525 0.08718719049526123
0.07738553808237104 -0.05471020802323569 0.08729206876252238
0.07714613537442998 -0.05417071366804925 0.08715253949131913
0.07734646953939768 -0.05397577445694124 0.08761169011429744
0.07712700530605339 -0.05304606047225003 0.08750520637760438
0.0770787102387348 -0.05266723236673145 0.08744050506381124
0.07734541651797602 -0.052485004034604016 0.08800554203744486
0.06365325230990539 -0.09072628599811527 0.08795352728859193
0.06388460472909299 -0.09052554293196624 0.08791561921566095
0.0638920505840188 -0.09068707585038381 0.08841554439542479
0.06427162342875589 -0.09033214214152513 0.08819464002451426
0.06453069798202055 -0.08987777137158456 0.08737681943935259
0.06540058382182999 -0.08914577777352528 0.08710811115172175
0.06610141436081765 -0.08865274224855037 0.08692226817961235
0.06661527480674924 -0.08815157643836179 0.086519003575594
0.06654716339948091 -0.08832291879097252 0.0872134911965233
0.06741453337405068 -0.08741796780485712 0.08699787042798605
0.06811102302034384 -0.08660831141710523 0.08681046775053869
0.06866176122323503 -0.08583377432888398 0.08670080289883701
0.06922515660080598 -0.08506108399350137 0.0865181286616203
0.06976873521826714 -0.08435059855677257 0.08635930197456258
0.07075997217368374 -0.08303795474761141 0.08482716586868567
0.07049409499528198 -0.08340193187443988 0.08570596753845168
0.07132875624776543 -0.08240073129789645 0.08563210083305942
0.07206088618193598 -0.0815565496045578 0.08554034549061776
0.0727952868582066 -0.08073818967284146 0.08541891720083557
0.07360626912696833 -0.07989634920193157 0.08519085992938694
0.07439541025271622 -0.07904064529656346 0.08486011419773222
0.07512678720302786 -0.07829553710880159 0.08461971479285457
0.07577266392253205 -0.07762636920231501 0.08451551486121266
0.07645698939146318 -0.07707350357484596 0.08443460734519398
0.077094406618045 -0.07669386743661605 0.08420574293887673
0.07772275160011143 -0.07648613030464992 0.08381919964264127
0.07744573807590029 -0.07653736118043919 0.08440105388366609
0.07835424706209788 -0.07624837703467492 0.08425561001013802
0.07910380669412903 -0.07600889294250684 0.08415962551832823
0.07995625821982676 -0.07581205288961818 0.08364127685209484
0.08019828356904471 -0.07552918423210006 0.0838887179344685
0.08072696122679335 -0.07512352013698094 0.08390977885415735
0.08104206119949946 -0.07473235613373874 0.08398161896906196
0.08175518504654389 -0.07456583309982143 0.08357070226865389
0.08186826693220933 -0.07422229379312303 0.0837178901936062
0.0819863702701623 -0.07374513872473044 0.08388773746973885
0.08228141005160186 -0.07339846065236003 0.08378189087082852
0.08252097223957593 -0.07326391851695138 0.08359811088664938
0.08228598527675128 -0.07303761159639097 0.08395279230608145
0.08227600120111982 -0.0725651334122332 0.08419058412836686
0.08213548507770371 -0.07210427857484923 0.08445645497473714
0.08245720804744043 -0.07176897379239647 0.08412996764981898
0.0820764023020013 -0.07168746534240596 0.08445417589124113
0.08214263204472412 -0.07136818727260591 0.08436575887392105
0.08179756603728155 -0.07073559510854521 0.08467125841230186
0.08178070694296447 -0.07018838279349264 0.08458522987739447
0.08127432545176569 -0.06946957043496244 0.08493918760457833
0.0809006433854782 -0.0687194153162428 0.0853007143382096
0.08076903595482024 -0.06818125288668735 0.08511383369250246
0.0803939066724097 -0.0673847851396074 0.08551448347497125
0.08003675959388717 -0.06662742100974584 0.0858766457460319
0.07971605000901753 -0.06597514249698015 0.0857771387187997
0.07947207377271537 -0.06540058349354659 0.0862876753168936
0.07894631287823538 -0.06403001740129789 0.08606497344403752
0.07908373900456792 -0.06436735181268609 0.08653908929674234
0.07881678476902995 -0.06349212985327397 0.0864620456354675
0.07853821961228255 -0.0624141705386796 0.0867080020342025
0.07830892555455585 -0.06136840067879622 0.08687728231358177
0.07813460095855831 -0.0608037377986863 0.08668957648944332
0.07816339804885292 -0.060606051137495925 0.08722780246489291
0.0780486147055535 -0.05973206373323386 0.08758516349280697
0.07793257144762859 -0.05869960894197208 0.08746958109932483
0.07791352679847108 -0.057686448540623894 0.08756325414240694
0.07779163548460072 -0.056860672876173 0.08738389565661249
0.07792013085929883 -0.05621846576792825 0.0880476331832481
0.0777138983207879 -0.05507739551043988 0.08783991256481631
0.0777960263287597 -0.05430363064545637 0.08838490236130211
0.07751518400582613 -0.05322294780964909 0.0881652118733079
0.07767992941882074 -0.05250521865443027 0.08873288132590246
0.07757518969099776 -0.052024407390352946 0.08862074849044607
0.06494438887327332 -0.08968435894493249 0.08794235075746491
0.06455974896875244 -0.09031504948931876 0.08896784127630009
0.0657055229318872 -0.08903483633128056 0.08750930612620365
0.06558287466157421 -0.08924880208109796 0.08836092290891191
0.06675746328286634 -0.08815707841789544 0.08808840745475718
0.06763843102758665 -0.08723623398693402 0.08755260633825945
0.06819890432123239 -0.0865136366646301 0.08751562809496531
0.06876717438647438 -0.08565522653427547 0.08734245596278453
0.06932996033438439 -0.08488164031275926 0.08713809692338421
0.06993063507363223 -0.08406764325214966 0.08688588623468549
0.07058871368691529 -0.0831874822129578 0.08665643829554139
0.07129090396512448 -0.08231298804521403 0.08652095179049415
0.07194975774123029 -0.08146498833779897 0.08642027499424951
0.07268497723140234 -0.08059314655611481 0.08633852100934139
0.07362069124780384 -0.0795524655230997 0.08596548845519464
0.07444687411160976 -0.07877206087813995 0.08540801869965897
0.07497662526733084 -0.07819712552112998 0.08534133220021468
0.07563113337476293 -0.07757962972408985 0.0852174207106924
0.07617820573762987 -0.07712939233741617 0.0849989829530476
0.07670349588576814 -0.076848782534138 0.08466002552870744
0.07647174514611077 -0.07695489678558994 0.08522966828301098
0.07731542647257446 -0.07658650901740609 0.08509428369619484
0.07816690855479148 -0.07620072630724051 0.0849133774647848
0.07893240609115192 -0.07595852539727231 0.0845849924398714
0.07951447950330397 -0.07579798880655703 0.08417638424175325
0.0791531832547568 -0.07574728195348561 0.08472536709750403
0.07975735616521938 -0.07536054146196257 0.08462350798730185
0.08018800540281316 -0.07495073130530619 0.08459464707721398
0.08048467129235556 -0.07457155513386952 0.08463911695256782
0.08122880622040134 -0.07439161911603685 0.08413378585701502
0.08129490541404781 -0.07399276201027623 0.0843480120991728
0.08126732684154185 -0.0735056607993919 0.08460206004940136
0.08184005505446905 -0.0732509275966983 0.0842071046667188
0.08182017330091365 -0.07276117919237922 0.08448057683820771
0.08174863855041693 -0.0722448141999329 0.084734936251603
0.08160786529613426 -0.07169164608870096 0.08497171297844511
0.08159345865289146 -0.07134041977125354 0.08485161229916828
0.08178999637419478 -0.07120206817733751 0.08462067785495293
0.08139128871686513 -0.07086410176432086 0.08507273378090953
0.08103093464327035 -0.07015258568960814 0.0855009998251591
0.08126106304134495 -0.06988836369667208 0.08516097601722378
0.0808052000032765 -0.06912258976007253 0.08563571050709382
0.08054903015165639 -0.06843697937358906 0.08588381765393839
0.08049088625158521 -0.06795749930785719 0.0857073907015651
0.080130110118091 -0.06711497696320946 0.08618038526492293
0.0798711772417052 -0.06641102188841944 0.08631771222314291
0.07974443494972763 -0.06606102665386863 0.0861771691234574
0.07960632140919241 -0.06584727466746776 0.08660703199562177
0.07928501765669663 -0.06507186805489858 0.08692290547542225
0.07896666127895521 -0.06419415339939558 0.08731468941124995
0.07877042531491353 -0.06338658960671927 0.08705935011698779
0.07852239660846341 -0.06245948746041826 0.08759799206065155
0.07836536195387511 -0.061483088979224935 0.08742661454984965
0.07818702873126679 -0.060452747064786296 0.08799666521347695
0.07808445442291688 -0.059569372848417006 0.08809227359491097
0.07800793847627285 -0.05918675692611584 0.08788818520029544
0.07801237510131856 -0.058807507562011536 0.08835233987844561
0.07797338801544884 -0.057917235460009917 0.08813046759674767
0.07796249193635486 -0.0571734735917726 0.08792676798740232
0.07803664263644157 -0.057070647632963566 0.08856201490646097
0.078110499860769 -0.05621216824469015 0.08889008062402676
0.07803944392367079 -0.05536116048406634 0.08858490070857558
0.07811386132355633 -0.054654853922801866 0.08924795358160045
0.07790522727899993 -0.05352477107395065 0.08895195023738717
0.07802648899496205 -0.05269025821363045 0.08957004946171865
0.0778713084051822 -0.05188774994524972 0.08940744112631663
0.07810771856215193 -0.05137251213495049 0.09016135841287011
0.06438301395976759 -0.09078354712644912 0.0898616350620864
0.06456769077610827 -0.0906123133131898 0.08987793189793523
0.06505808949462236 -0.08997987671530486 0.0895079654815685
0.06479173426124303 -0.09048543856514932 0.09032575578198905
0.06587262634642488 -0.08908330048334694 0.08918196881710382
0.06534419369941281 -0.08977506563504471 0.09014705140173021
0.06663379409694908 -0.08829184397545127 0.08898999222478539
0.0661513507639612 -0.08886797065577344 0.08995271372613188
0.06691397511100737 -0.08796092029249235 0.08938811203815127
0.06742879474078982 -0.08737872905567187 0.08844636878602721
0.06827748081265372 -0.08629396790931819 0.08836192131744211
0.06891331266831731 -0.08539936525467898 0.08789340196604534
0.06938256005954077 -0.08470897897594407 0.0878062026437016
0.0699448170522473 -0.08390607681618958 0.087641423464726
0.07055786319182511 -0.08307273903891876 0.0875111542914633
0.07116485993899047 -0.08224037676615631 0.08740242188041437
0.0717838355209763 -0.0814462237706661 0.08732107939575316
0.07228113080653475 -0.08082468503633158 0.08718376179619267
0.07280966174174801 -0.08022013741692419 0.08692948233414746
0.07226562223904807 -0.08073155987233176 0.08770264189161509
0.07337961274237402 -0.07963495517193381 0.0867969655119257
0.07283638323621168 -0.08005750761605834 0.08762425966402483
0.07349636689314235 -0.07942458856832715 0.08717367182016357
0.07413009236367366 -0.07890847894060789 0.08632440247704265
0.07489523789413008 -0.0781293030618817 0.08599382181069197
0.07539326154833512 -0.07767038495227123 0.08583397662125293
0.07585915195986775 -0.07733312937176007 0.08545895196736837
0.07569909600416136 -0.07743514186038702 0.08598810288841668
0.07631152059592117 -0.07706229648006253 0.08596859371200642
0.07709679766640637 -0.07659668386933989 0.08587439336523747
0.07787573915392583 -0.07621077643278701 0.08548231957863844
0.07848586336879736 -0.07600942776120022 0.08503084031581493
0.07820774781194965 -0.07597701777335703 0.08552814003194724
0.07873394800498287 -0.07564313214274487 0.08548596089044094
0.07923837137523075 -0.07521354671411198 0.08539020169324268
0.07965388387731344 -0.07478662811370534 0.08532766445410872
0.0799403877652061 -0.07442442427483285 0.08528083069496335
0.08062207426727369 -0.07422228345106789 0.08477902633764864
0.08048607473656721 -0.0737950425967614 0.08519616023437593
0.08054106592902315 -0.07322071528822596 0.08539269531949009
0.08122720398008493 -0.07297931442800136 0.08485585242956901
0.08114684688836482 -0.07244435921144442 0.08510759602775195
0.08108058520450534 -0.07188956505335745 0.0853564297255265
0.08088981882157288 -0.07135477770963233 0.08568806776448237
0.08116858203072888 -0.0711254980695895 0.08538484472589425
0.08084788640122866 -0.07052876254673796 0.08575157402918746
0.08050700126799455 -0.069982859507302 0.08610818560577982
0.08078854808507419 -0.06955958266040459 0.0856987337642773
0.08039587875812006 -0.06951208994910561 0.08614764631800344
0.08046984392169097 -0.06913568017302081 0.08605826311291119
0.08023063548572656 -0.06849539865910668 0.08646357973184744
0.08019509523928212 -0.06780162002687849 0.0863615813926865
0.07988183600666408 -0.06703749245630514 0.08692383238830632
0.07974707621141162 -0.06640168581791313 0.08679148772008202
0.0794399546690886 -0.0656713891361239 0.08722936106721133
0.07912130423917499 -0.06482672555388398 0.08763987067607924
0.07882118705536048 -0.06399130925521082 0.08799585258570745
0.07868328225625058 -0.06333070936447492 0.08777175211850961
0.07845230707620474 -0.06250492162281492 0.08841343567069557
0.07833560974831894 -0.06150158875033305 0.08821192191802622
0.07820260443684647 -0.06058232938774488 0.08885264850845316
0.07812993995349445 -0.059665606426227584 0.08866143466246175
0.07803055574114566 -0.05876966771226267 0.0892361754437883
0.07800524917938999 -0.05790328266766381 0.0889331120681862
0.07808360612255297 -0.05693781099554015 0.08947218252249323
0.07814796566978408 -0.05608551960438132 0.08950707037174437
0.07817114420015737 -0.05556934517925218 0.08919601900131738
0.07820549979133092 -0.055419903616995954 0.08981466656447222
0.07822940532809518 -0.054542168962638936 0.09011806478339913
0.07816947049065195 -0.05370664903968618 0.08978693577888176
0.0782612015180768 -0.05289866437138304 0.09051346443491753
0.07814857962600953 -0.051856388889181676 0.0902641576180732
0.07832982020648088 -0.05120725749387166 0.09103643540736277
0.06446492213773203 -0.09082045253848992 0.09033851871041035
0.06465530729400687 -0.09076287999851732 0.09087490842498316
0.06501821684357457 -0.0903955082846561 0.09093827671503099
0.06556686968564829 -0.08969728566716668 0.09085304348208366
0.06612196521971693 -0.08900309228878354 0.09079595362422857
0.06754470417006761 -0.08718476677933923 0.08931530373358458
0.06682461817052826 -0.08807829712452189 0.09029067244694695
0.06809773477896114 -0.08640244496745197 0.08929124760344301
0.06766941614281707 -0.08697119594843288 0.0902006890962265
0.06826873783588222 -0.08611971687366943 0.08976846626155571
0.06879054740761445 -0.08546640702157746 0.08883172896464589
0.06940893074409903 -0.08451635414951496 0.08843587051793704
0.0698889630445557 -0.08383267364927208 0.08847366803820951
0.07048604225471765 -0.08300566153456897 0.08836760469057259
0.07106318523303297 -0.0821953598692728 0.08823038265111503
0.07149162662967168 -0.08160589031255872 0.08803070428623157
0.07189045180270458 -0.08119273006596406 0.08771621973967994
0.07164355281051836 -0.08135985489571763 0.0883881765311534
0.07216706390015927 -0.08076696076637149 0.08841219595456021
0.07261173923775269 -0.08021973556764787 0.08842723786239269
0.07384534444509833 -0.07902990307270892 0.08714168711492427
0.07329721796440714 -0.07945447580938506 0.08798465210010135
0.07397463905057536 -0.07878001578752553 0.08744558233125362
0.07436804859374495 -0.07852702104632205 0.08676732888224023
0.07500061329737043 -0.07797144089348655 0.08646129642340505
0.07523627849348725 -0.07775727017373425 0.08690647406099616
0.07602022781377824 -0.07715655364945184 0.08678417472504835
0.07657052808536845 -0.07674314067170618 0.08675146950264678
0.07739590617844254 -0.07635074206671287 0.08615160030441724
0.07755831595385614 -0.07605908029215065 0.08647504003239961
0.07815486723269335 -0.07554689160035662 0.0863517920594177
0.07864855653702234 -0.0750463781352671 0.08621807876577159
0.0791172316119334 -0.07459007322397054 0.08609190565422288
0.0796056191056873 -0.074286503468331 0.08578944507982278
0.0800630482550977 -0.07412673443343167 0.08537381636966944
0.07954424107383483 -0.07398327387065042 0.08605869454500034
0.07973005422820507 -0.07347377956292953 0.0861073325111009
0.07974505723243318 -0.07288459782281595 0.08628412709989892
0.08052512962876264 -0.07266939848645142 0.0855847652940058
0.08041493843263138 -0.07208147617905446 0.08591674247185659
0.08050428001893016 -0.07158714746374177 0.08602573763770704
0.08018469660479234 -0.07108930948199688 0.08643227136887989
0.08052461412861864 -0.07079219268188781 0.08606990669991808
0.0802252146751836 -0.07017771825351435 0.08643097831317445
0.08002918958996097 -0.06959139126867692 0.08671634728190253
0.08001307468802611 -0.06921363666043474 0.08666536432575529
0.08015534789110966 -0.06902033809417732 0.08643599207341215
0.07985158933013911 -0.06873983229179564 0.0870712158095028
0.07972372583795052 -0.06806369011115689 0.08737512685621006
0.07986146711335677 -0.06764297453542059 0.08707164022612265
0.07954203185871297 -0.06689887411740479 0.08774172729979635
0.0795180968152053 -0.06625303815129271 0.08749418446032903
0.07919459139090078 -0.06543648567310618 0.08800002951575363
0.078853837543777 -0.06449413057571411 0.08848631869360304
0.07869813422317343 -0.06373357540268111 0.0885332010816093
0.07860282328319704 -0.06333073783387931 0.08830786954709634
0.07849738142712133 -0.06307003365027547 0.08889610978556514
0.07834309125960445 -0.06222752624340309 0.08926570951512179
0.07828140997087567 -0.06148793776926519 0.08901707041380855
0.07813897354434782 -0.06062695794060034 0.08978087129902892
0.07811060016964803 -0.05966861815400676 0.08951372369476411
0.07800519810381495 -0.058720670471198624 0.0900925162465855
0.07799826666715208 -0.057890795927484494 0.08981018659427424
0.0780557861973078 -0.05709022666099422 0.09042131429879223
0.07814143405542515 -0.05619515179479096 0.09017205178666575
0.07820984632089771 -0.05524008209338004 0.0907385953835779
0.0782480081267972 -0.05432866122140415 0.09077026271003416
0.0782682799157224 -0.053829457000904885 0.09043846706515084
0.07830442345002939 -0.05359962776873803 0.09111422670711683
0.07837192041344083 -0.05269178237186229 0.0914750174180653
0.07833791807466017 -0.05191368876348725 0.0911615085997181
0.07851871810298565 -0.05119923706747102 0.09198136381255342
0.07854651865971286 -0.05075924563431102 0.0918352020663997
0.06489151903071995 -0.09068044158128397 0.09151411871150678
0.06522219630802659 -0.09025566696202009 0.09160214075559235
0.0657614534213966 -0.08955824114938485 0.09154807351891601
0.06638927258931542 -0.08869234083068929 0.09133238900834086
0.06706199988881303 -0.08782345583729582 0.09108567977155445
0.06758646440606668 -0.08712668311752779 0.0910712960520586
0.06864127551020503 -0.08556504308245691 0.08980035121023047
0.06818649531683564 -0.08620651901113471 0.09070018853515774
0.0687710355398975 -0.08529579513023526 0.09029783698480832
0.06920489138668137 -0.08470955996098549 0.08937980559777357
0.06985063751112609 -0.08374098249913063 0.08941795018891355
0.07050689608080055 -0.08289474558195584 0.08908120858728294
0.07091834243381326 -0.0823305699270408 0.08890735596585699
0.07122775562922987 -0.08187831523859693 0.08852837264563411
0.07113568695258686 -0.08198979867795306 0.08911933474115233
0.07156633629561736 -0.08143023234630525 0.08920101124958414
0.07209099538789096 -0.08075717095593424 0.08916099392654843
0.0726488007580788 -0.08009506600584662 0.08900362209401984
0.07314923836421565 -0.07948206172245556 0.08887072805076822
0.07450264881041045 -0.07833024861543197 0.08716469821967496
0.07404048500307593 -0.0786178117600079 0.08817063588194853
0.07507358653197738 -0.07771093925723088 0.08772925180479162
0.07575057453488891 -0.07712751246068661 0.08748192206974767
0.07621180693462566 -0.07676422260860404 0.0873216578668828
0.0768172812850981 -0.07647896927506077 0.08685462790885669
0.07631974281690451 -0.07652308034667292 0.08760812769375075
0.0769678470938064 -0.07594643228258537 0.08743085089912525
0.07749104616048788 -0.07539157549972297 0.08725770932890843
0.07796843754370689 -0.07484279160261695 0.08714687212835487
0.07853671804603836 -0.07444039301191417 0.08674948937092296
0.07912921448141019 -0.07428922972236512 0.08629556928462784
0.07860483961300485 -0.07412434560311863 0.08686991122574955
0.07881547815061604 -0.07371197484844068 0.08692750424188174
0.07899785883532519 -0.07320154546048577 0.08697535649028743
0.07905727298727942 -0.07278346974365393 0.08712364419477882
0.0799602691506628 -0.07240609525826144 0.0861893366176334
0.0793891471421454 -0.07239478238521502 0.08690357533155343
0.07979356096882977 -0.07206898229115087 0.08655700802070301
0.0797210047708426 -0.07155011996928114 0.08686673326957453
0.07950997399752469 -0.07083832259646122 0.08725251297101849
0.07986179936160236 -0.07048946457006945 0.08681045321868273
0.07965945109092366 -0.06983228809158874 0.08728192928326085
0.07966445476781714 -0.06932899010483909 0.08733273120485238
0.07981034869223005 -0.06915355627689114 0.08707993481638185
0.07955297631443704 -0.06889010531270538 0.08765218305278724
0.07942555728081431 -0.06823751233169123 0.08804385658058476
0.07944779728046843 -0.0677167711000759 0.0880184141322686
0.07957753399381769 -0.06752089074642433 0.08768205484507732
0.07935674120666056 -0.0671894252787546 0.08832558686118945
0.07918242388204326 -0.06652881231726315 0.08864081670061777
0.07919937304836226 -0.06605934933831181 0.08827507149321802
0.07890160773049043 -0.06527220820509579 0.0889271657835619
0.07866284868872242 -0.06436057779072972 0.08937221740166917
0.07862886900607288 -0.0637233002621903 0.08911388860067578
0.07837179371740818 -0.06284789392575102 0.0898268874085194
0.07824938792018418 -0.06192978522163165 0.08990474437704807
0.0782173820255527 -0.06148098332234577 0.08964403109356284
0.0781208667831869 -0.0612131697390031 0.0902867637330727
0.07806054974491089 -0.06041936958514921 0.09066870824307792
0.07802085744871982 -0.05950641284691937 0.09059972563625612
0.07792202542434545 -0.05855236892539498 0.09079299402829301
0.07795492904984473 -0.05790961097818247 0.09062825774872788
0.07800759187951233 -0.05720028720189368 0.09139252346711864
0.07811241996573098 -0.05624324621311376 0.09109138688247444
0.07818051644074112 -0.05532754858939958 0.0918119552361875
0.0782582921353428 -0.05437476156545146 0.09151800014747245
0.0783862681247005 -0.05335389613243098 0.09211740713143587
0.07847025450574342 -0.05244615837795159 0.09220645029386683
0.07843567080906363 -0.05195533100615845 0.09187074143614087
0.0785335497136497 -0.05171384429960965 0.09257617560514474
0.07865531996828556 -0.05098992428795009 0.09291514202970705
0.07866702382405082 -0.05067670404191796 0.0925244309479915
0.06514590271027183 -0.09042155756004629 0.09212651205678804
0.06543637805025652 -0.09001928324151692 0.09215438642772165
0.06603426096539376 -0.08929682570074193 0.09236315993474442
0.06666829769701402 -0.0883884369144633 0.09187328106893786
0.067190163183766 -0.08768102839334098 0.09178729725266023
0.06770753809726154 -0.08691885461861835 0.09164036216001199
0.06814933676581997 -0.08625509780216632 0.09160839959770611
0.06926203940115479 -0.08456561186739836 0.09030647694015216
0.06867672538369694 -0.08540192983215403 0.0912146388925244
0.06969269734051 -0.0839020487455412 0.09030085194312601
0.06939183204990185 -0.08433589210261465 0.09116209644511426
0.06992388119035924 -0.08360001349705717 0.09061081523055663
0.07012862854008921 -0.08331625947221784 0.08990759525097565
0.07064212383441394 -0.08266280577717397 0.08958077150799741
0.07087531971123649 -0.08229132866284063 0.0900860970614086
0.07153612138814222 -0.08142169569321107 0.09004488980356747
0.07210527421296278 -0.0806451373372347 0.08987317933057636
0.07263809494888468 -0.07997099039864759 0.08968679252225117
0.07321114980881202 -0.07926363331480046 0.0894674859863776
0.07372023388771147 -0.07869781100704282 0.08915665230351974
0.07431788758018257 -0.07815332212993154 0.08872956622716677
0.07379630089025144 -0.07850766492286824 0.08961406931721178
0.07506240234662528 -0.07750038513103982 0.08834332549863395
0.0743729244898799 -0.07789209353683144 0.0893259008502942
0.07569794578880068 -0.07700486899011344 0.0879219163867761
0.07521393899051446 -0.077156545709296 0.08881671872802063
0.07588118553940727 -0.07644801298230851 0.0885887583322518
0.07643010225960974 -0.07583371513752657 0.08836690375779364
0.0768947802854244 -0.07527439295559608 0.08820227118402608
0.07717453972842814 -0.07480451147026163 0.08816891213255858
0.07788535743720286 -0.07444069643455184 0.08748386661869084
0.0778230340565592 -0.07404578169406074 0.08789365029211961
0.07815669594130524 -0.0734743988206573 0.08786703985187631
0.07842511002890638 -0.07296955393655492 0.08783861595509479
0.07865279649319194 -0.07247545689335742 0.08776263139639452
0.07897692411967781 -0.07213946252110012 0.0875191405138011
0.07937876446826758 -0.07198265534376812 0.0871172321488498
0.07891059800698617 -0.07176556066791967 0.08788761732333274
0.0789884062547131 -0.0711063678875738 0.08800152801526465
0.07907246809316458 -0.0706062185340384 0.08793346186344589
0.07935085923386324 -0.07029899276565976 0.0876359557852208
0.07909886390319741 -0.06977683156560228 0.08834978702398584
0.07934049034764244 -0.06926794096406491 0.08797653796389557
0.07918865843005932 -0.06868861911481808 0.0885054237560966
0.0790213322546205 -0.06805643584464122 0.0890659366109515
0.07919427784088816 -0.06757372878343841 0.08870988043412045
0.07900605850864606 -0.06684226949228728 0.089283545730532
0.07894025199930635 -0.06621963681206625 0.08929837316103667
0.078994950230504 -0.06595993580266597 0.08894153400591659
0.07877330283792949 -0.06563965781602392 0.08960474297097636
0.07855787313218167 -0.06481095028984737 0.08999878769632152
0.07850914887834151 -0.06411379173634299 0.09001694865028771
0.0785205786269728 -0.06371686770499925 0.08973313783541687
0.07839255222756178 -0.06349711569377717 0.09040441241133104
0.0782218916862628 -0.06266547314833978 0.09090807299935358
0.07819862851672892 -0.06191148925543355 0.09058217855250154
0.0780265591247004 -0.060950815593334776 0.0912108284453734
0.07799337149213613 -0.06017655770715846 0.091286428848137
0.07801775038995466 -0.059894506373328514 0.09102484983224556
0.07791521992831127 -0.05944554052149177 0.09162678799108603
0.07789166946499541 -0.05863653355996235 0.09143416425695464
0.07792045168175601 -0.05802773763787249 0.09123373139517096
0.0779275360439958 -0.0578083988991854 0.09199177899120486
0.07801602090212223 -0.05696343817733101 0.09241229068308959
0.07810139593910831 -0.05627102125327117 0.09205194565997461
0.07815258547724642 -0.05540854798082355 0.09291206584349578
0.07828472184762429 -0.05430405606613826 0.09262482992175519
0.07839503814103553 -0.053399104344110424 0.09293794161956513
0.07851863966053896 -0.05252970534047213 0.09305491121682621
0.07863473187044567 -0.05145115083594252 0.0933554131664908
0.07871445222669285 -0.05093258561953241 0.09357771512992363
0.07874221799339802 -0.050657795384393786 0.09312587751763649
0.06552679525934146 -0.08999109237732983 0.09259098957291388
0.06588817924319011 -0.0895574160763554 0.09305070942595453
0.06616441016655318 -0.08915177390987174 0.09314295444211979
0.06615046483051264 -0.08923631133842473 0.09362936897974956
0.06639713691124098 -0.08886832778282013 0.09355428358642383
0.06673302882027052 -0.08836756866556886 0.0927510741675997
0.06733910620035467 -0.08743859685389262 0.09234930245156767
0.06778627381521701 -0.08678569307350952 0.09232009292490996
0.06828439603956304 -0.08601266415447929 0.09218464932461508
0.06881710762905102 -0.08519479638484012 0.092129125451639
0.06936622748997104 -0.0843888744889945 0.09217938408730188
0.07033136288340772 -0.08305343276157232 0.09030465885214034
0.07012207905227272 -0.08333769499865916 0.09126387975432058
0.07092945880996887 -0.08220321973143396 0.0910540605031989
0.07160375760354189 -0.08123463359373645 0.09091343313654568
0.07219827919554418 -0.08045460209511125 0.09043079990171314
0.07262883399249145 -0.07987736445773143 0.09044814766190017
0.07308913973768368 -0.0793029321107053 0.0901733300219164
0.07339287997618063 -0.07893231091423619 0.08976113281257547
0.07333083706954499 -0.07897043039934558 0.09035281494884355
0.07376110768628212 -0.07843275582045175 0.09032187948563734
0.07434964845447252 -0.07774390531926664 0.09007550416592455
0.07496747723797971 -0.07701862431041548 0.08979380638119545
0.07551256892376368 -0.07631614438315969 0.08951234610818636
0.07598258557444756 -0.0757082573366131 0.08924017830999359
0.07637072484161085 -0.07516448613971731 0.08913397793604051
0.07675578683285085 -0.07473923323752292 0.08881365801665694
0.0772532279525208 -0.07446864431974291 0.08827587590512286
