# .PCD v.7 - Point Cloud Data file format
VERSION .7
FIELDS x y z
SIZE 4 4 4
TYPE f f f
COUNT 1 1 1
WIDTH 789
HEIGHT 1
VIEWPOINT 0 0 0 1 0 0 0
POINTS 789
DATA ascii
0.0807205313603568 -0.07185239598926378 0.07959696277673955
0.080114794737581 -0.07110028922258806 0.07936560637486526
0.08020025664957434 -0.07058368589032085 0.07951253117367633
0.08018208534285362 -0.07012148073884848 0.07967802032107513
0.0790507657962296 -0.06886354752619303 0.07918147087384325
0.07968313811156374 -0.06937643367314379 0.07963740010939419
0.07906663530924915 -0.06862173560500764 0.0794523940887111
0.07884618754788346 -0.06793784241496849 0.07961810618701931
0.07853844432682738 -0.06698371339711942 0.07983962636222974
0.07773395926136709 -0.06590050388284374 0.07944969708227931
0.07749155380619883 -0.06511925799925616 0.07971878147640848
0.0765517912987952 -0.06384419800979126 0.07932297439976735
0.07632002894430244 -0.06301480229680216 0.07965885507196113
0.07601657698090111 -0.062055389398541036 0.07995904013345465
0.07503585283424442 -0.06064575651532063 0.07950502696055728
0.07476063074788977 -0.05964882489097382 0.07978559306927598
0.07443032518593336 -0.058605301022522364 0.07998296594285578
0.07405993865692145 -0.057847881927766916 0.07970402307114831
0.0741815336734193 -0.05756887613711357 0.08033066795337623
0.06434019242074689 -0.08658633755995226 0.07965836130372456
0.06484717644495724 -0.08616478606868228 0.07945835114880695
0.06525771430476948 -0.08564538591807658 0.07907894955870519
0.06525227263918552 -0.08598199038756629 0.07972914589649745
0.06569301340681151 -0.08509879544601678 0.07860513569101488
0.06606711121931813 -0.08515719840269156 0.07927198270315261
0.06718404763501687 -0.08419470132269256 0.07910031605384883
0.06836911167828483 -0.08333564792884052 0.07902810416575043
0.06949205714538789 -0.08248889120238728 0.07895599496401766
0.07062184277894672 -0.08168403424689936 0.07888948250733384
0.0712724295715807 -0.08100497077151425 0.07856327967476838
0.07151504155229228 -0.0806316330174989 0.07822284941378696
0.07190241677136687 -0.0806163176408942 0.07862961028328651
0.072663076996882 -0.08005765866619806 0.07848746090892561
0.07342003098958275 -0.07964905531342305 0.07864092683767401
0.07440481381775048 -0.07912018773722741 0.07874669251674411
0.07529674567983607 -0.07859619686226621 0.0788565294971519
0.0760816249156151 -0.07808636529115102 0.07893828282609874
0.0768726698244944 -0.0776348390798719 0.07903676110816137
0.07738435310110917 -0.0773068728363028 0.07868447770532612
0.07817212465523092 -0.07698260756527371 0.07891278216400575
0.07882846140550992 -0.07672982479025861 0.0791876199490199
0.0795273697698502 -0.07640380755850233 0.07875784029256704
0.07955550427154341 -0.07646117365962843 0.07921663465678262
0.07997228416119864 -0.07625063304188877 0.07904039800220852
0.0804732157940302 -0.07602039260792841 0.07912213801838065
0.0811030342524024 -0.07572898691252287 0.07946168908796766
0.08112733217927118 -0.07551008636394281 0.07915498613407299
0.0814864979762 -0.07522372926138518 0.07943826733820214
0.08163554168044353 -0.07496419655617027 0.07952265586302174
0.08184258154704036 -0.07477040832026706 0.07973840691769585
0.08141460988168749 -0.07431879525808686 0.07945554803076942
0.08181879916407017 -0.0744997653681936 0.07978100027764384
0.08165108213515673 -0.0741624615007586 0.07969594861875649
0.08179664891049157 -0.0737346192792799 0.07990968738419549
0.08125278886732068 -0.07303018309671407 0.07966293593436691
0.08143080086041952 -0.07258397671475696 0.07994649191399675
0.08126195029390271 -0.07201096906579747 0.08006128834025317
0.0807895405125166 -0.07137211274352713 0.07981529642799122
0.08082404050774192 -0.07083968806016724 0.0799898470550432
0.08055164532442859 -0.07013816494498672 0.08014228064704645
0.07997636724177244 -0.06935223787866036 0.08004783712048305
0.07938997689870236 -0.06883113761263468 0.07982068123036994
0.07969492980649222 -0.06876666224463172 0.08017199541131766
0.07934894476563062 -0.06796111334167444 0.08027352507616864
0.07899127076391314 -0.06714957223750616 0.0803953513110235
0.07828502534334834 -0.06622969716661295 0.08006431704921674
0.07815727087436923 -0.06563995889050307 0.08047060263940048
0.07729039161580152 -0.06433321990281471 0.08004467155308927
0.07703797215974406 -0.06345969229742787 0.08036547391784797
0.07669695092172892 -0.06250542976510565 0.08069902576174443
0.07563031505018047 -0.06100638318063279 0.08027217150352836
0.07521516946162053 -0.05978059990128839 0.08058149781982576
0.07460788490928931 -0.05858236660624334 0.08049350620463169
0.07423015469266034 -0.05793900930952719 0.08020565719399875
0.0744571149443063 -0.05799879676112212 0.08072574585016251
0.07445751763036824 -0.05763809689491364 0.08097079673178821
0.06383975516913679 -0.0872259846255193 0.08057786901171368
0.06432519092553136 -0.08683206959327101 0.08022359634962715
0.0647117872068726 -0.08646642835950881 0.07988811812616395
0.06481934174791547 -0.08657224616558135 0.08042490866132333
0.06573912721495201 -0.08587426305647161 0.08024027616143242
0.0667300917570835 -0.08504698483786342 0.08001824561816227
0.06777581801208148 -0.0842014922898252 0.07987485179157092
0.06892399927988266 -0.08335149477979194 0.07979388399148614
0.06994894746272619 -0.082525794117071 0.07954343784482674
0.07067937024091481 -0.08204276769365718 0.07948015701198945
0.07138025302107964 -0.08114145890503355 0.07889801726777017
0.07124924459326548 -0.08151075173143768 0.07926786981591324
0.07175531857295839 -0.0809904929885834 0.07910958734473333
0.07251462818271709 -0.08052266500440411 0.07921432359612832
0.07367054327305318 -0.07976227907615759 0.0793099453573783
0.07469996538608908 -0.07913502546444054 0.07936323982064117
0.07561344456066599 -0.07858808697806806 0.07941579243276095
0.07638154391739808 -0.07804234704065276 0.07947206525556434
0.07710060492941666 -0.07760984535889588 0.07952267959754872
0.07758790894106933 -0.07727961097992961 0.07921798609698483
0.07827651153230729 -0.07702886356510703 0.07953530993203228
0.07911217268390813 -0.07667709771370868 0.0796642176073516
0.0799148974844293 -0.0763919443179663 0.07984552374897567
0.0802624223266926 -0.07621816239293834 0.07947469572424454
0.08085080345288975 -0.07595713296934367 0.07971672206901705
0.08123799667460092 -0.0757727639587371 0.07982570513554106
0.08143825773423972 -0.07545371649960513 0.07956256287142682
0.08158906095942274 -0.07554628944872012 0.07997387848081584
0.08169820078269616 -0.07529307072638679 0.07981227886886327
0.08195445215248585 -0.07503498953852704 0.07995538917898828
0.08216052972620298 -0.07469305243059755 0.08006884133378211
0.0821636321843648 -0.0744406418927637 0.08008610674055369
0.08195274846292214 -0.07423300621485392 0.07996841110464832
0.08229720421209176 -0.07418187727623378 0.08021819340780416
0.08241115929231195 -0.07389336560469968 0.08036171942817544
0.08178893185867456 -0.07319477995653399 0.08005496489913004
0.08223556652084905 -0.0734655263334903 0.08040913539760733
0.08197376936253098 -0.07298452698834319 0.0803393143815144
0.08194287506898186 -0.07247785964074911 0.08056657244382974
0.08136097925754528 -0.07161839534138668 0.08029729050318193
0.0813210469270641 -0.07106421272025404 0.08057813715433852
0.08105226868854327 -0.07036611523577314 0.08067149291526737
0.08050566231179833 -0.06959892986222083 0.08043386526035798
0.0802684080790606 -0.0689328957239472 0.08063307414338598
0.07983348200798956 -0.06808212545740214 0.08086898164447853
0.07922156387082892 -0.06718335500084396 0.08081336593621909
0.07871474741789719 -0.06655404985407924 0.08053819090761873
0.07898537712879528 -0.06656177334620877 0.0809634842346334
0.07862929115196302 -0.06570661354240928 0.08108944058718169
0.07790248922351957 -0.06471174900109518 0.08073441186435754
0.07771917754321389 -0.06391919887686105 0.08112893945607158
0.07727139446567667 -0.06280256685841122 0.08139609068608054
0.07632407384218434 -0.061426866839859706 0.0810230413350564
0.07595946994923412 -0.06037712823315596 0.08146560377013022
0.07506885926274365 -0.059024617286224726 0.0810512989652379
0.07490059762908992 -0.05826968841977188 0.08145186008561141
0.07478495926890587 -0.05776660488914304 0.08154994203268091
0.06269085045431334 -0.08844507399729873 0.08193370231295269
0.06317792327057994 -0.08788686534483484 0.08143257426306548
0.06376377177449691 -0.08744625372971526 0.08107667151421792
0.06418305263510023 -0.087065989815004 0.08067152253411898
0.06432614841749525 -0.08715310441226153 0.0811564506031527
0.0651750145525906 -0.08658662324081806 0.08111455366172915
0.06625476672152023 -0.08584771887237158 0.08092218327158071
0.06724849580873496 -0.08504612893446456 0.0807393565091921
0.06826216644298516 -0.0842628219867393 0.08060824269741486
0.06895364606436297 -0.08362454751253764 0.08045995213931918
0.06954165119890018 -0.08305274405817141 0.08021632909590613
0.06923728670086625 -0.08353717972841565 0.08082057770569644
0.07035846523817792 -0.08248483533553783 0.07999547144432571
0.06996759349564799 -0.08298164003016235 0.08065844087044556
0.07115672946982902 -0.0818744381071712 0.07976972720125056
0.07087945189544066 -0.08233378273405681 0.08041673994128401
0.07173581952478779 -0.08127249382847639 0.0794788064103226
0.07188887990107656 -0.08144362821301471 0.08008663164736661
0.07300871388423778 -0.08053953823865181 0.08001994850450668
0.07408748024262306 -0.07977045024590057 0.07995936804716804
0.07506635898448838 -0.07914690543031297 0.07992377776760909
0.0759219125008955 -0.07855918595430857 0.07996228217269623
0.07670392001066904 -0.07796558915165978 0.07998724084064401
0.07730921235264267 -0.07756602331514215 0.07985670424699602
0.0776199346895352 -0.07732723881718978 0.07962151335760645
0.07777808657510026 -0.0773366262671955 0.0800330569445649
0.07858371527347727 -0.07698936370594639 0.0800846764110634
0.07930670061929912 -0.07666147256391313 0.0801783413799827
0.07988865433730614 -0.0764599452088114 0.08031458261343843
0.08049843044052275 -0.07615393298055574 0.07987972857120511
0.08044912510959036 -0.07619897020117886 0.08025594864771471
0.08085536037983289 -0.07602684605431094 0.08006908323947455
0.081292071572974 -0.07582519213257961 0.08013430676751843
0.08173562636003345 -0.07564156724780564 0.08038288833937512
0.0819418234289726 -0.07527372966827132 0.08008506959613358
0.08208525542464704 -0.07539309134098537 0.08043525607951112
0.08221983578216926 -0.07512157352269344 0.08031827094486535
0.0824813621717084 -0.07483527634529616 0.08051325982205287
0.08248136170100329 -0.0744761683760517 0.08035388969889512
0.08271790605246626 -0.07419847098340189 0.08061420673979044
0.08270726597582802 -0.07376995996951832 0.08069696233898224
0.08256777412417847 -0.07340823929797259 0.08072066399275862
0.08227271006378832 -0.07309827460237497 0.08060768975756881
0.08253580604417382 -0.07308810507856964 0.08086957488868686
0.08250398828948934 -0.07272156875295696 0.08105465453291023
0.08175260840574552 -0.0718016518580859 0.08072432384345622
0.08220583723633171 -0.07215682433860159 0.08109566793888241
0.08181427837745894 -0.07155615885084139 0.08098845136674977
0.08163251963328572 -0.07096377117421607 0.08118908338881545
0.08107741854198271 -0.06991963471101406 0.08091533959395562
0.08081978269464792 -0.06923806477686391 0.08118579916340013
0.08050868925789195 -0.06854779724757555 0.081526161106178
0.07966243162499623 -0.06751051587101127 0.0812997421728636
0.07939832788905302 -0.06662012401088577 0.08158003102029625
0.07882692695764663 -0.0656361023607269 0.08150305985576173
0.07833241253583745 -0.06497967701108344 0.08122856179458815
0.0785354607952669 -0.06492983048353358 0.08165235054086721
0.07814293432676327 -0.06393374914386335 0.08179035611936841
0.0776871754043198 -0.06294345777370701 0.08192901325329408
0.07696058309630155 -0.061859001460050744 0.08166629829476979
0.07685593400262532 -0.06125928821018285 0.0820909067884239
0.07545730141150635 -0.05932869818285584 0.08163821445860345
0.07606610303361801 -0.05994929294650811 0.08214479294877541
0.0754582612556975 -0.05892087185153696 0.08199757256869686
0.0753701395607208 -0.05820120829911416 0.08233825036684163
0.06261138573702284 -0.08879704641815012 0.08243195522604876
0.06267119952083332 -0.08918353635462689 0.08312086408876658
0.06287704676417696 -0.08870092742184021 0.08262857398497515
0.06288553772257004 -0.08834551644638683 0.08206814364598833
0.06355212984489679 -0.08777565522208707 0.0816767572130378
0.06433301231221776 -0.08753212029765493 0.08203165627429901
0.06566280809739652 -0.08668741379770997 0.08185018608107823
0.0667638286194511 -0.08586954457225388 0.08157857141182354
0.0677250406012027 -0.08511975011599175 0.0814241840759662
0.06840049325282135 -0.08445309666265992 0.08119022198199904
0.06873867415680551 -0.08398193307468191 0.08088108764391347
0.06884041571936282 -0.08410575742376697 0.0813431376960918
0.06950446231402681 -0.08358729105757128 0.08133001950858852
0.07039043618415156 -0.08292717198645756 0.08115885379574993
0.07134096036346768 -0.08217331185997935 0.08096342521708375
0.07234266593565251 -0.0813540275715178 0.08081601087582659
0.07354185826758611 -0.0804216323378845 0.08081664872464057
0.07454913593614897 -0.07963101891882626 0.08043351730700112
0.07532425629454077 -0.07909574814250167 0.08047178555167504
0.07619541223123881 -0.07848158802709651 0.08052382515501916
0.07685455765606172 -0.07798461085749091 0.0804007210993316
0.07721513942153069 -0.07769603946776092 0.08015882233915886
0.07736823649485415 -0.07769041366455949 0.08046020728851
0.07799742278477925 -0.07730402070631204 0.0805016878944319
0.07872794037283092 -0.0769690925728775 0.08057365771396341
0.07941319898328399 -0.07664844604060626 0.0806304248930238
0.0800739205357996 -0.07639000464082124 0.08068250652160577
0.08064850674532448 -0.07614648885460823 0.08068116031413841
0.08100703375402177 -0.07601252928064543 0.0804208829391697
0.08149334339186404 -0.07583346867492641 0.08066475052137047
0.08203573151315831 -0.07562025265728207 0.08076666476140379
0.08240294981043102 -0.07538086752292245 0.08086564381389409
0.08245438883617714 -0.07512600319556294 0.08067700653875255
0.08275512117452298 -0.07494272079132723 0.08096302205814024
0.08274970167125942 -0.07450596722901681 0.08068648167200382
0.08292809124904889 -0.07463618653658875 0.0809775832983387
0.0829644844684944 -0.07436652397833908 0.08090594099482036
0.08306324575620576 -0.07403363862439666 0.0811292726338217
0.08285918176460791 -0.07352706925725935 0.08102563853798485
0.08283016529497342 -0.07315004964150164 0.08128380699782865
0.08272834431281968 -0.07260817745103049 0.08151842599062399
0.0823910240546984 -0.07207418209602301 0.08150206901083284
0.08208287876444581 -0.07169746759251257 0.08128555188789127
0.0822354675238563 -0.07161595743009805 0.08164498405282954
0.08199336016409942 -0.07101785920075872 0.0818125446800269
0.08148503845585704 -0.07022395724200829 0.08150061025401023
0.08123470584291173 -0.06956635419738968 0.08181477395252615
0.08101987139484519 -0.06886691066884391 0.08212704794807942
0.08026969922599726 -0.06781881703855816 0.08187691329191173
0.08000528845892906 -0.06701823503371761 0.08228772653981054
0.07918853098296424 -0.06590179589590732 0.08197199767717007
0.07890262204757045 -0.06501279915295538 0.08229424851755783
0.07830952521482813 -0.06377928012166 0.08234785299962467
0.07780363879415456 -0.06290149243945356 0.08234929085340337
0.07739900977315406 -0.062257655370490175 0.08210408053787878
0.07754002686005937 -0.062167390730351976 0.0825530504075458
0.07695839942359625 -0.06089261818237282 0.08269174761933828
0.07625934049106795 -0.05982430123945307 0.08264536202704849
0.07579187405667225 -0.05914754480998078 0.08241033729220082
0.07607387320951448 -0.059157674270308436 0.082957028811114
0.07578368760603578 -0.0580652667339604 0.08319753742323824
0.075452782208981 -0.057294139523831146 0.0830681029026105
0.07559126547785674 -0.05673292174171643 0.08350254541525644
0.06246157222232546 -0.08956402587517781 0.08351749219960396
0.06282308192595407 -0.08934994499550937 0.08362903550258033
0.0633249564610548 -0.08821967880339285 0.08232255424751282
0.06347265609701 -0.08860172509009141 0.08315062230241577
0.06498997623881668 -0.08761346158717592 0.0829507603328886
0.0663574141788069 -0.08661358378389725 0.08253552555809278
0.06716032219926144 -0.08583167970865252 0.08207792170942212
0.06774775086979995 -0.08543598594498829 0.08214747509231826
0.0683174598598431 -0.08477928734397805 0.08173300128220418
0.06889513647788666 -0.08441903144720878 0.08204397049090568
0.06985875552839671 -0.08362321567810266 0.08192149201940496
0.07077059435261907 -0.08285231893387436 0.08175012780662433
0.07168538413149825 -0.0821226855265758 0.08159425521984558
0.0726209895567357 -0.08135147095753087 0.081532097502773
0.07329592323714043 -0.08079231925075378 0.08148899135284254
0.07381001522220128 -0.08034523168162677 0.08139883099097112
0.07349654996294366 -0.08070273066286042 0.08193915880502332
0.07412411301854398 -0.08014092192843772 0.08168655039865541
0.0746146895400325 -0.07968632021863145 0.08112121136125042
0.07552082912424135 -0.07899631576446146 0.08094247646367311
0.07610707459522052 -0.0785636359177117 0.08107547771250496
0.0767702174847898 -0.07810235770788997 0.0807778041316672
0.07737722710196017 -0.07772324227104477 0.08091503329382795
0.07803351247870562 -0.07732763677658452 0.08100753921936776
0.07877186933260416 -0.0769677773880215 0.08107121530804252
0.07949487108642797 -0.07661349616556809 0.08111579607517799
0.08026534343710766 -0.07631886461743694 0.08114430242663168
0.08081872727059453 -0.07606322246705151 0.08097558752850491
0.08106421171735376 -0.07598239252015311 0.08074730282390871
0.08123218515656423 -0.0759478607911477 0.081066770383679
0.08179922609054174 -0.0758203139343197 0.08115666339005786
0.08236560622536208 -0.07558523948403553 0.08123995722338812
0.08262694599921723 -0.07535238926395617 0.08117879797033753
0.08262717104820502 -0.07518732643332182 0.0809933410872051
0.08282899371347831 -0.07514943681235298 0.08131247561791831
0.08306035962554309 -0.07484186761650297 0.0813739712474124
0.08314075523732306 -0.07457249737313706 0.08130831720237408
0.0831088120826171 -0.07439021787855674 0.081149901853948
0.08327768359523452 -0.07433043647324808 0.08150745694297591
0.08334653968284796 -0.07396546784179892 0.08164381634752395
0.0831324747613888 -0.0735986432849936 0.0814567475136317
0.0831117308922028 -0.07316084879863619 0.0817424719839814
0.08306563443300144 -0.07268176748446656 0.08201839218123862
0.08268894157253887 -0.07215664367297672 0.08186047174407332
0.0825140315115958 -0.0716366836246026 0.08209249997430149
0.08228939391263512 -0.07106916393833233 0.0822870373117157
0.08181361889294113 -0.07042816610044618 0.08206193081432103
0.08171652647813331 -0.06984618034774898 0.0824007721147312
0.08139130848765092 -0.06902791596953271 0.08260135935331665
0.08077214181691307 -0.06816419078672675 0.08241815224623908
0.08063615061754749 -0.06770702399618354 0.08281334350690152
0.07956676873786478 -0.0660656978326072 0.08245661710776102
0.08005287405196375 -0.06664593444340756 0.08292550405070141
0.07947467532367997 -0.06562499987379154 0.0827762363366114
0.0789269843455486 -0.06456196657256785 0.08293401111721384
0.0781830438153075 -0.0631989319708487 0.0828125095982117
0.07784138526969217 -0.06208341637366579 0.08326210704452737
0.0771561945862527 -0.06082225080025793 0.08321194721091181
0.07662046388490092 -0.06010936494110103 0.08300883572580506
0.07683774717103978 -0.06001302981107744 0.08350694429998215
0.07632204640844738 -0.0589333949279063 0.08355032180098575
0.07619994372418423 -0.05815668287259241 0.0838107318689133
0.07575813734623034 -0.05720871818804595 0.08358713126818292
0.076043089869137 -0.056640501429664626 0.08414449315416037
0.0761687466003557 -0.054959115796049264 0.08482127808935648
0.06339442054188753 -0.08929827831996694 0.0843456862380271
0.06423065659302568 -0.08853986518411172 0.08388861549584609
0.06502837817779526 -0.08799697117831132 0.08376899735688935
0.0658036696796299 -0.08736992764661707 0.08344241831228731
0.06540148908494144 -0.08798185525287514 0.08423498776344647
0.06659109536418764 -0.0867727383259107 0.08321290178054787
0.06639998594499077 -0.08723347199434549 0.0839767618921482
0.06705914865218476 -0.08651359536847468 0.08342490500556056
0.06718747089213141 -0.08609989176979298 0.08274792984275195
0.06781991548792982 -0.08559981782864809 0.08265819314793674
0.06823712486676005 -0.08510969129968206 0.08229664560308511
0.0683184879356773 -0.08533237393244487 0.08294508230622062
0.06931204547516005 -0.08440626121477764 0.0827582665192204
0.07023388709572935 -0.08353639123191425 0.08253477377304562
0.0710875130192346 -0.08278551195120767 0.08235206525505338
0.0719294209650853 -0.0820781318469501 0.08225199897556744
0.07257168336816941 -0.08154609206996545 0.08209202767503952
0.07296614183832908 -0.08113198025936787 0.08187532143711516
0.07287110744314414 -0.08135011728811199 0.08238759205352789
0.07335651825503359 -0.08091269443591435 0.08250411980499078
0.07458042785105784 -0.07972703040223714 0.08172627693623136
0.07407682103085059 -0.0802236068418068 0.08230644933471662
0.07477487672292184 -0.07953344640148027 0.08204855891513801
0.075340023464917 -0.07911844196708986 0.08154339705313145
0.07607229650134259 -0.07855532893874376 0.08150276302426263
0.07664527171023569 -0.07814004622754621 0.0812411721359844
0.07720232506602087 -0.0777730532372263 0.08140256435578541
0.07790571315636889 -0.07735649361363853 0.0815083076659226
0.07869457519056546 -0.0769185171907236 0.08157005022245707
0.07947581941799046 -0.0765446508438973 0.08159208247527357
0.08014894850612209 -0.07627700428594247 0.08164249465495539
0.08076779474355221 -0.07611391591060811 0.08136147500833443
0.08126754789272422 -0.07600064487292413 0.08156175384198944
0.08205903498890506 -0.07581692493968568 0.08162810824428778
0.08252855954333843 -0.07562854891523128 0.08159277407574596
0.08273881240250985 -0.07541174688853085 0.08148268920320709
0.08301793041147752 -0.07514947200189559 0.08179930164866837
0.08325313488313492 -0.07478687149010815 0.0817030734091331
0.08325540385925477 -0.0746181347810443 0.08155221188769746
0.08339301399364128 -0.07453969778823334 0.08185154758652415
0.08345042789915029 -0.07423105677166279 0.08184772710784227
0.0835092861119225 -0.07394410484605834 0.08205633008686476
0.08335757076761591 -0.07358761487829606 0.0819099757451858
0.0833591860327105 -0.07315309605438194 0.08217937080918297
0.08332623238273333 -0.07267578960666041 0.08242902814905101
0.0829769983984455 -0.0721783787379738 0.08230706390143806
0.08279090155752038 -0.07157273231182505 0.08258777767867156
0.0824427409431287 -0.07098529763358441 0.08260109786265991
0.08211252885639607 -0.07059000395851775 0.08243870038037072
0.08222922034315247 -0.07047153666969315 0.08275413358190686
0.08185853696735376 -0.06968653656031241 0.0829632694945762
0.0814881649085562 -0.06894122810095278 0.0829452973492189
0.08113880032290713 -0.06844931390602035 0.08278299518730334
0.08115361203861676 -0.06833949931980071 0.08311111949182025
0.08064514105814001 -0.06753614315791975 0.08328010647154695
0.0801919755389096 -0.06663113694479302 0.08352812289438998
0.07962285928037233 -0.06569888928130486 0.08327780918682713
0.07919262794066831 -0.06480810389636074 0.08364938731403908
0.07861180360792287 -0.06361391039990812 0.08341190738234741
0.07840515863292351 -0.06289658132938869 0.08382939983432817
0.07749343830471894 -0.06111874878677869 0.083595977498488
0.07796297456865649 -0.06181347716434371 0.08407739063714612
0.07742449104312694 -0.06066090636951134 0.08398568107524185
0.07690490237523225 -0.05936028995478593 0.08420261806069079
0.07649728132690924 -0.05818461062426248 0.08429367563020448
0.07616360159711057 -0.05746504142494029 0.08405559171409042
0.07650773892993182 -0.05745166524358163 0.08454949232601033
0.07648430150649713 -0.056477378275424144 0.0847980729191403
0.0762313739749018 -0.05556588424486566 0.08471564245191306
0.07643051880193155 -0.05501254623768163 0.08530030295824216
0.06309438582673986 -0.09000571133753096 0.08529149853262581
0.06341579918288674 -0.08968865659155845 0.08512680608478325
0.06399816772023248 -0.08909642467296054 0.08472505612833646
0.06380941743104207 -0.08961888098614876 0.08546183313489267
0.06469654679918983 -0.08848785873520083 0.08432858520804991
0.06474987017395334 -0.08881635410022479 0.08503849912669155
0.06572903299353781 -0.08807394590811139 0.08485516738660838
0.06658124123773874 -0.08747075362334907 0.08469703832763617
0.06758393388787991 -0.08600500792687032 0.08316444943269603
0.06752769971864606 -0.08643730438316125 0.08405505914071938
0.06873690762081842 -0.08524093793840859 0.0836854259291849
0.06977809550820357 -0.0842155154246483 0.08348316276161294
0.0705881012166373 -0.0833600223518016 0.08304494777054744
0.07128113434220523 -0.08273325877408919 0.08303555444860627
0.07191804770355276 -0.08216878853803466 0.08279222580527637
0.07234180182093462 -0.08181633288056722 0.08247806708437672
0.07232406899394307 -0.08186343754353066 0.08289890981388393
0.0728289432776023 -0.0814178645111103 0.08298175169176543
0.07339439970503722 -0.0808627220203668 0.08300634645150404
0.07395394772353378 -0.08035558343525827 0.08300928956739706
0.07520190630529723 -0.07916676645785535 0.08207651779741
0.07474021404038853 -0.07958548540726328 0.08266046253495972
0.07545456342041404 -0.07894184832240024 0.08228788732630196
0.07575676134618267 -0.0787497854576618 0.08187750372558707
0.07639106175750471 -0.07824974317082045 0.08170552868181115
0.07674658731408164 -0.07793760412067031 0.08203118946841095
0.07770429154402823 -0.07733380495968935 0.08211142126095397
0.0785418083041494 -0.07681534151191492 0.0821249378380748
0.07941569708085086 -0.07642056070546148 0.08211713368198154
0.08011757730267355 -0.07620050686350817 0.08195462249107635
0.08062275660903155 -0.07615521914236248 0.08171978143108738
0.0805452549367068 -0.07613136953993936 0.08207762890920625
0.08144494333064196 -0.07597122067723518 0.08206584608422277
0.08206789802225477 -0.07585314127017556 0.0819928985957512
0.08244741202820062 -0.07571473799857109 0.08187631323501805
0.08219701176985891 -0.07576205960972276 0.08216472854675062
0.08273275088421825 -0.07549255039779967 0.08177263101761052
0.08264590024849183 -0.07550477425080035 0.08212458618770051
0.08293353725662873 -0.07520474778658956 0.08223019771568695
0.0833003230232941 -0.07480795417498 0.08194332304873189
0.08319573328895861 -0.07490781408119666 0.08218503634981347
0.08338315204397818 -0.07465429759452771 0.08211228147565627
0.08345086524180582 -0.07434892095181037 0.08224929635405694
0.08352372061110669 -0.07389485340576478 0.08245558625478973
0.08351851873113798 -0.0735535467924304 0.08230354125815971
0.0834940965330401 -0.07309976787071429 0.08256840697157228
0.08344805099822145 -0.0726228861339776 0.08278061059057894
0.08323790405967077 -0.07217818587143122 0.08268155796158819
0.08310535859495084 -0.07166138482177542 0.08304057104959844
0.08264325484830787 -0.07106327889097895 0.08294223530621284
0.08237938090447959 -0.07042444895869913 0.08321171357574936
0.08199972082123257 -0.06972195111191752 0.08347331845059727
0.08158361429710358 -0.06901977998288973 0.08330070653693622
0.081130920716736 -0.06826325925806008 0.08356652181943704
0.08065050125350488 -0.06742507210631003 0.08383446958969865
0.08018137041242043 -0.06655307171530893 0.08407186849843841
0.07973508710578919 -0.0657768288661216 0.08385646979279578
0.07937150421074457 -0.06498113207614385 0.0843118887616474
0.07886933780454815 -0.06390209280063941 0.08403722987959164
0.07856106576119616 -0.06296335319984422 0.0844249017865273
0.07824035465793049 -0.06192821349817379 0.0848333622958069
0.07767896586274951 -0.06077036245364128 0.08457103483008718
0.07747602482906743 -0.05974921220653211 0.08503108246528603
0.07692939286067917 -0.05850561138567538 0.08482673211050781
0.07699350614585498 -0.05746410303342833 0.08525457644232041
0.07671355365183481 -0.05639021022416732 0.08530609913027948
0.07646111386519087 -0.055739296302151096 0.08509348406367738
0.07669970073151622 -0.055742411890052315 0.08561599595000548
0.0768020668169721 -0.055075314261270956 0.08595547111022264
0.07675256870761585 -0.05430702533043409 0.08619180286249761
0.06305856651943556 -0.09035795592834864 0.08585789885437496
0.06324858424345431 -0.0900703362121433 0.08561817024373751
0.06348095957818316 -0.09015850398755348 0.08607823079747377
0.06431338347901525 -0.08954803807905933 0.08596472122292799
0.06518314776051118 -0.0888264347381999 0.08567628813901543
0.06605600557563997 -0.08816906706259975 0.0854718581259223
0.06700388534505448 -0.08741684758256175 0.08519908702576504
0.0676934639558311 -0.08673349164424794 0.08490681089191583
0.06832443524845186 -0.08597894342395603 0.08457319065160579
0.06800117905856586 -0.08661911277373993 0.08532926592313526
0.06916866415743114 -0.08508125911683563 0.08435262302535129
0.06867697728213552 -0.08582726343669363 0.08516333087300179
0.06983907545677229 -0.08435732281188428 0.08425140961384739
0.06949103691061169 -0.08492212369046928 0.08501788165376979
0.07011713163799829 -0.08412209602189746 0.08458234116146135
0.07054529065406304 -0.08354790549532665 0.08384558291323599
0.07116182431969939 -0.0828483219994298 0.08367578834859928
0.07171699507711767 -0.08235492377824724 0.0833051726366642
0.07213238548496104 -0.08198353254327911 0.08351830923616485
0.07266903727278072 -0.08148469276724284 0.08365717652720565
0.07334789273440401 -0.08087840565689994 0.08364147710290937
0.07404708026115167 -0.08020755999657557 0.08350517043378156
0.07467246561930711 -0.07956353764217665 0.0833775731761006
0.07598054990458906 -0.0785041346687211 0.08211575085033586
0.0755802623566171 -0.07874602335075875 0.0828130917961082
0.07661289106846746 -0.07788247511623422 0.08277802159432712
0.07749303191942906 -0.0772245648218971 0.08275036792706462
0.07832899532216032 -0.07667054943564092 0.08274422548003962
0.0792172655129068 -0.07638426351876224 0.08250580115766319
0.07982591010702386 -0.07625705182226734 0.08223121106396454
0.07971457804400668 -0.07626430175463454 0.08256759857279258
0.08048584218908221 -0.07606809039002362 0.08258845101895783
0.0813379265267225 -0.0759680279838999 0.08238461165864883
0.0818190135725053 -0.07590569875746157 0.08220160946158037
0.0816868108592888 -0.07584361255030088 0.08243566929562426
0.08209271646857523 -0.07560177049511461 0.08248301586192959
0.08252466007759858 -0.07534926465287428 0.08255210975408671
0.08291306753718697 -0.07501394999524391 0.0825541327071822
0.08319347618903827 -0.0747948561621566 0.08246647161033345
0.08333514350331529 -0.07464453152847464 0.08231171876379137
0.08323091856377735 -0.07452930391246315 0.08260461078357391
0.08334681274759402 -0.07413178108196478 0.08267056597932405
0.08345474013050254 -0.07374069630552645 0.0828105179615981
0.08354077507338144 -0.07346809334222865 0.08269678785446832
0.08346300820229068 -0.0729293334551884 0.08306813394897587
0.08343363706650168 -0.07245839948085218 0.08309205393804969
0.08337193860468761 -0.07220813087225868 0.08294773419544757
0.08324560604121779 -0.07200905216631916 0.08326805956764609
0.08301816019991991 -0.07142584940233744 0.08352545176496289
0.08280706976702268 -0.0709842619817142 0.08338502664622247
0.08238367025398247 -0.07032308464897069 0.08369732477658318
0.08193502514655046 -0.06959977305264625 0.08399532292516508
0.08158577462102984 -0.06896211646630825 0.08378558915204468
0.08106581698743634 -0.06813182778257085 0.08409723884834663
0.08053015201943614 -0.06715380491693494 0.08445850089093536
0.08003412953155262 -0.06632848534554993 0.08451519086434109
0.079767813288988 -0.06587961276999102 0.08429738921162437
0.07968321480207644 -0.06562852120758018 0.08476696752607836
0.07931494512472437 -0.06471165138312747 0.08497589292958804
0.07896753617402892 -0.06393372165213951 0.08469013524330966
0.07872569940371163 -0.0630168565052583 0.08516765152587358
0.07837330123285131 -0.06193728902848796 0.0855360580289176
0.0779487482261141 -0.06090844083129001 0.08529551539926614
0.07785284148087787 -0.05995338091839424 0.08580050742178097
0.07746461195958693 -0.058774900520047184 0.08553927517092166
0.0775238111788459 -0.0578596006826257 0.08603515724896843
0.07709042246600793 -0.056703215248050234 0.08583311408746137
0.07713015400910858 -0.05587001100318809 0.0862603470810862
0.07712702824256382 -0.05488531703978152 0.08661318447027533
0.0769645295476888 -0.05390302393287341 0.08686505106265086
0.0768096924010932 -0.05364952259813758 0.08659108675672421
0.07695087437849295 -0.053294825655088085 0.08695808571593132
0.0630830675543849 -0.09048452231500925 0.08609910499315802
0.06406804908054715 -0.09008034095609191 0.08693178867819196
0.06475342975241263 -0.08945144410834556 0.08642374957393295
0.06544561221454852 -0.08889367920252336 0.08630347714759455
0.06635786672724249 -0.0882369825175663 0.08609684470284447
0.06709966454523074 -0.08763980411285732 0.08578985132231386
0.06749627246284513 -0.08716571634901374 0.08543299499853156
0.06749766238807008 -0.0873316785361024 0.08604796436584512
0.06821494507472997 -0.08655452695288343 0.08592715032979771
0.06885722975557428 -0.08576304247238584 0.08580173509376823
0.06940860442541699 -0.08511412622508165 0.08575374348720495
0.07049214136449826 -0.08367361859023373 0.08454847711700324
0.07011677765972628 -0.08420043423681339 0.0853013564111058
0.07071108886830117 -0.08343398154833512 0.08481047935855661
0.07091582032573171 -0.08314456366543484 0.08423496711672712
0.0714569331914494 -0.08256883296978113 0.08395129762410022
0.07178268539220667 -0.08228902767378146 0.08440470410212804
0.07256022021028885 -0.08153951278185996 0.08442215427096772
0.07327478593957776 -0.0807858817935942 0.08432590050463303
0.07405128413713247 -0.08005931004529468 0.08416452164357724
0.07482334761281674 -0.07927665247434436 0.08388463468388671
0.0756592739197101 -0.07847574883587198 0.0836236191145759
0.0764772524847819 -0.07774337556334099 0.08349070916473099
0.07718888423555216 -0.07712079688532292 0.08344055191218956
0.0778104406089845 -0.0767178393399763 0.08342313280198999
0.078745936080782 -0.07644687697393338 0.08296221985024826
0.07915424178799883 -0.0762834763402609 0.08323647920668716
0.0799804800098078 -0.07610178929699417 0.0832369521214361
0.080943871803252 -0.07595067647825088 0.08275566864344888
0.08134439145514358 -0.07572791205931542 0.0828646749939326
0.08177019531716043 -0.0754484234498636 0.08295704394539163
0.08224720608918056 -0.07510683417146514 0.0830189398118532
0.08273900509931088 -0.07486538971891595 0.08284598859893258
0.0830466404225398 -0.07478208445185543 0.08266630313320224
0.0828593237489796 -0.07463006720686763 0.0829276320111666
0.08299305418367445 -0.07429430483271666 0.08300954740043555
0.08315796603571694 -0.0738736304602319 0.08310056463340601
0.08331485422056414 -0.07356555818788355 0.08305126431126389
0.08345572086473052 -0.0733996937934997 0.08296981435031654
0.08321715844222569 -0.07318699360297011 0.08331360265421864
0.08311805781928881 -0.0725766761767462 0.0836825346787408
0.08328555276760552 -0.07235009847518746 0.08345853835290061
0.08296880354868492 -0.07173686705265346 0.08377771498530075
0.08274654312319718 -0.07115315741727517 0.08396060804490815
0.08268817057028295 -0.07079783389152504 0.08385361018906151
0.08217625794219556 -0.07011248105111213 0.08416407455329636
0.08169803622192473 -0.06935911776268863 0.08446997994080123
0.08143571395551857 -0.06879736413864772 0.084311452989193
0.08094427276621212 -0.06797145874200987 0.08468155628747698
0.08050499759853824 -0.06712802550375425 0.08509989223556311
0.08007784473236523 -0.06633966785013169 0.08497706618041431
0.07960820827853397 -0.06532529073896903 0.08547841220846666
0.07922180601072665 -0.06441756897148672 0.08543793495810711
0.07906284534931231 -0.06394597865206139 0.08518910181194504
0.0789939704264636 -0.06362149980136518 0.08572866462316149
0.07866759834937025 -0.06266659517122314 0.08581950229507428
0.07848060127651049 -0.06190869022588538 0.08617288445640518
0.07819042886485685 -0.061026016978425926 0.08598604147436739
0.07811600580461912 -0.06018023944799669 0.08661472947877596
0.07784003687136735 -0.05899152542306665 0.08634454115571279
0.07788135111137387 -0.05802405158288894 0.08679064644565472
0.07756112681313046 -0.05694573005830523 0.08651893894412918
0.07759339039775609 -0.055986581817031804 0.08703795195408245
0.07745738031972954 -0.05499853648078932 0.08715091060767799
0.07720637220423467 -0.0544544419508534 0.0870188477684854
0.07740153530691851 -0.054252056500084855 0.08747380459414013
0.07716379279969633 -0.053313647123623596 0.08737707559583127
0.0771092516282147 -0.05293119901992039 0.08731582061665555
0.07737200432470497 -0.05274001244269208 0.08787587814625981
0.06383485677309766 -0.09052532175696723 0.0877684891507758
0.06407225937474385 -0.09032693330721034 0.08772676561429721
0.06407241422158758 -0.09048893880616315 0.08822234953403406
0.06446414148912592 -0.09013766484385194 0.08799616059210726
0.06474139095427091 -0.08968546340254767 0.08718147377821328
0.06563548030812025 -0.08896240089850202 0.08690128807748894
0.06635545192548742 -0.08847717833798914 0.08670560861668572
0.06688628240445996 -0.08798077691788113 0.08629738684908415
0.06680670367562362 -0.0881512299756257 0.08698634293669154
0.06769711074004627 -0.08725576724472478 0.08675860272640185
0.06841206092153714 -0.08645583771806045 0.08656047835578073
0.0689758645668002 -0.08569021578486119 0.08644078588540123
0.06955328861781035 -0.08492761469536692 0.08624946623268702
0.07010977172005353 -0.08422665213805744 0.08608376752579722
0.07114028479699482 -0.08293048434456025 0.08455811976659669
0.07085734532976479 -0.08329063538086641 0.085428539213958
0.07170796821941984 -0.08230603321301994 0.08534528051738603
0.07245331639974187 -0.08147655069841667 0.08524577924285387
0.07320174198046255 -0.08067260352855711 0.08511855691172768
0.07402993006783298 -0.07984632049474312 0.08488567814747448
0.07483726022761855 -0.07900512515226445 0.08455061182050158
0.0755855741455699 -0.07827346460209006 0.0843058538944626
0.07624447121792391 -0.07761629444202076 0.08419674271282428
0.07694228962305293 -0.07707729597639501 0.0841111255109042
0.07759625641762942 -0.07671136738464542 0.08388152222812191
0.07824740008851652 -0.07651966721629229 0.08349942564986315
0.07794899912863426 -0.07656460737418827 0.08407210770620972
0.07887590283207467 -0.07630151946938134 0.08392280871256087
0.0796402789187888 -0.0760847278346921 0.08382290124428844
0.08052547139258731 -0.07591744011459461 0.083312817935435
0.08076119947424897 -0.07564739640008762 0.08355137262137637
0.08129740875083054 -0.07526867859417415 0.083569244395918
0.08161235126099192 -0.07489839791843776 0.08363606774827599
0.08235675213434879 -0.07476952148548194 0.08324009260186142
0.08246286400763862 -0.07444380302194208 0.08338297111112257
0.08257287671668796 -0.07398604029740463 0.08355052988560524
0.08287458169137553 -0.07366358814499385 0.08345118857378774
0.08312583227367712 -0.07354902432647356 0.08327880397336301
0.08287061597909294 -0.07331139563538278 0.08362097887330369
0.08285048861642517 -0.07285177376699388 0.08386136452009195
0.08269346374128646 -0.07239945208020655 0.08412629195475413
0.08303085097357236 -0.07210863302800197 0.08382976687676058
0.08262493760902999 -0.07200225382904499 0.0841306294440871
0.08269081923529475 -0.07170460800103354 0.08405591674488436
0.0823167918567645 -0.07107806988517584 0.08436201219638127
0.08229344713340736 -0.07056010092583664 0.08430106210347149
0.08174613466772272 -0.06984014044921812 0.0846493890044056
0.08133854558470212 -0.06908824700935151 0.08500991197446355
0.08119808076461986 -0.06856916146511847 0.08484733171711249
0.08078966790400338 -0.0677684869321926 0.08524903283565659
0.08040169480281688 -0.06700680182190447 0.08561392057019251
0.08006250176265069 -0.06636518837466807 0.08553387890277438
0.07979195864752325 -0.06577725920192287 0.08603679488745175
0.07923246324061753 -0.06441581059184101 0.08584441019089951
0.07937137226083568 -0.06473992508605676 0.08629890522973689
0.07908451918248623 -0.06386703383787219 0.08623828706651122
0.07877678304285675 -0.0627795904938578 0.08649336024330657
0.07852209450973426 -0.061725199384862844 0.08667331127789714
0.07833633971179253 -0.06116050846980042 0.08649740004794758
0.07835437229670553 -0.06095056765968928 0.08702648849526302
0.07821617378108209 -0.060063882694381836 0.08738856109589666
0.07808051196423885 -0.059024088461162215 0.08728624515032304
0.07804140391459115 -0.057999595651356886 0.08738780711613821
0.07790596618941978 -0.05716863408923505 0.08721989007655102
0.07801643806701318 -0.056510113993079834 0.08788035682123682
0.07779036546098363 -0.055362120396879634 0.08768735785456097
0.07785423617759389 -0.05457262786709796 0.08823273725474791
0.07755447640613734 -0.0534840186093502 0.08802691375326323
0.07770381924245695 -0.05275182026132959 0.0885946227485974
0.07759108304625773 -0.05226706760307293 0.08848827200039482
0.06515581517242158 -0.08949590406333968 0.08773428293270376
0.06474775546376556 -0.09012418185569149 0.08875919360708123
0.06594143104024051 -0.08885463296835212 0.0872930788363949
0.06580309502886954 -0.08906754562018733 0.08813891328488092
0.06700912371609426 -0.08798844252595084 0.08784870043163398
0.06791870711305305 -0.08707783020093866 0.08730349512713516
0.0684918430289215 -0.0863633131074932 0.08725553179913224
0.06907391537018512 -0.08551412014114355 0.08707171216119713
0.0696515303966793 -0.08475075378789859 0.08685975721507345
0.0702669537826463 -0.08394743059311138 0.08660101046394651
0.07093972165951874 -0.08307953060326044 0.08636509687423803
0.07165477067672656 -0.08221847156970041 0.08622196496579577
0.07232466071848605 -0.08138319678301723 0.08611464153275603
0.07307159066790926 -0.08052564699633157 0.08602604273503381
0.07402796427148091 -0.0795022425496656 0.08564822511713113
0.07487793709862522 -0.0787370445544936 0.08508930947957681
0.07541756115707121 -0.07817240775341677 0.0850179557323823
0.07608465180811437 -0.07756752324349271 0.08488870603375034
0.07664454582269067 -0.07712781012949751 0.08466800206840519
0.07718718867088357 -0.076857824727108 0.08433090727496471
0.07693788512134603 -0.0769604778372747 0.0848943530239815
0.07779695499721348 -0.07661334152981855 0.08475429769512989
0.07866481427963017 -0.07625023029828892 0.08456874008792085
0.07945193481083308 -0.07603025231963315 0.08423984965236742
0.08005657146931114 -0.07588792786832904 0.0838359790844132
0.07967048596491796 -0.07582974274227701 0.08437482214506561
0.08028641859158892 -0.0754683331405817 0.08426994321019625
0.08072189201401754 -0.07508071683472974 0.08423662256967604
0.08101925112603434 -0.07472100750282884 0.08427693327964514
0.08179477366639887 -0.07457614078688991 0.08378335864992947
0.08185128619471423 -0.07419256959246484 0.08399316827799298
0.08180896215169635 -0.07371741075939105 0.0842420315887673
0.08240480178142925 -0.0734957229631383 0.08385957732254322
0.08237285593758092 -0.07301594049216314 0.08413248836826116
0.08228744921579563 -0.0725111988998326 0.08438766765857704
0.08212972975071169 -0.07197376894109576 0.08462665555249346
0.08210925491087191 -0.07164442463607872 0.08451256212304915
0.08231466235653388 -0.07152318080515033 0.08429373302936949
0.08188843202174632 -0.0711744795628491 0.0847354858588289
0.08149753228383318 -0.07046876171023768 0.08516880157609008
0.08173691305128951 -0.07023486918271193 0.08485121866537955
0.08124200977314755 -0.06946698186493355 0.08532299230211386
0.08095987355864712 -0.06878603454237459 0.08557694650068623
0.08089423275651562 -0.06832331555990885 0.08541827291209061
0.08049896666452817 -0.06747523502122886 0.0858931094111019
0.08021839433381785 -0.06677601794754283 0.08604282963271712
0.08008516642689782 -0.0664361643442611 0.08591644280399183
0.07993085868325402 -0.06620880055501221 0.08633534790213745
0.07958214923925191 -0.06543006286578074 0.086658067890711
0.07923458652007709 -0.06454632914653537 0.08705661606864112
0.0790250314681665 -0.06374648905454361 0.0868215697030702
0.07874699811217624 -0.0628056879529394 0.08736297817694645
0.07857307111323782 -0.061829141028459114 0.08720917116295479
0.07836355461382417 -0.06078035081969562 0.08778191576040208
0.07824226114474607 -0.05988985908731821 0.0878881391559199
0.07816091801041228 -0.059508706753099994 0.08769341646592649
0.07815096665849978 -0.0591173255453964 0.08815411251590938
0.07809720716690147 -0.05822334796360903 0.08794439861533593
0.07807684355595113 -0.05747586303765801 0.08775084795536357
0.07814172671723323 -0.0573618329589998 0.08837902065425483
0.0781987973686622 -0.05649086348413196 0.08871195823761466
0.07811690808935717 -0.05563718889483131 0.08841897610131261
0.07817211636227898 -0.05491506713537948 0.0890815415911006
0.07794536879220054 -0.05377890428091782 0.08880060452075539
0.07804948748075087 -0.05292812047721769 0.08942071699961442
0.07788171742759299 -0.05211973892825971 0.08926846368879923
0.07810728103907334 -0.0515890812582267 0.09002027672287692
0.06455404788065924 -0.09059211642449595 0.08965102782637403
0.0647428048884644 -0.09042298936183578 0.08966346385548268
0.06524944705680094 -0.0897948260354399 0.08928605378050876
0.06496481478427513 -0.0902985262420491 0.09010391455436201
0.06608748265946796 -0.08890638459080115 0.08894751436104953
0.06553255705906628 -0.08959326104112171 0.08991544561116345
0.06686911279594544 -0.08812231811304783 0.08874325189833228
0.06636164876012784 -0.0886945925298129 0.0897074453591136
0.06715026805680316 -0.08779476528716942 0.08913289353532992
0.067690688814343 -0.08721839244603814 0.08819041858068807
0.06855915497919385 -0.08614605974102701 0.0880896266002843
0.06921523186868517 -0.08526165375085577 0.087613390810464
0.06969474216179553 -0.08458005568562878 0.0875184067816674
0.07026978428488237 -0.08378761697367999 0.08734669284705775
0.07089403478730337 -0.08296536299181018 0.08720894000779345
0.0715111917232001 -0.08214426954373935 0.08709356288508485
0.07213875481625727 -0.08136178662190818 0.08700524707536478
0.07264489411043894 -0.08074929856457738 0.08686421391191598
0.07318611502049795 -0.08015506426729717 0.08660832463958595
0.07262049689610174 -0.08065608563424022 0.08737879133794844
0.0737677673305904 -0.07958119102605664 0.08647265194562335
0.07320053342305909 -0.07999381163557594 0.08729631384989693
0.07387937934582274 -0.07937404259623629 0.08684477934688205
0.07453906835147399 -0.07886901356663566 0.08599843720830068
0.07532186563839031 -0.07810424934473675 0.08566346653431207
0.07583060483370072 -0.07765451304182897 0.08550048602873182
0.07631104975166966 -0.07732567515203413 0.0851252282506172
0.07613740368177793 -0.07742603979043047 0.08565053809174432
0.07675701699240033 -0.07706759854532425 0.08562523501066314
0.07755398029195493 -0.07662176903239402 0.08552496346964075
0.07835207311452469 -0.07625537978951359 0.08512971505788117
0.07898387551935919 -0.0760698113996166 0.08468017083861118
0.07868669390804854 -0.07603322547778706 0.0851711463121477
0.07922206802278535 -0.0757188820172269 0.08512528017617449
0.07973380675314327 -0.07531099169048046 0.08502462356517416
0.08015447978397608 -0.07490469463729989 0.08495785789058624
0.08044253208905437 -0.07456090317888811 0.08490727698169524
0.08115123471071813 -0.07438756326018282 0.08441239387320763
0.08099647346369147 -0.07396748326458434 0.08482421316647606
0.08103977442575815 -0.07341004873290485 0.08501797825188777
0.08175415490225613 -0.0732021697261385 0.08449248237669865
0.0816584174229782 -0.07267860255956089 0.08474319744014397
0.08157821641406068 -0.07213549064253037 0.08499340260615015
0.08136834617200307 -0.07161098654456986 0.0853274977927787
0.08165810337622659 -0.07141161217393201 0.0850355972158149
