# .PCD v.7 - Point Cloud Data file format
VERSION .7
FIELDS x y z
SIZE 4 4 4
TYPE f f f
COUNT 1 1 1
WIDTH 788
HEIGHT 1
VIEWPOINT 0 0 0 1 0 0 0
POINTS 788
DATA ascii
0.06973224820152503 -0.08002222010395955 0.09225513884328387
0.07056827373769552 -0.07862280391294704 0.09052592145414057
0.07038912148309207 -0.07897971870243173 0.09158478770192058
0.07123308938380432 -0.0778544980834059 0.09121503968647998
0.07179499623746255 -0.07711902977340467 0.09101583088581058
0.07218356369838973 -0.0766405243766303 0.09089402541230268
0.072595213792539 -0.07622579857798367 0.0904336488133516
0.07236086182586579 -0.0763422522589314 0.0912240676667233
0.07290346129090108 -0.07556714102875825 0.09109396760630376
0.07336277783226247 -0.0748201107943095 0.09097716124184464
0.07378400777924002 -0.0740728437244625 0.0909112574848549
0.07420319344330771 -0.07346700328456866 0.09053824381705432
0.07456930416275757 -0.073132196040604 0.09007189353952887
0.07432683169007465 -0.07307028141443396 0.09067951391234225
0.0745572646049296 -0.07250722763697841 0.09075445978956743
0.07478264998491199 -0.0718428796882286 0.09082766287378125
0.07491306369736937 -0.07131418928640747 0.09098542656090805
0.07546588033567252 -0.07054307592657666 0.09001107727737444
0.0751733645525795 -0.07073024027070096 0.09076025918212688
0.07545048787093356 -0.07020140326698983 0.09038418522090295
0.075525488318377 -0.06958055188653714 0.09065607681363562
0.07556534412621742 -0.06876090353822777 0.09101470020740698
0.07579588438724895 -0.06813540445880062 0.09049758848522885
0.0758397411513678 -0.06742889694884355 0.09094107996554122
0.07593079054109916 -0.06676705823727837 0.09092410907944322
0.07602281763588364 -0.0664173867794975 0.09061539100844246
0.07598248702346679 -0.06630656779490059 0.09121295122791478
0.0760691093590866 -0.0655997967687975 0.09152813568477597
0.07617625897448554 -0.06493339169227176 0.09141526274720195
0.07625904031022158 -0.06457550400048309 0.09100754649972889
0.07624685927035886 -0.06439226962714299 0.09165917412500424
0.07627916706508053 -0.06370414762186072 0.09187837869898864
0.07632550742135488 -0.06305492387432927 0.0913906245653405
0.07633503616564552 -0.062353508841246706 0.0919871266225859
0.0763603159508337 -0.06146972152274147 0.09232862277564542
0.07640006476011328 -0.06072033243381746 0.09195120257361317
0.07643639496430976 -0.059992784563495515 0.09259833299044504
0.07648999542034983 -0.059072146280440344 0.09254513258849383
0.07650355543287599 -0.05855799921423552 0.09218440655952082
0.07655441467541714 -0.058435115597946924 0.09285458285012507
0.07668616077356273 -0.05772235942065218 0.0931618700318128
0.07680760666528975 -0.05682291279932423 0.09295442970922754
0.07693555178523916 -0.055955203331920854 0.09303706393605149
0.07705781551734144 -0.05531108069823479 0.09276874949955216
0.07729594140936961 -0.05476902839342862 0.0935110852234424
0.07750818624418426 -0.05381290207054652 0.093074941932559
0.07776966767705373 -0.05306922291370689 0.09374098990169619
0.0779504740334079 -0.052142065491762535 0.09333310946727234
0.07824260648463507 -0.05127734180579144 0.09385744751284628
0.07843745405353408 -0.050452282269030035 0.0938570536481682
0.07845535095193344 -0.04995947653009988 0.09345144697976984
0.07861670568110807 -0.049824140799884196 0.09416509418007231
0.07884319312643355 -0.04919762618924613 0.0944469135248867
0.07887195156727765 -0.04886488013815004 0.09400983589899226
0.0636231263824663 -0.09223888140287337 0.09450177974941017
0.063846561469315 -0.091802738527384 0.09458983645836333
0.0643349519749368 -0.09101347018464799 0.09493114381603263
0.06474561682804487 -0.09004472842616865 0.09454660251344194
0.0651413196686247 -0.08927300314185026 0.09456815720939608
0.06552014180208453 -0.08843886194040419 0.09451638440988924
0.06586298440688017 -0.08771038666046642 0.09456393684809723
0.06656580685982066 -0.08584211665440471 0.09337186269162644
0.06622696586778014 -0.08677332903494406 0.09423746480037244
0.06691948412988447 -0.08510558669312863 0.09342615493335137
0.06680765603362013 -0.08558741290792157 0.09428592095872436
0.06716173431364846 -0.08475947561169182 0.09377741194191445
0.06722877763940074 -0.0844391963725542 0.09306563121123747
0.06762626364986608 -0.08369563623748472 0.09277942329472363
0.06791998425713257 -0.08328794329957115 0.09333477117149966
0.06849621702100284 -0.0822974280963476 0.09335259098633922
0.06898077148446233 -0.08140421790272614 0.0932274560541773
0.06943266152742072 -0.0806105103381733 0.09308342106974031
0.06992147529113782 -0.07977516088465439 0.09291119831251213
0.07032991673153781 -0.07909400719258787 0.09263074850285283
0.07078423938107274 -0.07842515750845303 0.09222867436091181
0.07049115853087773 -0.0788776551950882 0.09312489241469703
0.07137586786843886 -0.07761316858467082 0.0918835860830035
0.070965381535119 -0.07813132498013127 0.09287193368045067
0.07186385991320156 -0.07697735342345426 0.09149505874575095
0.0716283359423293 -0.077198743662917 0.0924087203361042
0.07220376434697269 -0.07630679606724652 0.0922381544540735
0.0726805901114289 -0.07551482449786205 0.09206814222297661
0.07309167651669662 -0.07479035085531505 0.09195208106764473
0.07337026998994615 -0.07419416863606242 0.09195285895198631
0.07385445504952155 -0.07361797895454858 0.09129252363362715
0.07393376778018942 -0.07317290722359654 0.09172202129221507
0.07426533245083136 -0.07242204310744021 0.09171558736317031
0.07453712950574404 -0.07174825777274704 0.09170331048621937
0.07477325684949403 -0.07108532611390331 0.09163822450369191
0.07501872173641183 -0.07056665659118258 0.09138747459926928
0.07526002860852997 -0.07023728927966925 0.0909645820242283
0.07508636523898359 -0.07014599119104921 0.09173618655870136
0.07527768950213526 -0.06932117662859127 0.09182021070770074
0.07541363962382468 -0.06866970771772547 0.09171692710978051
0.07560766599833575 -0.06816320600988583 0.09137374188300994
0.07562943595237176 -0.06769856429558138 0.09206272752356122
0.07582550901564007 -0.06692050769595569 0.09161894396342704
0.07589865665176174 -0.06633766310030398 0.0920971237005119
0.07596723803754582 -0.0656977561298782 0.09258114937289166
0.07611974822886684 -0.06498890335359733 0.0921372407010569
0.07618979035791049 -0.06426786789322389 0.09262095658594362
0.07625100427970066 -0.06353922229003736 0.09253828263869554
0.07628943945734198 -0.06312959823752672 0.09211385486431982
0.0762761729615692 -0.06296201670203273 0.09278043361492226
0.07630588378044037 -0.06213049150604564 0.09307323530689514
0.07637201688758002 -0.06137104706345874 0.09299419084334404
0.07640003286742522 -0.06087379025280419 0.09262799509613805
0.0764226116255417 -0.060803577298533217 0.09331252904688399
0.07647718833786415 -0.06005178315844318 0.09372299896037545
0.07653243697985465 -0.05920389377235169 0.09327442051982023
0.07662321097207483 -0.05836995159613048 0.09380779826784884
0.07673337966510313 -0.057611406660423484 0.09378776604590379
0.07677526972244937 -0.05728017124025616 0.09347211893951686
0.07683528092092926 -0.056963770370720715 0.09404498304839513
0.07695449178819248 -0.05614681129456902 0.09373505223506151
0.07707438335634517 -0.05553312388572079 0.09344744399848276
0.07717676537715792 -0.055444940206292224 0.09421950773209493
0.0774243859921408 -0.05470645686088713 0.0945614223682196
0.07757946204966593 -0.05398975990761648 0.09410166006190934
0.07781912283076714 -0.05331273296156393 0.09490211218882895
0.07806644655463248 -0.052230666157713504 0.0944830994380863
0.07830638919956667 -0.05142929589072074 0.09471560255830662
0.07852920908867052 -0.05063771902763508 0.0947510407200163
0.07878452278462837 -0.049681019082193106 0.09495177673108009
0.0789378292452407 -0.049231371026156226 0.09513171843975644
0.07897355162640875 -0.048919456975274396 0.09463525084385847
0.06398420597446966 -0.09176354864808393 0.0950639340003208
0.06433584350031406 -0.09128327316484695 0.09562689821188868
0.06456142018718847 -0.0908420005044447 0.09578411514199184
0.06462175641941609 -0.09091354069023708 0.09628455398192393
0.06479826352084754 -0.0905121085424127 0.09625874222838916
0.06493568346382639 -0.08999362348699566 0.09548767455566627
0.06534260614795286 -0.08899912994725676 0.09519174598454135
0.0656859059051485 -0.08827829652430005 0.09524604164011807
0.06605943399577001 -0.08743436905914535 0.09519060476273385
0.06647964222547054 -0.08653275228115583 0.095210464427063
0.06694302050942438 -0.08563851963816861 0.09533608587276851
0.0674684081677245 -0.08414113382053172 0.09350568244665368
0.06744641756097909 -0.08446334374804747 0.09447984067627833
0.06812799855089656 -0.08318995148936743 0.09435369284683458
0.06871110098624585 -0.08209212640577698 0.09427788496365425
0.06917150430649495 -0.08118882734653111 0.09383263041671613
0.06956845240697304 -0.0805121724384781 0.09389382676815627
0.06994352187247428 -0.07983536821931951 0.09365043346454058
0.07015292675712333 -0.07939527756912597 0.09324625848221114
0.07019357251629936 -0.07944205882224345 0.09385722093300124
0.0705835434362055 -0.07879773878621059 0.09385974901825504
0.07108475794073293 -0.07796153631837169 0.09365365041443978
0.07161940026214723 -0.07707063680340738 0.09342472592337131
0.0720881019538133 -0.07620704731334982 0.09318998285720057
0.07250099509070838 -0.07544393253320475 0.09296766154002149
0.07285422621164295 -0.07475979596668456 0.09289491439302486
0.07317317998635216 -0.07419899435387485 0.09260541245380942
0.07350674280920885 -0.07379083850302005 0.09208508818108305
0.07329691717307645 -0.07384662289473906 0.09289272907330218
0.0737161153287813 -0.07306567629485586 0.0927756706864201
0.0740691720025361 -0.0722962489270646 0.09263832322082373
0.0743944634736674 -0.07159844095843963 0.09255269922573832
0.07463526165895128 -0.0710612428093388 0.09232902641278981
0.07483680409316186 -0.0706926723503796 0.09193806387770294
0.07470579502397598 -0.0707138316298656 0.09276013404825033
0.07495555407000416 -0.06994874067078372 0.09280885129683464
0.07512957611572696 -0.06936355557481064 0.09265965868193055
0.07527396599633092 -0.06886144978152112 0.09236970060611133
0.07512658245165409 -0.06911440424733178 0.09313801072880803
0.07544582233856807 -0.06834388605563792 0.09207250968860235
0.07535468807476074 -0.06840409628612076 0.09290780239625751
0.07551667213917011 -0.0676785804574891 0.09306964529494398
0.07571042222900824 -0.06704220489236606 0.09255222471148981
0.07577775200461398 -0.06649120910960118 0.09319195653241102
0.07589971822787106 -0.06574065403165902 0.09350106551797073
0.07604722334444454 -0.06507731917200722 0.09307050977992339
0.0760766271892986 -0.06452456876854488 0.09381746120606503
0.0761985449282474 -0.06365920431895497 0.09329577533912846
0.07625432417284901 -0.06293474530273588 0.09371482665952668
0.07631366676983711 -0.062229102890785 0.09405217423207464
0.07636970729053844 -0.0615455313041107 0.09367609650170347
0.07642573098227794 -0.0609421879900699 0.09431596642142273
0.07651988213145428 -0.06008531206142907 0.09466451346731522
0.07655963986813394 -0.05929586101156292 0.09421404664712059
0.07661713515359239 -0.05864087408509816 0.09492106407701613
0.07673565831450535 -0.057733052937502125 0.09452576941942123
0.07688430183503638 -0.05701431973023368 0.09517715064919373
0.07703968810609696 -0.05619073134645452 0.09473154864617352
0.07731544822286052 -0.05528515618764236 0.09538352394709756
0.07753491420111586 -0.05452709005687863 0.09534201796712566
0.07761120567807735 -0.05410805474604673 0.09489824073105085
0.0777110533581569 -0.05391467351322106 0.09564609717119509
0.07791933832305002 -0.053206473497142144 0.09597377797187703
0.07806492866024702 -0.052517536748498884 0.09556481901643832
0.07826984716640446 -0.0517472481101225 0.09534716606711194
0.07840754530721776 -0.051228711102554385 0.09515766450221876
0.0784716499713923 -0.051145458592340806 0.09576560531353202
0.07875239232330297 -0.05004868807787364 0.09540745133007332
0.07888414160353724 -0.04952547474989425 0.09540129987118172
0.07891449454326768 -0.049492991990529166 0.09553286688970353
0.06506922714804315 -0.08995921900277601 0.09640122694754859
0.064995803005015 -0.09027522169682438 0.09701317617905321
0.06525298192971442 -0.08961573801101869 0.09694989246061142
0.06544743227836027 -0.089022812013074 0.09612185322115344
0.06586439571873157 -0.08802862759161746 0.09584985671919818
0.06620130052479449 -0.08728926932650374 0.09598175785187835
0.06663042437342895 -0.08645354159743161 0.09612529061233781
0.06697551097566942 -0.0857624350727769 0.096080912052341
0.06732616248069842 -0.08502991295178881 0.09571938951198555
0.06715254960822768 -0.08554768686611139 0.09655311353887568
0.06780878566864375 -0.08402261043348846 0.09541120941446908
0.06757609089885278 -0.08472660374685657 0.09638710809237853
0.06834270233259396 -0.08301307182132736 0.09526672465920152
0.06804589234256743 -0.08379494313506143 0.09623177653649678
0.06874856425752648 -0.08222973235128578 0.0951977539953386
0.06855911552037838 -0.08279254746519976 0.09613173325358684
0.06896524728428029 -0.08191313385147879 0.0956076245623108
0.06915963995830213 -0.08139857838554035 0.09470819638239193
0.06953226065512608 -0.08072674009858029 0.09470615425788198
0.06985988268083818 -0.0801070179438495 0.09434762018606835
0.07016171773856485 -0.07967162750070036 0.09485707832895512
0.07067312276034061 -0.07872430446731131 0.09472157124873916
0.07113653752623635 -0.07786355897219578 0.09455067117524565
0.0716025519418635 -0.07693329583842018 0.09451988186274236
0.0720705072053948 -0.07604037778797072 0.09386070308958513
0.07235774665403046 -0.07544193716373924 0.0938681662485291
0.07265542056775541 -0.07487788013728289 0.09367020268782225
0.07293687104752679 -0.07445050713748418 0.09321954169155894
0.07276402590198858 -0.07458577478566107 0.09402801272263799
0.07318309161601363 -0.07379363462549077 0.09392566639705169
0.07357704343033908 -0.07295174884171815 0.09383682773858806
0.0739998630531036 -0.0721477869946331 0.09343108234882731
0.07423107463184828 -0.07165220339813971 0.09333275743318868
0.07446328727764255 -0.07127039193741457 0.09294005701811187
0.074287562349414 -0.07137077701299277 0.09382139340408177
0.07459492413624444 -0.07058080991268335 0.09392283826248396
0.07484931540019996 -0.06995116139992545 0.09363758286583104
0.07499474294359043 -0.06958385845780303 0.09321250867760011
0.07495517280051989 -0.06954911387242274 0.0938449870825665
0.07514187561315505 -0.06894970689959258 0.09389487633842178
0.07534283540677275 -0.06822079615828759 0.09391036690854758
0.07547821723500248 -0.06761752038970459 0.09373141053221108
0.07560119714188741 -0.06718970437596465 0.09331956916503226
0.07558651907408258 -0.06720139085277614 0.09411908587150164
0.07575974784778243 -0.06634641883609749 0.09423992937573729
0.07586904971437602 -0.06569579790208185 0.09415200252584517
0.07596959193595103 -0.06524977135834305 0.0938206254405359
0.07593110878519417 -0.06528474328008177 0.09463411675479293
0.07603132374299787 -0.06448831376381135 0.094956186375165
0.0761587318574589 -0.06370771524426504 0.09436046658840719
0.07625899108053054 -0.06287230966259197 0.09479411637042273
0.07635711309038078 -0.06215904422664517 0.09471473315672319
0.07637993895422805 -0.06170433108676406 0.09435581619078685
0.07644318045806049 -0.06161142796235656 0.09503571515543856
0.07652348910984273 -0.06076552233359979 0.09545829946492398
0.0765658642492334 -0.0599409326091909 0.0954035059156563
0.07657366828042267 -0.05944996002431596 0.09495864874836527
0.07657312868730702 -0.059275640782221146 0.09565103988893014
0.07663753088669739 -0.05854013152594592 0.09586467140286817
0.07674679586979291 -0.057846980676095776 0.09550514934590268
0.07688738428521341 -0.05718514879280264 0.0964029600880152
0.07711344334337202 -0.0561952585801916 0.09594411464594942
0.07734356476453541 -0.05533656360859268 0.096679971088568
0.07758215453654461 -0.054508564547248305 0.09631303696654815
0.07781066681981723 -0.05370438686392205 0.09654483435032321
0.07801490032981455 -0.053053628774816806 0.09692972834851006
0.07810011281327629 -0.05264831678816269 0.09633903422261728
0.07819391193520983 -0.05244237107745748 0.09692042333874815
0.07828187135271138 -0.051986556860003114 0.09636236059240233
0.07848671892717522 -0.05162464111850392 0.09721959441392057
0.0651393394689855 -0.09010273002282805 0.09762312854404305
0.06551857308576721 -0.08901066908178294 0.09707938870754558
0.06540369206968384 -0.08949507861772542 0.09794118411327328
0.06574285469583209 -0.08859029298219082 0.0975285637912644
0.06589374569024878 -0.08813274137792587 0.09669600997057898
0.0663333308287682 -0.08720415660488923 0.0967539177351234
0.06666114081931822 -0.08660267376021268 0.09681336307052694
0.06686081049625932 -0.0861158275914486 0.09657413943696766
0.06688913916983645 -0.08625243286938186 0.09724688429049866
0.06733312620402727 -0.08540406794579906 0.09721744943717238
0.06776205006652634 -0.08455301994030037 0.09712955184714776
0.06816995090510033 -0.08367353035689261 0.09705086242686403
0.0685373930760158 -0.08295829388021746 0.09706321586371872
0.0693618667654086 -0.08119314071933872 0.09546997020818854
0.06900300808526515 -0.08199469949424075 0.09653095827884282
0.06971919489553843 -0.08047002412278781 0.09511622337921735
0.06968674453185789 -0.08070870378292469 0.0962014432628849
0.07035406020883575 -0.07947133507255935 0.09590073113700787
0.07079707328118652 -0.0785654260444551 0.09541139586036322
0.07112318029712658 -0.07792596144970723 0.09553719345511226
0.07140087748788991 -0.0773207586104221 0.09550891308409508
0.07162362170554754 -0.07682650050376419 0.09526901380256056
0.07147346403870858 -0.07714423209741865 0.0960625031335803
0.07175621154881799 -0.07649931305405201 0.09550085075986825
0.0719056550030909 -0.07619101680273349 0.09471313286972909
0.07216670575924954 -0.07563992341464362 0.09466093812108126
0.07243270419961229 -0.07519026689952792 0.09428325258887514
0.07229132988892338 -0.07539020419310824 0.09509709345015818
0.07269401805564822 -0.07457945666642177 0.09503415559526679
0.07307961055776468 -0.07378236657792259 0.09499788050391327
0.07338846539422891 -0.07314113487994793 0.09477643634316336
0.07369794482162194 -0.07253937703250339 0.09436608756632084
0.07344021216013767 -0.07297274232743273 0.095308611850188
0.07400458409869404 -0.07196026352129375 0.09396823953817306
0.07384091635576245 -0.07216137526868431 0.09492439636805257
0.07419041310549745 -0.07137236073682794 0.09496707720709677
0.07447333454175477 -0.07072785698627138 0.09511392019230148
0.07474408359315797 -0.07009233888425827 0.09442345371280851
0.07491403557330921 -0.06958753162753847 0.0948227841537136
0.07516556600913746 -0.0688445608813785 0.0948293750666768
0.07531892562358009 -0.06826132574596712 0.09466872075354162
0.07542953509230793 -0.06783444751515437 0.09429367681491624
0.07541950547397207 -0.06789298511201473 0.09506806102014072
0.07562648154040892 -0.06705616530584736 0.09513422878859985
0.07574852889146377 -0.06639350252306969 0.09500635103183086
0.07582371273725778 -0.06594215970949467 0.09467706052463136
0.07582312688866084 -0.06601713522462747 0.09547842788985077
0.07593577741906658 -0.06516977022624948 0.09570155456233949
0.07603010602628302 -0.06449433132472518 0.09571263597171553
0.0761693730157237 -0.0637793929968108 0.09563201074989022
0.07631935174619545 -0.06293468655171419 0.09572693714735069
0.07638468366792983 -0.06231461735449496 0.09539408725958574
0.07649732690737092 -0.06170709491764002 0.09602097322950251
0.07657967984231547 -0.0609314948582018 0.09643886944289053
0.07658433704463548 -0.06006247480969377 0.09635708505711932
0.07659705247859301 -0.059095080776433336 0.09640685982720512
0.07666770397258744 -0.05847693318493755 0.0964992736845264
0.07672580054101566 -0.05799474578837553 0.09625949857936136
0.07676041412598261 -0.05800467253229712 0.0971021155421788
0.07693508566178095 -0.057100220940478695 0.09762098337676295
0.07715151689975405 -0.05612896955360027 0.09741840431960237
0.07734647447902199 -0.05523412323175287 0.09767295332063308
0.07755461102424674 -0.05464813342727055 0.09745487073123878
0.07776739223443892 -0.053945709484795934 0.0973301807418268
0.07788091357875554 -0.05349301110948436 0.09717921308887642
0.0779852657762515 -0.05324350383795793 0.09795802640042273
0.07821253817920935 -0.052525057032269604 0.09770470442579879
0.0783412505242082 -0.05204893928591167 0.09728588384034277
0.0784618319121856 -0.051952587969395815 0.09812490735296267
0.07858698208318407 -0.05163448975796058 0.09823710382727258
0.06539293767349652 -0.0897338259987609 0.09868879588961872
0.06542290605258728 -0.08960232267405556 0.09873013482027203
0.06544993995391556 -0.08962133679035718 0.09893198014359458
0.06612224186128807 -0.08773964660957723 0.09749142284006782
0.06591237150665871 -0.08836156973785098 0.09822820241083767
0.06562734798003482 -0.08908910383723823 0.09873514532805333
0.06651573515569993 -0.08698603414010464 0.09732359484383826
0.06653297128168521 -0.08709156028964883 0.09823790962105858
0.06707759263203848 -0.08603566742916133 0.09794445752783988
0.06747574612236854 -0.08527576033854745 0.09797597023954549
0.0678885312929344 -0.08441933161472222 0.09789232514656805
0.06827040223203124 -0.08359342032071995 0.09785156540637706
0.06869736941788425 -0.08272114824656242 0.09771355434686706
0.0691844992484808 -0.08172224516695979 0.09752507020991276
0.06960265392373802 -0.08095923072491192 0.09730321816043576
0.06999673405485345 -0.08023830522991182 0.09697231532174919
0.06972513612813831 -0.08080325577945469 0.09788110088362866
0.07038072425019161 -0.07954406051988568 0.09681193489603704
0.07018003343772512 -0.07997776508732822 0.09775793487101361
0.07056818749061892 -0.0792135364129664 0.09716667259749603
0.07071501767723756 -0.07880348385795385 0.09630345569952223
0.07098702046192464 -0.07822807300556806 0.09635855665292954
0.07121566384895216 -0.07773405859526732 0.0960839416775869
0.07111567407484734 -0.07800293293787561 0.09689273416812344
0.07144182858149914 -0.07724627596141449 0.096898063687228
0.07196844094071776 -0.07599989070047294 0.09524543049429218
0.07183842947797842 -0.07632546093417995 0.0961903269274769
0.07227085487822367 -0.07538213104229788 0.09608010420878951
0.07264989937922796 -0.0745891289563303 0.09607125247916493
0.07293176537377888 -0.07396163828573112 0.09586794965591619
0.07317661280703498 -0.07350285423795312 0.09544328270042168
0.07307104050112405 -0.0736619634948735 0.09627271433731337
0.07346956896656608 -0.0728721943618211 0.09612995933644992
0.07383500376491042 -0.07210128570300701 0.09599074831822531
0.07415058459605599 -0.0713989157210977 0.09610651764051766
0.07444658444381384 -0.0707207665159069 0.09609127089370081
0.07466720429785172 -0.0702255731778305 0.09525550299601539
0.07473326319836525 -0.07002950830811018 0.09585345742516471
0.07497109136243671 -0.06940556547518721 0.09565525981922457
0.07512810758083253 -0.06892206425809068 0.09560754980798652
0.07524709730072027 -0.06851293363633293 0.0952456741692486
0.07524485453616173 -0.06860245752898561 0.09604510285162118
0.07550689652387485 -0.06779562872867459 0.09605998310702414
0.0756493395201582 -0.06715144617502296 0.09592513573818237
0.07570644304592455 -0.06667220908535726 0.09557042434053413
0.07572173243102136 -0.06679204530134138 0.09638173738687157
0.07586058345786874 -0.06594385524520094 0.09651916271293179
0.07594757876484534 -0.06530611098751352 0.09647868661654062
0.07601645454015782 -0.06475712033656891 0.09628383155708281
0.07601813112361396 -0.06508862894560252 0.09701969735593333
0.07607349684838961 -0.06430931658102289 0.09609954580138641
0.07615816084937584 -0.06424068588883658 0.09684392380911053
0.07636834550867015 -0.06319451422757895 0.0967038501392738
0.07641040458424697 -0.06248633311834235 0.09613490104699986
0.07651575658889281 -0.062251187125508 0.0968219700657914
0.07658389658606171 -0.06150063241246985 0.09690095148773675
0.07660491232295216 -0.06093318559685463 0.09704181408282295
0.07661158456735981 -0.060589711019703084 0.09683829798552043
0.07663688768510916 -0.060430346813178645 0.09749413666627998
0.07664430709318984 -0.059450500088098934 0.09718518134732118
0.07667246989593023 -0.05876689403608711 0.09696848931595133
0.07673013677016613 -0.05873710123065652 0.09779113162152547
0.07679740393329264 -0.05781961464423908 0.09832854897333258
0.07698347753072865 -0.056891570649012305 0.09864446402313116
0.0770631400987258 -0.05655192373429193 0.09802996421863548
0.07716525579692181 -0.05611444798244081 0.09854594353525237
0.07735909464735889 -0.055347094109555114 0.09864621214533559
0.0775039483640549 -0.05478899693548948 0.0982324552718554
0.07760863190134047 -0.054666522798784034 0.09889413388225801
0.07780094980452458 -0.05403616972306646 0.09860619145021757
0.07805914001894822 -0.05321578543872184 0.09895762573350102
0.07828941076863455 -0.05257345890825478 0.09892841737417161
0.07852648583886798 -0.05195280591812442 0.09888881505429609
0.06617488736691872 -0.08792046689166513 0.09907019779299114
0.06656207389131169 -0.08714083781176174 0.09936653314514982
0.06642012261699225 -0.08753404079777612 0.10037568820347366
0.06674600154680858 -0.08681032778006668 0.09998356283801116
0.06710317440474384 -0.08611919555815553 0.0989758214980095
0.0676023076967282 -0.08508857561212865 0.09863688182942358
0.067963116742201 -0.08435973257943959 0.09870729144440349
0.06836329878766713 -0.08347832063172123 0.09866610177956472
0.06880862248678267 -0.0825767270554978 0.09861994872101107
0.06916467656348074 -0.08183477171424802 0.0983562667958205
0.0693965354089034 -0.08134317681564557 0.09794103297574677
0.06939999478587135 -0.08144928359184145 0.09860049824255046
0.06977120499750104 -0.08082795781467758 0.0986897406668589
0.0701476768908229 -0.08012981227399997 0.09870799871621136
0.07081089436107608 -0.07865822725701704 0.09695196094020572
0.07067442954409205 -0.0790695826983285 0.09806976286061417
0.07120637896581862 -0.07790015427791266 0.09780175031376238
0.07163632806154806 -0.07689514186081774 0.09754031904367061
0.07199357837390148 -0.07603957847587403 0.09695189577242308
0.0722932353448192 -0.07538073222215289 0.09703833164545746
0.07256906513838116 -0.07476903845709179 0.09690324651049374
0.07277859832644426 -0.0742920713128231 0.0965004964970108
0.07272906703407156 -0.07447602823074266 0.09732423818368972
0.07313361718698434 -0.07362424709901977 0.09733302825991935
0.07353697202022651 -0.07275010688221178 0.09698675801884929
0.07383358433034441 -0.07208249100718601 0.09688739849554372
0.07404419602216553 -0.0716274584704158 0.09714050236464801
0.07422244087464115 -0.0711934594851118 0.09658168655026057
0.07429868802505551 -0.0710354441576873 0.09696234031979682
0.07456315462201542 -0.07045251964331598 0.0967247812760601
0.07483135091031079 -0.06979560926315137 0.0965271224545589
0.0746665876873082 -0.07027934851884203 0.09744712328947265
0.07503846318687961 -0.06922703200001011 0.0962168695145508
0.07502846801110814 -0.0693756553258819 0.09720943821748425
0.07534811890493162 -0.06848177635637925 0.09690744641551792
0.07550852250779626 -0.0679206314262943 0.09685656320406602
0.07560463407549851 -0.06744817861769527 0.09650970675823531
0.07556738795183943 -0.06758937901063705 0.09735098406234882
0.07573655797946638 -0.06672178249313808 0.09743883294461361
0.07585796316868551 -0.066057783460867 0.09730324670905573
0.07593339326766088 -0.06561439277494092 0.0969951413777178
0.07594560325899256 -0.06572390896068471 0.09777381482156601
0.07610531053299902 -0.06491866939227758 0.09790420219384818
0.07625855963109093 -0.06414985011671492 0.097977744826912
0.07629346551670158 -0.06374351901832696 0.09729858768271289
0.07639446199285113 -0.06339200465535033 0.09773668817217046
0.07651760966156737 -0.06266375986038601 0.09758742241414316
0.07659341968139732 -0.06186025941905726 0.09761612589053507
0.07660624243137693 -0.06228464802502275 0.09841320633355284
0.07660731253843238 -0.0611964666398209 0.09750563597320748
0.07667927685933058 -0.061258796648813944 0.09843542968265798
0.07673762220550359 -0.060369335460881884 0.09842338437873707
0.07673425919356301 -0.05960640883830313 0.09814808198371609
0.0768519761394172 -0.05882960122871141 0.09910653750154806
0.07687225818771778 -0.057832890694498526 0.09926883404069635
0.07686982555785095 -0.05741591711332991 0.09895038349030777
0.07702876423282169 -0.05709102811666402 0.09973116433436796
0.07721344143583064 -0.05614616051241943 0.09954905491300511
0.07727963377468017 -0.05573985349704169 0.09908776060050892
0.07740119009977814 -0.055426548839361746 0.09966091160895514
0.07767427088781602 -0.05475810464700599 0.0998016438736646
0.07775454662139433 -0.05437166595894478 0.09926727626072993
0.07789510062139288 -0.05403700670961793 0.09975838769090446
0.07804389142277218 -0.05343331437950854 0.09959267462129637
0.07817241897208055 -0.052994720626035115 0.0994644065582168
0.07823515165931313 -0.053020896455123374 0.09996644877609455
0.07842522396973603 -0.05235262352526224 0.09950305052340111
0.0662329108577247 -0.08802132483195377 0.10126337988667039
0.06635976591107762 -0.0877602791083003 0.10135769022898529
0.06709042998847742 -0.08621417719545797 0.10004068602679336
0.06676764977421018 -0.08688215545362755 0.10101892518046861
0.0672875627676794 -0.08589037549546291 0.1005525231940889
0.0675569428428842 -0.08528824165445188 0.09958026897975032
0.06804260059649908 -0.08427762589551596 0.09956744570326273
0.06845236693366856 -0.08338290925500319 0.0994836303800797
0.06876383752002273 -0.08276659478173795 0.09945046627061453
0.06906567428399589 -0.08215282944702873 0.09908416404145506
0.06933557747168008 -0.08174590421986869 0.09959120856967855
0.06983214500100901 -0.08085830284974552 0.09959372663799206
0.0702989163297611 -0.07996243295222985 0.09944169897486299
0.07066791631150189 -0.0792373643548854 0.0991505976080583
0.07097957267752579 -0.07852109158242447 0.09880334099885983
0.07080328147080552 -0.07904986938859124 0.09969593679283097
0.07137260990471275 -0.07764809065261873 0.09859141439544955
0.07115845718433966 -0.07829117308376235 0.099554883014955
0.07167670737701733 -0.07692841500676215 0.09842259417774411
0.07158512404660375 -0.07733608736146616 0.09936432274412456
0.07186513468197579 -0.07655698626184873 0.09871433161529579
0.07195485265246472 -0.0762021340067455 0.09786789713991377
0.07222181730256265 -0.07561201587810115 0.09785490182999292
0.07243893084337649 -0.07511800511706586 0.09750036600015279
0.07239520488553638 -0.07534836487787673 0.09832591791556453
0.07277513212827517 -0.07451631971555103 0.09837956791857502
0.07306172601039845 -0.07387919101367796 0.098287391532426
0.07333839839126595 -0.07326567060835637 0.09795841155200069
0.07319024750749323 -0.07375292077723695 0.0988363985337738
0.07365613238447416 -0.07256815165582242 0.09767864546239413
0.0735165474826724 -0.07303096959003509 0.09859935181367928
0.07384702524917057 -0.07210775646574319 0.09746995214943754
0.07387165340998306 -0.07217695057428698 0.09820499724080091
0.07418397350035848 -0.07140126438853155 0.09777308618152138
0.07441625594571716 -0.07083354703737882 0.09744993678181005
0.07439115271132203 -0.07100705633609003 0.09835160426775745
0.07474309043234975 -0.07016747980019922 0.09840279875061331
0.07500027039518721 -0.06951085998705643 0.0982177298796959
0.07521435454220787 -0.06889573660091455 0.09783751496451337
0.07507217691789447 -0.06928635703540777 0.09873725586217537
0.07542319269326628 -0.06826987175611215 0.09747102255892827
0.07533486432150303 -0.06843384183494962 0.09843114938336038
0.07555846895155402 -0.06751518419306789 0.09847167672040212
0.07572941932538053 -0.06683374592665418 0.0982749973951981
0.07581800156922257 -0.06635573647787477 0.09788251336877506
0.07581065413775946 -0.06646280483297254 0.09872469405321238
0.07601698916183562 -0.06562439152870135 0.09879282116038765
0.07614037048472139 -0.06498157295377283 0.09868029614896155
0.07619528093253017 -0.06464126479470107 0.09840387876315833
0.07624626030884862 -0.06450939698926232 0.0991391499355718
0.0764073889610582 -0.0636145926520868 0.09865070624339112
0.07650955687908474 -0.06298026213173655 0.09829051526414205
0.07654335980271473 -0.06291653864680712 0.09913421228583784
0.07668823937080242 -0.06202741718738128 0.09942731862135129
0.07677335693279518 -0.06126094683977169 0.09941367210719422
0.07679886833161939 -0.0605935397131358 0.09919599696757962
0.0768641539068219 -0.06088896924264149 0.1000322235223516
0.07681047366587229 -0.05986079848264392 0.0989515279638115
0.07692959087967671 -0.05987348892110813 0.09998444364210607
0.07698533583239753 -0.058932563183501686 0.10017030805730509
0.07701700636279912 -0.05803382809913753 0.1003832907365061
0.07718179468531054 -0.057103534406459294 0.10077897094583332
0.07729813627154951 -0.056376548745641575 0.10065424870720287
0.07744993187821973 -0.05561540157737408 0.10053811947523901
0.0775529623177551 -0.0551625941120839 0.10029021974664001
0.07778646692567416 -0.0550019576574071 0.10105057630949502
0.07799513376917856 -0.05422888352396968 0.10067600685053504
0.07808587144354187 -0.053621495218580416 0.10030137339831925
0.07817451704540196 -0.053750777179414726 0.10085484453323637
0.06625452625320344 -0.08802230303974536 0.10185528676049894
0.06646013862372102 -0.087569076772143 0.10196204688472832
0.0667509048268263 -0.08690632042866157 0.10204643280736088
0.06768858508144403 -0.08505099605639369 0.10051600598711183
0.06724237775969479 -0.08597526860931935 0.10156149186226254
0.06817216828853052 -0.0840976078220191 0.10038819391459552
0.06781840371033292 -0.08484038552225942 0.10139087217276656
0.06860066868673971 -0.08321857338271882 0.10017695126954528
0.06835384404607238 -0.08381846981225922 0.10113295120187586
0.06894093566024971 -0.08252567350971461 0.09981306528362123
0.06891363795174017 -0.08272279191000155 0.10070291678595794
0.06946899777161694 -0.08170494294675223 0.10058602856027243
0.069974041668699 -0.08079132017734197 0.10051180009800906
0.07031644347321175 -0.08005792087882528 0.10021661491655762
0.07051741718520889 -0.07958730550726274 0.09978870848776979
0.07056102628202443 -0.07965290039973501 0.10041641187151211
0.07090455382525988 -0.07901632095916544 0.10046899271433728
0.07129799124203898 -0.0781931161034529 0.10039554412309731
0.07167498797899244 -0.07739365906247161 0.10039333365820924
0.07208367349618458 -0.0760093870037098 0.09845903124382364
0.0720568907139846 -0.07634217306744791 0.09943863264335089
0.0725126834212053 -0.07534459655319435 0.09924704340547903
0.07278051604644462 -0.07475257359878064 0.09922105529344039
0.07294666147487604 -0.07426737181841235 0.09889028932993701
0.07299457533159542 -0.07446959948340484 0.09969625025793663
0.07337245387899849 -0.073629718085638 0.09955660636363159
0.07371555359326591 -0.07280629806997575 0.09934533602296029
0.07394337098240922 -0.07216126433671399 0.09903108021522604
0.07409882100334936 -0.07170118572749645 0.09855630675051652
0.07417058585250348 -0.07174727355204447 0.09936673239197866
0.07450633439795366 -0.07092401009575261 0.09941947400726157
0.07474384406813667 -0.07025788791382344 0.09922397995277818
0.07489080621076405 -0.06981495844704898 0.0988269746032992
0.07489177731124191 -0.06985492047472712 0.09948033961098758
0.07509093249098951 -0.06918439648943617 0.09957572601389597
0.0753264645750029 -0.06831930998091845 0.09956650583338943
0.07551637455096219 -0.0676243258749394 0.09934017312402312
0.0756506976467798 -0.06712680876695987 0.09891124418376712
0.07562431356142385 -0.06724394882220344 0.09977190923002723
0.0758609293795766 -0.06637382505772442 0.09978596967703215
0.07602889847983613 -0.065694956670513 0.09962230013167171
0.07611550672185671 -0.06521654049942523 0.09925991480311074
0.07610300302457139 -0.06529281062348907 0.10014549817934396
0.0762918265247609 -0.0644811947294367 0.10037968238402309
0.07643983060946172 -0.06370428401999353 0.09972978604132966
0.07658482683312809 -0.0628525663895034 0.10035252467349191
0.07672631464415171 -0.06202421986455492 0.10034304552548096
0.07678848028319919 -0.06153013379050453 0.09998430241075877
0.07684383116668246 -0.061449098806509755 0.10072235789919098
0.07696719563422455 -0.06060152697147866 0.1009545042424096
0.07703280176345367 -0.05988377982742612 0.1009362490288042
0.07705040735414471 -0.059237128575549323 0.10081380061344739
0.07712200292545456 -0.05953491372904645 0.1015885589403129
0.07703469643058464 -0.058673608623990944 0.1007283711781301
0.0771777552257178 -0.05856159562804724 0.1016112357540041
0.0773342034061545 -0.05742672575785298 0.10176975717317105
0.077401415629847 -0.056660102719881776 0.10143044945268562
0.07756707952377563 -0.056601127287583326 0.10210967477196473
0.07768789450745091 -0.055883792987687246 0.10183963604825425
0.07801304412122446 -0.05513043326206067 0.10206774288472283
0.07811584145977976 -0.054535005190871594 0.10161403452691889
0.06635395965261899 -0.08782785591507897 0.10231570513988296
0.06659615900936816 -0.08731978635951697 0.1026142553290847
0.06694754853120372 -0.08660097641357158 0.10279427836650894
0.06746679328261082 -0.085556887552226 0.10245117501987637
0.06801760247132774 -0.0845225379097688 0.1021778678337928
0.06858026246256368 -0.08348988427856514 0.10187259042845824
0.06911270230041126 -0.0825097614700087 0.10162414262722089
0.06960490617856886 -0.08161987656754167 0.10144630949956229
0.06997230518642567 -0.08098106435984583 0.10134709839532856
0.07027826240861747 -0.08034162117695362 0.10092115953460627
0.07058451603847965 -0.07991251447215315 0.10139495747155236
0.07103737464609364 -0.0789892475334562 0.10131840786918223
0.07144930009332605 -0.07817665932879726 0.1012858022163561
0.07175027132519024 -0.07752168515588058 0.10112589119552853
0.07201407992520044 -0.07683175854699643 0.10067956363559297
0.07196188335061568 -0.07733045338714761 0.10156786832114388
0.07238878453504564 -0.07592697246528712 0.10022737516373886
0.07233318656129671 -0.0764959568195577 0.10126565891723842
0.0726894725566298 -0.0751798806287847 0.09986186824740853
0.07278732909843977 -0.07540801039694552 0.10087347193644083
0.07323386755300286 -0.07430727730533995 0.10056519254094091
0.07358677459338622 -0.07343737538334441 0.10029926338251499
0.0738287787347194 -0.07281456746536569 0.10007296974236288
0.07394115161103648 -0.07237788161319354 0.09961561694179566
0.07404254323379378 -0.07235884233474676 0.10024466792439188
0.07429629307616217 -0.0716841339252473 0.1002803576452182
0.07449682236229646 -0.07109333917503449 0.10029568760199038
0.07467777056774816 -0.07050850479123966 0.0999544767944888
0.07481618599047436 -0.07006864547434519 0.10053180963073605
0.07506352602193757 -0.06914200508085093 0.10063796665698234
0.07525562016985371 -0.06843164423342525 0.10044961826566629
0.07542158591884256 -0.06793185448661679 0.10000570940856024
0.07536267020148203 -0.06804188706501682 0.10089115065699783
0.07563156226087513 -0.06713922434897963 0.10087934691051813
0.07583369038112749 -0.06645000954631207 0.10065879949334476
0.07596805696092988 -0.06597392298068125 0.10024560462255717
0.07593094412465963 -0.06603839188904015 0.10116021562122297
0.0761410656790254 -0.06514358062956407 0.10133559337570994
0.07630713404293041 -0.06441466424643136 0.10123644219822354
0.07642520683802878 -0.06378572646967089 0.10085168567399824
0.07652257751867449 -0.06323492358428151 0.10177044763393403
0.07672213120148713 -0.06223521715455766 0.10127994203662313
0.07690257191543826 -0.0613839740185604 0.10182893375709047
0.07702310307554419 -0.060604185117541676 0.10179721919669625
0.07705668170550549 -0.06014040317611296 0.10148239272560836
0.07713396379417072 -0.0601075649402662 0.10221565319731586
0.07726917430026357 -0.05930942338799037 0.10260697741501783
0.07737478725688302 -0.05844689297487962 0.10281546181471651
0.07732835564105937 -0.058008024166112775 0.10223925285188566
0.07747190246719833 -0.05766475449997471 0.1027520954534645
0.07768009093209431 -0.05687721389137522 0.10285497649217328
0.07771716495949015 -0.056327374101897996 0.102492692342765
0.07786359526007998 -0.05612462781258256 0.10289989444111422
0.07799859741085712 -0.055548674984672516 0.102691928655688
0.07814380554395804 -0.054991744298042246 0.10235140071847135
0.06675884274205593 -0.08708731041613671 0.10335640260285964
0.06692724632458555 -0.08678404748261007 0.1036089538254437
0.06724374758135862 -0.08612293438721133 0.10341801055919646
0.06714037750973173 -0.08649308070233619 0.10405622610900737
0.06769930017931243 -0.08517928440793844 0.10317914824528074
0.06750754191557638 -0.08577790589841246 0.10407283453841136
0.0682564014858906 -0.08420235906015842 0.1029159022009253
0.06796737846746875 -0.08487048477360822 0.10389309869344483
0.06879178514638344 -0.08322507571878116 0.10265398279889419
0.06847731389792486 -0.08389525866451336 0.10364582006390327
0.06932704182230379 -0.08228711553528317 0.10238829775298185
0.06900559893450622 -0.08294586496518432 0.10338396848091481
0.06980987266451473 -0.08141732880465316 0.10211558825289327
0.06957821422857065 -0.08201002178891945 0.10307749484071742
0.07018833861241262 -0.08071613364864502 0.1016933539776446
0.07023317418035098 -0.08091642035715754 0.10267243937715524
0.07082321207918832 -0.0797736996359717 0.10228195683767284
0.07121803823068133 -0.0789140154662764 0.10206584292966654
0.07148758000285786 -0.07835374740627946 0.10199990549215633
0.07167875090811866 -0.07788930251619906 0.10167629171989484
0.07174458532293121 -0.0780719093654191 0.10239082486136881
0.07223134238580332 -0.07721411074976853 0.10232403125791101
0.07261385845435603 -0.07629091453826069 0.10192928539777536
0.07289834215760264 -0.07566761587956607 0.10184820022471798
0.07316989468511825 -0.07494677801721582 0.10157076138176571
0.07309510590519781 -0.07556461534364707 0.10245157461257823
0.0735353018487837 -0.0739983104770272 0.10137097395686115
0.07342921837349137 -0.07476823928962543 0.10236834653947063
0.07383065866892505 -0.0730745849056938 0.10084181698840174
0.0736618265444893 -0.07407976912260711 0.10217837600167028
0.0738480235922805 -0.07340305559584291 0.101785073714851
0.07382238454571807 -0.07384586179978883 0.10266476400482126
0.07412568837843929 -0.0724413558323345 0.10124675899287783
0.07406093488941033 -0.07301758074668803 0.10242563029494103
0.07441301386961868 -0.07151660465701566 0.10104573684725987
0.07431659454328746 -0.07204955288912884 0.10209184215067525
0.07459562921298743 -0.07083245095822119 0.10070460536870898
0.0745896130252456 -0.07098183519728227 0.10163601065687354
0.07485299498270932 -0.06999836926838267 0.10165170060322477
0.0750256183817873 -0.06927751777344598 0.10151210870469946
0.0751605486270385 -0.06875181303743842 0.10109919434546279
0.07513806386248972 -0.06889008176452355 0.10200560204093896
0.07540618042076379 -0.06793967272128879 0.10203517669306293
0.07560965389064167 -0.06721411288501242 0.10176871366838944
0.0757456518482162 -0.06672553427624718 0.10132197829838865
0.07574205773841995 -0.0667824209924602 0.10223000285881768
0.07597122415383006 -0.06590162787888502 0.10234450297370176
0.07613416216357323 -0.06522877588852782 0.1022398172067488
0.07625426798399784 -0.06463135942901692 0.10199805086220409
0.07620874315695757 -0.06493887854298855 0.10282081320888775
0.0763629289081391 -0.06401965033363582 0.10171281393526259
0.07636885237904766 -0.06406166420563736 0.10272848779778032
0.07655199978172593 -0.06326906059486785 0.10277482343782664
0.07673665868330645 -0.06243689524238828 0.10272431919711673
0.07694469342117644 -0.06151596009189014 0.10287759802990247
0.07705486298636294 -0.060817387158003514 0.10256633616556182
0.0772205773237901 -0.06019509276531933 0.10342766453428692
0.07736021873095761 -0.059397657305072224 0.10351462505136197
0.07738105338098492 -0.0589868165251615 0.10318512210804637
0.07745983147263855 -0.05889534277936833 0.10375972551492624
0.07755204763543211 -0.05790902437909136 0.10332237865130052
0.07763146029781533 -0.05740932599585213 0.10321142945698952
0.07775131174357089 -0.057168693855820234 0.10342462667504564
0.07789344524000205 -0.05648591723540691 0.10335590470478331
0.077984381374546 -0.05597930186791498 0.10323239196248644
0.06685903902268758 -0.086974276093193 0.10384136941725138
0.06746450429390988 -0.08604591908886729 0.10470550061050835
0.06776775064717282 -0.08545079196649123 0.10476625875414125
0.06822452417443783 -0.08455192290508841 0.10458885688370946
0.06872467798329211 -0.083579922600402 0.1043363808724889
0.0692635964218542 -0.08267334741605609 0.10406986626651295
0.06980517700676381 -0.08182038210251201 0.10378220572919913
0.07024373110514058 -0.0811944331023972 0.10369454920749531
0.07067060599020097 -0.0804384873553791 0.10332693211161752
0.07044302272935378 -0.08108142017294895 0.10431399111086022
0.07111281855685919 -0.07950022208323318 0.10296029021116175
0.0710132372711038 -0.08015585013109898 0.10410050898397952
0.07141266035507805 -0.07875717446692529 0.10256532015353903
0.07151214465273407 -0.07897954644768077 0.10342409842819174
0.07198400089485599 -0.078058484985086 0.10320852441979664
0.07230805036419036 -0.07747342102334302 0.10317078583554344
0.07256402723579435 -0.07680602412750799 0.10281801692848273
0.07251315828186339 -0.07733011057071558 0.10371993311491803
0.07282273697343615 -0.07614247311053411 0.10245909123184772
0.07288825906604579 -0.07638547961228426 0.10331366630929051
0.07330279846144885 -0.07552320935200797 0.10326469101694562
0.07353939599871115 -0.07487811446994835 0.10307322062663174
0.07363929418499197 -0.07441251901634635 0.10273965813896337
0.07371793407393938 -0.07452740955655474 0.1034571875770919
0.07396631654934563 -0.07368056987408374 0.10342076321489992
0.07422242475958915 -0.07271066144259353 0.10332048993946157
0.07446214120430751 -0.07165510189968674 0.1028360524835751
0.07468273912887197 -0.07076858547554266 0.10255466855675091
0.07483321175000787 -0.07014680129395591 0.10252330504958355
0.07494868592124287 -0.06961898353445241 0.1021577303330911
0.07492894582160715 -0.06979979875874177 0.10309140981870855
0.07518471885516576 -0.06882649131202988 0.10327781291932905
0.07541296867364108 -0.06800462929101839 0.10302612304120756
0.07553993626499843 -0.0674770882708628 0.10245141915433542
0.07558290567935322 -0.06745192415663408 0.10324569145649858
0.07581269910462557 -0.06665961689554799 0.1034394016600269
0.0759751060992368 -0.06594212390988231 0.10330544681558487
0.07608189942928599 -0.06549775963458082 0.10283246662724259
0.07610486290673554 -0.06544848920909922 0.10356594697624041
0.07624885012357865 -0.06473087268598753 0.10371316244194173
0.07638968166996804 -0.06412263003424717 0.10367973216729519
0.07651741567539681 -0.06355579465304524 0.1034557467836559
0.07645165239010128 -0.06383896966624908 0.10432929481919812
0.07661860663992683 -0.06304975347517906 0.10325862371056678
0.07665218107156281 -0.062925122167999 0.10413368090091665
0.07691704094328444 -0.06183454878908659 0.10398332477214854
0.07705189801965431 -0.0610595232271508 0.10339185468155478
0.07713961977719917 -0.060912397821677206 0.10418560218303329
0.07727473880161742 -0.06031633989825046 0.1044449669806666
0.07740972196465234 -0.05969776592198344 0.10456474131371606
0.07750081372431901 -0.059246026192147146 0.10474813489766883
0.06774856944527646 -0.08568470354850738 0.10533167821638588
0.06805815064924622 -0.08510432914849927 0.10539010302399446
0.06801104637454765 -0.08534238028285651 0.10574598180606183
0.0685150117098518 -0.08422015621535138 0.10524793961614921
0.06839687633753044 -0.08467932766050901 0.10592780213820746
0.06904039166675145 -0.08328477194435002 0.10500066273416908
0.06888340598432481 -0.08386598648643984 0.10589188342426911
0.06958022337271674 -0.08239617901094246 0.10469201317563676
0.0694061453011492 -0.08294229353249595 0.1056251116794503
0.07000769843418328 -0.08168644494266596 0.10435324246851249
0.07004054279069577 -0.08194122242584707 0.10520240836441805
