# .PCD v.7 - Point Cloud Data file format
VERSION .7
FIELDS x y z
SIZE 4 4 4
TYPE f f f
COUNT 1 1 1
WIDTH 788
HEIGHT 1
VIEWPOINT 0 0 0 1 0 0 0
POINTS 788
DATA ascii
0.07680991824254252 -0.05544609001212275 0.0881043585392251
0.07665351830941998 -0.05442592568887304 0.08771320248391712
0.07686913476712508 -0.053601075288136686 0.08822766930897291
0.07688505698601879 -0.05270019522573946 0.08827644921693041
0.07672646979028902 -0.05219282473859247 0.08808509463924695
0.07696278901292744 -0.052049678003715336 0.08857342015298074
0.0768706932590682 -0.05118050827311751 0.08839920894875249
0.0768659292115729 -0.05082684831245901 0.08831056716772248
0.07716018408953917 -0.0507068024470279 0.08891018600998371
0.062385492109137415 -0.092128035092604 0.08924584125708311
0.06257466351334424 -0.09191080581149773 0.08923457182414682
0.06263306963957935 -0.09206909976532113 0.08976487241821757
0.0629278606467192 -0.09168852568740722 0.08958083129730508
0.06306004358359601 -0.09121885595448595 0.08874106524141073
0.06376116346101689 -0.09042431863510246 0.08855243444392612
0.06432854374774725 -0.08987658283761041 0.08843517077447147
0.06472414312601922 -0.08934195949188108 0.08806644540194299
0.06473603926663446 -0.08951963449276874 0.08879947387065712
0.06544289885248662 -0.08854811830074334 0.08866822985386993
0.06601086087727186 -0.08767017063851337 0.08855542439918347
0.06647080426529862 -0.08683295290797324 0.08851548598603831
0.06693687927182035 -0.0859892486024994 0.08839284050889412
0.06739120795334722 -0.0852117003632637 0.08828161493588428
0.06811063358106967 -0.08378324030673578 0.08670401780488281
0.06796314647103611 -0.08417424411062419 0.08764112591253553
0.06868850559819818 -0.0830575417255258 0.08763198797586667
0.06933006581258067 -0.08211169985657596 0.08759356415114246
0.06996745119302474 -0.08119413250295326 0.08751212683242814
0.07065853867518436 -0.08024519073288046 0.08731755665155935
0.07132054153964114 -0.07928913543186557 0.08701714467511569
0.0719333192810386 -0.07845047577932655 0.08680752288390763
0.07248796275175148 -0.07769748945528855 0.08673793938018218
0.07307789244603036 -0.07704753150573876 0.08669032333458962
0.07359977505105846 -0.07657200848840394 0.08646700132710884
0.07406902617879078 -0.07625217514294108 0.08604979887587606
0.07394168472265564 -0.07634717952015722 0.08669535199575769
0.07472273068105159 -0.07587714730642219 0.08657709165573933
0.07536980393628723 -0.07547925780502171 0.08650865321237228
0.07599388728451702 -0.07507631891171879 0.08593268483942246
0.07628038858683917 -0.07470471306682988 0.08624139774930512
0.07675638738998793 -0.0741120653416683 0.08628389462759882
0.07707206712738586 -0.07357605646640977 0.08639013330412
0.07756634295670989 -0.07314717851241195 0.08587486508481174
0.07772725879779693 -0.07267988207094812 0.08605190125863652
0.07790093423141692 -0.0720678813397779 0.08623762091421462
0.07814872311358143 -0.07155243805343808 0.08608648117399624
0.07830626364852192 -0.07127861308770744 0.08582333988741209
0.07821236867211329 -0.0711312617993588 0.0862651818485124
0.07827249053403798 -0.07056901802338716 0.0864850012005419
0.07824659340379318 -0.07004850065986439 0.08675758594008157
0.07845806197029766 -0.069402613200197 0.0862223759915857
0.07825272123918754 -0.06949469845939292 0.08670938061329359
0.07832083119394086 -0.06902433218815977 0.0865255185187839
0.07817737205256045 -0.06834931346770245 0.08682700911831352
0.07820508567915976 -0.06759773567905134 0.08656618379428169
0.07798397121965275 -0.06688683249917056 0.0869595934378249
0.07784662944734509 -0.06614867690657938 0.08732826044353023
0.0777764469656944 -0.06547711233790354 0.08697190456974395
0.07763338500586298 -0.06470984892486382 0.08736533540340839
0.0774911848116375 -0.06398249501255225 0.08770858259521723
0.07729921480590633 -0.06325555402804273 0.08747328841272156
0.07724061084098018 -0.06277427638002987 0.08803708664042645
0.07694995306839712 -0.06133957046855506 0.08760279642755371
0.07707713972934356 -0.061769408316015004 0.08821393031975554
0.076948890697706 -0.06087759479913235 0.08802222925716963
0.07687385785697633 -0.05986554556513114 0.08820457642823702
0.07682186544553336 -0.058879676971643674 0.08829932666752831
0.07672750129065793 -0.05831510047510922 0.08802924344734507
0.07683134119634163 -0.058202953043935544 0.08863127566341948
0.07688013290787708 -0.05741750915312485 0.08895570944984228
0.07690129411418117 -0.056436332616616784 0.0887474898373296
0.07702239747990874 -0.055502422927413676 0.08878610214891289
0.07699505307120667 -0.054713163258922996 0.08852706608868809
0.0772490618569546 -0.05418478243463865 0.08921364655319886
0.07718112530116406 -0.0530923310927321 0.08890353546695069
0.07739026400071526 -0.052428085536879575 0.08944597289640488
0.07724131889668778 -0.05140261148729164 0.08912987859015531
0.0775135099547189 -0.05078540291025126 0.0896973465229236
0.07746462185829317 -0.050331964289514385 0.08954497997482301
0.06346877889443082 -0.09099855552994603 0.08939540123276678
0.063247638712363 -0.0916463333020575 0.09042513383792673
0.06405912964076005 -0.09029123406968503 0.08901921041172765
0.06404599388457674 -0.09051273396695936 0.08991122517440037
0.06500129710323332 -0.08933256509780678 0.08976189860287834
0.06568283683020928 -0.08833985094685796 0.08929149502723141
0.06615522585623339 -0.08756048830439973 0.08933094993365719
0.06662762784987422 -0.08663723657367388 0.08923179629951875
0.06708755273665289 -0.08579175494422281 0.0890800975772946
0.06758630325250642 -0.08490267145326104 0.08887301680751689
0.06814334613107523 -0.0839367414086379 0.08868800739106526
0.06875756538345333 -0.08296882262797686 0.08860503595651938
0.06934068388433913 -0.0820328546884361 0.08855007133772079
0.06999476645840914 -0.0810626112942979 0.0885155756664518
0.07078660255631525 -0.07990271705046133 0.08817594456610964
0.07144683288122568 -0.07901689881338023 0.08762899583551911
0.07190742809850216 -0.07837012113504695 0.08759523507441806
0.07247398299391572 -0.07766448152255735 0.08750902875454616
0.07293157030893627 -0.07714069361469518 0.08730676066246917
0.07333572259424544 -0.0767859018555785 0.08695515599842686
0.07322675543514169 -0.07691592062856237 0.08756775395970713
0.07396375335381795 -0.07639892501482666 0.08746522679793049
0.07470186870462171 -0.07585485428717978 0.08731691489868079
0.07531709960822153 -0.07545773536221752 0.08699227241311218
0.0757417786382447 -0.07517021841537048 0.08655087110309122
0.07555373049528695 -0.07517210094384603 0.08716964430094568
0.07607587762076352 -0.07460948815152349 0.08708827642454262
0.07647249849035953 -0.07404570713182022 0.08708995274713338
0.07676368632270912 -0.07353134663928325 0.08716308042850532
0.07728821173528247 -0.07310697670992461 0.08657595292093664
0.07742043920331801 -0.07260190662888544 0.08682075428767787
0.07749502717898007 -0.07203180102002596 0.0871108501429751
0.07790582602962784 -0.0715467401047946 0.08662890521485944
0.07796947854795015 -0.07098748854904398 0.08690636182697847
0.07799406461337363 -0.0703899688628514 0.08715514556205549
0.07797080925353209 -0.06972688579265592 0.08737674246639593
0.07799808532388085 -0.06922289570817064 0.08721502963642154
0.0781324009424566 -0.06896507481783838 0.08689975893654941
0.07792569591776347 -0.06870200942637679 0.08742370808541143
0.0777780136844496 -0.06794985335886092 0.08781690482412433
0.07794300627745575 -0.0674737577588417 0.08732050045610126
0.07775925466639455 -0.06672264022192215 0.08781605013201432
0.077683968465302 -0.06600432925856799 0.0880235032221338
0.0776777771715742 -0.0654076458792618 0.08772331568909131
0.07755750851373014 -0.06460378572858333 0.08818356880292233
0.07744932386371434 -0.06386655133609406 0.08823452554443267
0.07736765194478021 -0.0634456158766979 0.08799523384797737
0.07734263589457603 -0.06332693739312986 0.08850159325794218
0.07721242110504414 -0.06257462266553342 0.0887697859118528
0.07709770692638555 -0.06173872303018481 0.0891144831772862
0.07699417772707864 -0.06087689679297295 0.08871750857882876
0.07695545578390005 -0.060045216073855136 0.08923691840977878
0.07691629127515283 -0.059069503497695165 0.08894280687850367
0.07695563403286407 -0.05816777480396308 0.0894941102269293
0.07698388749424773 -0.057333908800347215 0.08951549564590143
0.07694127135023053 -0.05694103558764785 0.08924591363810234
0.07704604488669978 -0.05664646911322178 0.08973428781365968
0.07711039526177334 -0.05578211308924914 0.0894274177732596
0.07716565363497027 -0.055064565249486205 0.08915292197494291
0.07730425146225249 -0.055039805877466826 0.0898375915621787
0.07749505374926627 -0.0542686090926384 0.09013175892183112
0.0774995122451033 -0.053436437856243364 0.08974163135837694
0.07770769469004596 -0.05284029848457021 0.09040833020074976
0.07762533785437195 -0.05175263866893954 0.0900074936821714
0.07786639003452543 -0.05103127249092752 0.09061179300718983
0.07779917980898607 -0.05026956910798824 0.09037706152492826
0.07811164851880414 -0.04986179238979279 0.09114582397117453
0.06318957335000748 -0.09211894683838408 0.09133286730543069
0.0633457620502901 -0.09193302655440133 0.09137609291275949
0.06372270903977142 -0.09127066660692451 0.09105789761851021
0.06358419915798874 -0.0917894649782967 0.09187544727267641
0.06437318134231176 -0.09031712514758203 0.09081914231961362
0.06402984867983207 -0.09104340210036524 0.09176469225190016
0.0649915481518787 -0.08947379996693311 0.09071257521041665
0.06468374933941042 -0.09007733774876663 0.09166533151265012
0.065264946373139 -0.0891193486545394 0.09116977405457846
0.06560131464295091 -0.08849604383081587 0.09023293653469108
0.06631241964815592 -0.08732397769476385 0.09026220898201508
0.06680753099142414 -0.08635763374153191 0.08984721260674468
0.0672057424174883 -0.08560550344708291 0.08981394062023526
0.06767969253515466 -0.08472918068120244 0.08969694680261645
0.0682158149938472 -0.08381832831781597 0.08961806905937716
0.0687531508779092 -0.08290761367968683 0.08955495888222396
0.06931320885778082 -0.082032734519207 0.0895215788437202
0.06974949700289118 -0.08134874823213373 0.0894097796021705
0.07018985920728835 -0.08067294329465688 0.08916674639612254
0.0697954337445817 -0.08125621598607881 0.0899586731034562
0.07067824461305273 -0.08000947842685611 0.08905641438447395
0.07030168162840691 -0.08050057995841056 0.08990890979422554
0.07083052255773094 -0.07977656012732331 0.08946514607053034
0.07128365140043592 -0.07918379022755838 0.08859579263531386
0.0719256446888975 -0.07830421600998694 0.08829636079383037
0.07234896260074586 -0.07778121178782711 0.08815869568646055
0.07271336168410784 -0.07738528203479168 0.08778560893506034
0.07264819140575324 -0.07749851656776587 0.0883413232426209
0.0732108982541264 -0.07702490853193682 0.08836234846775376
0.07391538271210187 -0.07642119705062134 0.08831041755468694
0.07456146235463694 -0.07589923615061209 0.08794056355732906
0.07502069651702327 -0.07558787536361421 0.08747602155564582
0.07487559108460526 -0.07558483298284008 0.0880165627197829
0.07533795463083866 -0.07511523645269981 0.08799971626085772
0.07579120374605947 -0.07453510673372613 0.08793763412069741
0.0761702881723793 -0.07396502229975709 0.08790429827171967
0.07644537592530762 -0.07347486528577167 0.08788344681974725
0.07693817140134306 -0.0730720811840361 0.08733377088462613
0.07693239101202604 -0.07259510960596452 0.08778772372358859
0.0770681540576132 -0.07190320081275872 0.08800362540609764
0.0775566685795336 -0.07142814420722941 0.08738797124948283
0.07758291576232215 -0.0708137820962621 0.08764699879007276
0.07761330548214752 -0.070177448105549 0.08788643410428014
0.07755528791960774 -0.0695708203034529 0.08820113633558481
0.07775669596725769 -0.0691328121194306 0.08781929145942123
0.07762275746638898 -0.06850993825019414 0.08817846504894716
0.07747087596256097 -0.06795860583202441 0.0885312174856971
0.07769544674549601 -0.0672841194382827 0.0879720464252822
0.07745987896714464 -0.06739953461173324 0.08853467198622024
0.07755612833351386 -0.06690864748016934 0.08837155503604426
0.07750012832914197 -0.0662672683673286 0.08875358166867499
0.0775484837721496 -0.06542000655334411 0.08851170704772386
0.07745813224976175 -0.0647106614244608 0.08906236563191802
0.07741084902241825 -0.06396780895233835 0.08880204109803636
0.07730353880291474 -0.0632767091291416 0.08921370362365784
0.07719020515577779 -0.06247406065558995 0.08958038151354415
0.07708116640175798 -0.061675954335406326 0.08988627866868064
0.07701520254230745 -0.06094904587410979 0.08954334598163688
0.07698849781648187 -0.06024217085856074 0.09018388896851427
0.07697615144599596 -0.05921187048627304 0.08983842255072164
0.07703989082518538 -0.058416775828684535 0.09046185126858929
0.07707146778919499 -0.05750343595193406 0.09016030052293134
0.07715537411544045 -0.056726998826736236 0.09070215012737169
0.07721750310160527 -0.05586692208853171 0.09030010360145173
0.07744938251171876 -0.055015189094322875 0.09080973234847796
0.0776089750352236 -0.0542140352802862 0.09078904631105345
0.07765247076058075 -0.0536950934832171 0.09042029656178795
0.07775876600725537 -0.05361742727087695 0.09107310950456027
0.07789631683117146 -0.052826162018490455 0.09133432447050246
0.07790265231787594 -0.05200281193979097 0.09091817559077059
0.07812170123307632 -0.05131937654530612 0.09163281143450239
0.07810829548120712 -0.050322039688154456 0.09128978926170948
0.0783820714115742 -0.049785326531027026 0.09205653412727864
0.0633121393128053 -0.09214674759251247 0.09184393100057413
0.06353168142770088 -0.09207405868846728 0.0924271805863627
0.06383933641391262 -0.0916787250003543 0.09254136163920651
0.06428680053164354 -0.0909424244569127 0.09252598845659502
0.06474632768525744 -0.09021114207206225 0.09254487324807732
0.06579076921068239 -0.0882865829309541 0.09118185072412908
0.06528401851391862 -0.08923778956892978 0.09211281477931316
0.06625883650534403 -0.08744745773300931 0.091238856792671
0.06599001278878668 -0.08805876693724653 0.09214061141814006
0.06645225632281955 -0.0871417490401587 0.0917689246474366
0.0668041571537802 -0.08643044702901817 0.09084290073353345
0.06729899035523142 -0.08540309100515057 0.09049914508750727
0.06772508100227238 -0.08465586963071435 0.09058746846841899
0.06824944860460522 -0.08375316760031928 0.09053145950593883
0.06876896522605698 -0.08287193456996421 0.09044313063267108
0.06914193193767589 -0.08223045411267696 0.09026698265006589
0.06946152751969394 -0.08176705761273036 0.08995421591070754
0.06931626642796287 -0.0819651966920829 0.09064885136684162
0.0697890964838682 -0.08129967843504685 0.09069995193132778
0.0701961856421991 -0.08068992765883369 0.09074201694664133
0.07114156975703514 -0.07932976720271308 0.08945403254387992
0.07076562683981952 -0.0798249597019452 0.09031786573575255
0.07131025141863001 -0.07905628360929118 0.08979172815506238
0.07155986043648212 -0.07875885906282298 0.0890880644011295
0.07208398323210423 -0.0781222993622598 0.08880101239908803
0.07237512050729422 -0.07786025425421443 0.08929554762632963
0.07308852553476419 -0.07713618344936775 0.08922373531714303
0.07359498161625905 -0.07662415620566185 0.08922793717195918
0.07424489024784797 -0.07610048825232962 0.08863790340249965
0.07445989530896313 -0.07574532249887035 0.08900276064960684
0.07499658592978437 -0.07508059132474248 0.08891927348059522
0.07544457896970305 -0.07443737558888201 0.08882300397606233
0.07586022837341945 -0.07382726440762044 0.08871914597018336
0.07625290264211426 -0.07338296060787286 0.08842414484199063
0.07658797813784515 -0.07310042380668566 0.08799161857220371
0.07626995117757811 -0.0730339303480987 0.08870550659618022
0.07648683543141405 -0.07239464919325515 0.0887662282819884
0.07659330353007042 -0.07169930386258662 0.0889639084656574
0.07714277756060818 -0.071257311205571 0.08820628096743788
0.0771545196412214 -0.07060392728481849 0.08854173008565769
0.07727970957531802 -0.06999241416188422 0.08861436919365144
0.07713666072817826 -0.06947415853301513 0.08901949547016268
0.07738773835087792 -0.06896975892260998 0.0885824249065206
0.07727542129064838 -0.06832917569628535 0.08893756066583515
0.0772262831478973 -0.06767117638035364 0.08919399909207303
0.07726577724874001 -0.0671904212113481 0.08911158231044282
0.0773810107622575 -0.0669012208146002 0.08882932950800529
0.07724373973699417 -0.0667313938945381 0.08950185294035656
0.07726194770876822 -0.06600903783829697 0.08974111146885481
0.07739029767897618 -0.06544327785485303 0.08933572567137597
0.0773004978606984 -0.06476820321750022 0.0899881102691302
0.07732490223274548 -0.06397920374047995 0.08960087460465786
0.07721779632249949 -0.06320527789746229 0.09006636207939962
0.07710628283105217 -0.062305054151020806 0.09050153672682013
0.07706761903691034 -0.06151909334123932 0.09046935762254527
0.0770123492343426 -0.06105822603292609 0.09016421610821114
0.07701116022644743 -0.06090243091495853 0.09078755356581913
0.07700698662659748 -0.06011499335072353 0.09109614314383561
0.07701315809857524 -0.05933231817970217 0.09073870214317324
0.07706613087582018 -0.05860494434530921 0.09148418394256444
0.07713866045137477 -0.05763093280510541 0.091099718266558
0.0772195566605269 -0.05679730051939325 0.09163004252585018
0.07729419274619859 -0.055961983632035125 0.09124587022282679
0.07749385698384997 -0.05527227833457153 0.09183936004055711
0.07764925685318905 -0.05438860133379436 0.09150531647163314
0.07785803682342748 -0.053548510382788864 0.09203966367670245
0.07799046713138943 -0.052695268766436605 0.09201079027196776
0.07803068379389017 -0.052189710683738205 0.0916255328169709
0.07813545071483032 -0.052040372692203164 0.09231834619274507
0.07830138599682827 -0.051216968918612486 0.09262490349878016
0.07833149289344057 -0.050456558769413996 0.0922392088273676
0.07860203757658256 -0.04985418561011238 0.09304034857770256
0.07866064318320727 -0.04943042847001958 0.09285861618755085
0.06379713048508368 -0.0919713043227295 0.09311964274662812
0.0640819590574733 -0.09152138519431682 0.09325797283621151
0.06452414465212014 -0.09078586802828884 0.09327688259089012
0.06502774390737556 -0.0898819103374589 0.0931427835020114
0.06556728841920136 -0.08896007876138969 0.09298114721013324
0.06601070095133646 -0.08821250912056136 0.09304378064534012
0.06677620944868523 -0.08653912405055371 0.09185378837609154
0.06648250078118309 -0.08722936971150762 0.09273869806924806
0.06694158757149722 -0.0862494953557073 0.0923925929568566
0.06722215371077331 -0.08561566559845094 0.09147779125739586
0.06779724894615768 -0.08456580632052531 0.09158574871547275
0.0683494309147119 -0.083635869105011 0.09129097551420629
0.06870973773706433 -0.08302405930286075 0.09114593666797902
0.0689578406667293 -0.08253719794246075 0.09077523982249808
0.06893128127108666 -0.08265834101538841 0.09138014453123652
0.06933377622680427 -0.0820426187230333 0.09148972543079018
0.06980917393952187 -0.08129716902759411 0.0914791203521507
0.07030166350468477 -0.08055182317194044 0.0913485581002858
0.07075206348665775 -0.07986124720014169 0.09124458162563509
0.07174202348581886 -0.07853551597098281 0.08952202782110222
0.0714785973966479 -0.07887188243514978 0.09056528999354657
0.07237871822007563 -0.07781188425477745 0.09017411776462297
0.07297479377054814 -0.07712183127806392 0.08996056619445847
0.07338493876707965 -0.07667770716584704 0.08982734865702163
0.07385428804194889 -0.07630161851997268 0.08936489978246907
0.07354157915425949 -0.07639645357770825 0.09014454430815873
0.07411562539101801 -0.07568045084007488 0.09000044095905269
0.07459405658319328 -0.07499060333347035 0.08986690144644847
0.07503217386013714 -0.07430245078067624 0.08978760794125024
0.07549593666036031 -0.07375723499136613 0.089407273775273
0.07592965432328974 -0.0734771460251284 0.08894454653763745
0.07560314731749974 -0.073384584482451 0.08954228683827792
0.07582782433313129 -0.07286646821980448 0.0896119658762845
0.07604051274147504 -0.07224801963590417 0.08967750209914223
0.07614985291920001 -0.07175232619366759 0.08983234915507776
0.076807564096824 -0.07109870876950894 0.088869714146418
0.07643170510021882 -0.07122663402339005 0.08960856155399084
0.0767470335437372 -0.07075841885664917 0.08924117258968856
0.07677811046721246 -0.07016808725493215 0.08952428493830726
0.07674316794766407 -0.06938070683626438 0.08989089973450178
0.07701018527072484 -0.06883792577648402 0.08939605383412903
0.07698056775713322 -0.06814620312720292 0.08984782972067504
0.07704607070523933 -0.06753180555809359 0.08985099584228236
0.07715434682331251 -0.06723426026370251 0.08955889935786772
0.07704905783104168 -0.0670777964816398 0.0901489467458682
0.07707182136778222 -0.06638727482724352 0.09048693171236713
0.07715374917480959 -0.06576449280944668 0.09040009689761404
0.0772506868449844 -0.06545511228679021 0.09001364229788703
0.0771761055658562 -0.06522755229606846 0.09066288913266331
0.07714676446394134 -0.06454776852094363 0.09091075347825969
0.07718444875627245 -0.06395242438759795 0.09045939466484729
0.07710212507563934 -0.06322548068449625 0.09107247411796826
0.07704846317229326 -0.06233352129199807 0.09144483848857535
0.07706621693109701 -0.06161772701414407 0.09110293527069925
0.07701471535295222 -0.060846015564183495 0.09176968170960631
0.07701576825300181 -0.05992615940292771 0.09175555243298464
0.07701584682192161 -0.05943163142676173 0.09142469927997497
0.07702250631133242 -0.05926532271115844 0.09208663757193515
0.07709685072980828 -0.05852833663023974 0.09241618886115421
0.0771702367400039 -0.05762504305294 0.09225016354074039
0.07723040613333138 -0.05673167709585471 0.09236589791031745
0.07732593356663288 -0.05608809853853747 0.09212867886186657
0.07750857934723362 -0.0554959992462972 0.09287743168590508
0.0776886591156462 -0.054539685269985275 0.09248180296844055
0.0778922168437974 -0.05374458072664004 0.0931639951250002
0.07804216201010766 -0.052809797657225516 0.09279019965165367
0.07828504539363515 -0.05189837453376793 0.09333692848725178
0.07844662207562181 -0.051048610218877195 0.09336328278129982
0.07844877405378085 -0.05055642662548559 0.09297854210578844
0.07859108203355426 -0.05038928968984649 0.09368986312518478
0.0787861664555284 -0.04973362378382095 0.0939889064466096
0.07880974110243191 -0.049406706099189734 0.09356564939793233
0.06407780208942641 -0.09169492449292752 0.09379067052241523
0.06432141537011171 -0.09126887051077931 0.09386078364960782
0.0648428004487756 -0.09049963371842969 0.09416255903232576
0.0653204885283006 -0.08954922448004113 0.09374649449925813
0.06575389503214447 -0.08879703142192087 0.09373591092870792
0.06617402119816256 -0.08798463919911399 0.09365577376848873
0.0665462888758308 -0.08727561467238933 0.09367969217011916
0.06737157279888176 -0.0854610632792979 0.0924551842176096
0.06695905940673685 -0.08636370941131995 0.09333328535902029
0.06774820015186578 -0.08474639362212624 0.0924917555155012
0.06757986193836803 -0.08521365383011896 0.09335183209096422
0.06798711952893827 -0.08441340800055976 0.09283076063193649
0.0680952315795616 -0.084104247227945 0.09212168617471816
0.06852716261783848 -0.0833877740353171 0.09182364642837895
0.06880279609119566 -0.08299078333390063 0.09236409846122096
0.06940408727190152 -0.08203639214513352 0.09236455671640592
0.06991373542359146 -0.08117798927261546 0.09222571482329181
0.07038965590149793 -0.08041992843149075 0.09206917287725898
0.07090347249404141 -0.07962275012484378 0.09188300053616323
0.07134178531558767 -0.07897602483802282 0.09159354495216827
0.07183864250845595 -0.07834430300731816 0.0911839983756708
0.07147771218180811 -0.07876752932161965 0.09207678657457345
0.07247564639851585 -0.07757979668246102 0.09082661562632052
0.07198230408280941 -0.07806025003812818 0.0918133577311502
0.0730074723583125 -0.07698584008613678 0.09042826971335317
0.07269811767681572 -0.07718645575345444 0.09133644549433964
0.07330081006396207 -0.07634917980144387 0.09114881899219494
0.07379909104974675 -0.07561010920558794 0.09096338653058568
0.07422617670904151 -0.07493479658865161 0.09083285285078067
0.07450518394171979 -0.0743762480978954 0.09082343208527015
0.07505698052057147 -0.0738633399095924 0.09015566899672102
0.07509415551105267 -0.07343325015865253 0.09057924657460922
0.07542643198564584 -0.07273589070977882 0.09056670357912112
0.07569730723026008 -0.0721124640544529 0.09054950812975844
0.075931025734117 -0.07149986626783715 0.09048105245425556
0.07620011606715632 -0.07103569118729215 0.09023233718956919
0.07648950019328477 -0.07075782987803389 0.08981560017666101
0.07622783876306315 -0.07062901172425809 0.09058690454373454
0.07638541940995185 -0.06985366123779782 0.09067971089528334
0.07650600247535723 -0.0692474114214141 0.09058682067756194
0.07672539565434454 -0.06880048141442985 0.0902571549107209
0.07666537153655655 -0.06831867751403148 0.09095356916312548
0.07687528301785554 -0.06762110398844551 0.09053067979471668
0.07688125653775739 -0.0670393410080479 0.09102397899694789
0.0768794178388017 -0.06640177981009394 0.09153082720067053
0.07703824768726722 -0.06576060450087416 0.0911130365027291
0.07703121331438238 -0.06503654323468103 0.09162360178113226
0.07705461116921901 -0.06433971970672604 0.09156998463435144
0.0770979946295111 -0.06397500842602818 0.09116569077803266
0.07702240115827413 -0.06376179207973477 0.09183128323829767
0.07697885183918947 -0.0629312924535687 0.09215425826517462
0.07701064298815476 -0.062190595635158705 0.09210418217083109
0.07703371376029117 -0.061723375960470776 0.09176254781846
0.0770111766081533 -0.06160847082811397 0.09244313963577148
0.0769983088429437 -0.0608328267892549 0.09288141747180541
0.07703017488711367 -0.06001299717247925 0.09246938271901704
0.07704232906448903 -0.05914111480413862 0.09303118342782755
0.07710974870042475 -0.058377883501380665 0.09303963911624374
0.07714652041809048 -0.05806142753060265 0.0927401220165888
0.07715786773566051 -0.05770537465522812 0.09332166936518091
0.0772345466166007 -0.05689100187158219 0.09304678749706827
0.07732724710123624 -0.0562789468056863 0.09278530023452508
0.0774010714992973 -0.056151439333896574 0.09355306811976517
0.07760107970023349 -0.055381199532272204 0.09391843884466318
0.07773529690705416 -0.054671908289560055 0.09348850163176252
0.07791847153688505 -0.053939385830363465 0.09430670195176127
0.07813125805041365 -0.05285068559360947 0.09392718972950954
0.07833231898763385 -0.052018312788148766 0.09418385120709666
0.07852541460513089 -0.051203484571241305 0.09424374405462732
0.07873903022947935 -0.050210379772175774 0.09447448251834654
0.07887031596305456 -0.04974013440659763 0.09466720196192725
0.07890350952411992 -0.04943930699794212 0.09418402490656604
0.06444489867243626 -0.09123292611521173 0.09432376258908579
0.06479962225560684 -0.09076655162876034 0.09485598509109036
0.065040453127831 -0.09033602874613823 0.09499379135343008
0.06507858292889748 -0.09041143594714482 0.09549012776474468
0.06527613984813056 -0.09002016024599631 0.09544956247188446
0.06547295106216836 -0.08950719418400194 0.09466874646151681
0.06593940761927547 -0.0885326302805019 0.09434115102283393
0.06631361524429938 -0.08783224867482768 0.0943706282465752
0.06672426242898999 -0.08700958425293762 0.09429143984853598
0.06717807332198282 -0.08613298908218907 0.09428894354099565
0.0676671093113736 -0.0852651367857861 0.09439221843372525
0.06832382239596703 -0.08381664897209315 0.09254896289801491
0.06824594015154031 -0.0841272703472838 0.09351851389082932
0.06896500035714405 -0.08289554157131539 0.09336769751108083
0.06957520772691951 -0.08183639255122925 0.09327279391938739
0.07007543834178481 -0.08096995911900515 0.09281667002445335
0.07048237026165889 -0.08032295458728454 0.09286487631128064
0.07088273475012256 -0.07967672122539585 0.09261227600060581
0.07112013869419391 -0.07925737985140606 0.09220578765417108
0.07113032106323892 -0.0793015676168665 0.09281091996794381
0.0715322529363136 -0.07868911321626225 0.09280349762841347
0.07205935638803652 -0.07789693206278746 0.09258545720574167
0.07261861620809004 -0.07705546348822438 0.09234087169376372
0.07310994733127167 -0.07623988362264386 0.09209225039083527
0.07353977102084162 -0.07552298225616232 0.09185510965267696
0.07390339515462137 -0.07488064219686838 0.09177238109331393
0.074242064444363 -0.07436021607733356 0.09147366333898962
0.07462449106627492 -0.07399304158155597 0.09094809923330709
0.07434240479311119 -0.07402224685287011 0.09175653625919732
0.07477664460046039 -0.0732946347448452 0.09163424343368097
0.07513750335154047 -0.07257641204953928 0.09148932768456985
0.07547377662079775 -0.07193287902556883 0.09140204338158203
0.07572625006433834 -0.07144241064512906 0.09117252926582983
0.07595978262336882 -0.07111774611450984 0.09078087645807739
0.07575898497330782 -0.0711031110071619 0.09161411288269096
0.07598980811841473 -0.07039431431199658 0.0916725352297656
0.07615808731121261 -0.06985469883529531 0.09152545141904334
0.07630738040361949 -0.06939333366054873 0.09123671483413025
0.07609834718122134 -0.06959488100466017 0.09201158767479635
0.07649395359408977 -0.06892177738724106 0.09094766137294427
0.07632655604601957 -0.06893303781406361 0.0917862558693055
0.07645152689579429 -0.0682355306656783 0.09196438843278446
0.07667578966586 -0.06767016357939783 0.09145951641638761
0.07666502078992461 -0.06710784990567752 0.09211822743359935
0.0767326223544521 -0.06637542735014826 0.0924513516643026
0.0768917938389554 -0.06577949278715634 0.09204153359857614
0.07682889517984334 -0.0651988795173144 0.09281097549782068
0.07694482030097607 -0.0644007649545884 0.09231800934248074
0.07692784698765633 -0.0636700732747496 0.09276176438043335
0.07692767856491523 -0.06296123760375137 0.09312441768583841
0.07697462036338448 -0.0623184933986556 0.09277464689446553
0.07695885637886979 -0.061679606803251026 0.0934372363295144
0.07699207001094786 -0.06080848575546621 0.09381701605221827
0.07701425876926786 -0.060047050893480364 0.09339898769682194
0.07699567011751923 -0.05934759063675228 0.09412951768494296
0.07708369885692594 -0.05845509501386302 0.0937692507847276
0.07716402060774386 -0.0576935953090866 0.0944471559770923
0.07728843617076714 -0.056884407406972315 0.09403307873894093
0.07749690145674264 -0.05593154829957606 0.09471800415411004
0.0776793936868512 -0.055161134158082326 0.09470188295606621
0.077747489442774 -0.05475388651106024 0.09427452937167663
0.0778163993913906 -0.054520806037984454 0.09502742514504908
0.07798390910467368 -0.05378024757825987 0.09537851506477271
0.07811070102634715 -0.05309364558767694 0.09499355089892492
0.07829122437652236 -0.05231525894783211 0.09480115030082258
0.07841511153883922 -0.05179323738376732 0.09462927001511275
0.07846096077940319 -0.051679666640072376 0.09523735988274365
0.07871103812349717 -0.050569625236691916 0.09491432850467826
0.07882291518940512 -0.05003156552797964 0.09492546506184199
0.07884876947179596 -0.04999355623193151 0.09505738613697332
0.06556723119308185 -0.08948285239036119 0.09556965809095302
0.06545076058557578 -0.08979741879365336 0.09618834987402902
0.06573734699102392 -0.08915060569359928 0.0961022570650625
0.06600132959386 -0.08856457432412253 0.09526242706790285
0.06647321663691377 -0.08759159541930747 0.09496092112394641
0.0668326779560511 -0.08687038096024306 0.09507240283779392
0.06728757835982958 -0.08605906854866205 0.09519290993068516
0.06765876260266544 -0.08538734676613123 0.09513187275298131
0.06805136275785392 -0.08467678985338016 0.09475707749039283
0.06781987358890385 -0.08518046798505137 0.09559538804741011
0.06857341006843001 -0.08369921767637879 0.09442975723875141
0.06827758833328669 -0.08438484277622726 0.09541225121304203
0.0691398951562819 -0.08272461907611367 0.09426649528574518
0.06877697905868055 -0.08348265788321582 0.09523724705371826
0.06956481035198889 -0.0819684384433517 0.09418338823443508
0.06931649303066732 -0.08251388223771894 0.09511774741854559
0.06976591688959051 -0.0816646678170347 0.09458267810789174
0.07001608367568257 -0.08117087498669025 0.0936842447250752
0.07039929161305125 -0.08052700644025693 0.09366982258219764
0.07075838754571112 -0.07993609846783686 0.09330576879152448
0.07104272704825448 -0.07952062810685932 0.0938044697526794
0.07157751791048508 -0.07861740468097123 0.09365813210135394
0.07205714538366244 -0.0777995940813315 0.09347388993137717
0.07253128596541474 -0.0769147655546243 0.09342869806311266
0.07304239756791532 -0.07607294348848316 0.09275622971806179
0.07333142959563212 -0.07550567921528188 0.09275423617558437
0.07364526391244784 -0.07497573917642374 0.09255004806654946
0.07395744758000444 -0.07458315112484201 0.09209225618937336
0.07372639270319231 -0.07469540611486855 0.09290604629184844
0.07415238993478014 -0.07394941370065694 0.09279633920264886
0.07454874013163677 -0.07315466208207114 0.09270208710919517
0.07500510666732733 -0.07240869111368906 0.09229003329019837
0.07524520376940641 -0.07194863529977846 0.09219256254268209
0.07550851522560191 -0.07161133146010615 0.09179370313675932
0.0752576315230333 -0.07167031473417185 0.09268910130539475
0.0755436756133905 -0.07092945844466113 0.09279734651892996
0.07580845934563618 -0.07035896236336923 0.09251361649756096
0.07597820351348746 -0.07003564552105955 0.09208458667646581
0.07588171512860281 -0.0699722475579738 0.0927262128432231
0.0760456060094738 -0.06940190208320894 0.09278189649447396
0.07622281593883655 -0.06870976791602577 0.092807619264288
0.07634861903231106 -0.06814289356434314 0.09263303316088976
0.0764950464054075 -0.06775792580066524 0.09222600589265191
0.07641529274194085 -0.06773022006712107 0.09303507632700705
0.07655121430552389 -0.06690834467345282 0.093179032680931
0.07664007763823746 -0.06628883765579204 0.09310500427333689
0.07675486169442886 -0.06588748258345505 0.0927869260737818
0.07664642836497722 -0.06587065496068632 0.09360551251575984
0.07668249202792445 -0.06508932835342751 0.09395507993708582
0.07682379514135429 -0.06437626073571937 0.09338257822264052
0.07685201700003044 -0.06354001732107395 0.09384497947596854
0.07692625777969295 -0.06284888328407601 0.09378777765175036
0.07695120214164652 -0.06242794381846516 0.09344661445414902
0.07697247882103252 -0.062293772116552404 0.09413129301527691
0.07699008430034021 -0.06143666418967931 0.09458906542716838
0.07699431464205388 -0.06062262156849447 0.09456311539443217
0.07699916744039026 -0.06015817534944959 0.09413576174532014
0.0769493482867506 -0.05994183556398311 0.09483788446280282
0.07696448534760846 -0.059190680853194864 0.09507783332048192
0.07705700394027325 -0.05851361883199329 0.09474234639490299
0.07712467410942075 -0.057796441961876416 0.09566622217640863
0.07732423703302042 -0.05682388560789394 0.09524460943841047
0.07748726659869076 -0.05591441793303298 0.09601288854001484
0.07769656081272971 -0.05509345939226874 0.09567348200817136
0.07788149816099176 -0.05426356923424959 0.09593403698410377
0.07804753704134976 -0.05358053682770163 0.09634022968969883
0.07813209484584524 -0.053192322633643985 0.09576071108123586
0.07820335227079031 -0.052955761785595766 0.09634899016964087
0.07828725072765852 -0.05251468800382271 0.09580567294943727
0.07846022640925808 -0.05210681278872385 0.09667509031305026
0.0655744252573131 -0.08963529813340892 0.09678834838504236
0.06602457493038182 -0.08855997154683992 0.0962133126522449
0.06584683220732458 -0.08904206925191974 0.09708494799510217
0.06624503540383818 -0.08815300218751906 0.09664777078429496
0.0664580636395022 -0.08769878396912016 0.09580575450961161
0.0669330908100043 -0.08679286785414556 0.09583734745506911
0.06728159252131326 -0.08620785443800583 0.09587844878928495
0.06750670436502354 -0.0857316791977367 0.09562824951910912
0.06750058665639533 -0.08586922094001902 0.09630142629494425
0.06797456898079354 -0.0850462648688487 0.09625178723573315
0.06842862131305302 -0.08422114053000639 0.09614343264131557
0.06885634094363656 -0.08336634002921729 0.09604579597182111
0.06924129529023194 -0.08267532906650928 0.0960455543006974
0.07018355929594822 -0.08097434309087986 0.09443378744953611
0.06975461538853882 -0.08174426482820539 0.09550053618740961
0.07057049309205451 -0.08028098608798531 0.09407192683406283
0.07047844354684206 -0.08050969769560007 0.09515311642000648
0.07118590445290636 -0.07932750435411293 0.09483947993955787
0.0716650844216125 -0.07846432177140221 0.09434093762727265
0.07198878507506888 -0.07785335451150503 0.09445702697303106
0.07227228765052467 -0.07727575586204259 0.09442158428723539
0.07250667995303693 -0.07680662802761425 0.09417376777149594
0.07230942333037518 -0.07710241408165396 0.09497206038058241
0.07262341962996183 -0.07649081135011515 0.0944007032597531
0.0728186502438494 -0.07620395386164341 0.09360880002905164
0.07308656458722279 -0.07568085817327959 0.0935513461623955
0.07338006495488288 -0.07526224863484976 0.09316870598130113
0.07318571497440823 -0.07544093299746932 0.09398776469660841
0.07358638378641928 -0.074672152310368 0.09391710620181594
0.07397155692519629 -0.07391604633001433 0.09387670640214589
0.07428847590740459 -0.07331061505975951 0.09364953813347983
0.07462758249639076 -0.07274928396365311 0.09323600092225816
0.07430388937526934 -0.07314061083634536 0.09418780963215828
0.07496559092236138 -0.07221579211720794 0.09283565615705523
0.07472836792831193 -0.07238167520049027 0.09380227168079357
0.07506778782773083 -0.07163399709161566 0.09384956135840364
0.07533154258852585 -0.07102416378425927 0.09400353707244398
0.07564143948270728 -0.07045182898258523 0.09330933033600296
0.07576676566021422 -0.06996549400393569 0.09372111225095267
0.07599546187219394 -0.06926557179800953 0.09373609750022681
0.07613842737823774 -0.06871586345652111 0.09357877478142884
0.07626416493605237 -0.06832394968510164 0.09320157906555593
0.0761963298312547 -0.06834613975331216 0.09398957904347856
0.07637558618768762 -0.0675449294282905 0.09407334489716136
0.0764820859057628 -0.06691442716370101 0.09395537519380741
0.07656292120120461 -0.0664987218292566 0.09362915612330265
0.07650656467934444 -0.0665316464511644 0.09444370008012908
0.07656130122314357 -0.06570301642569755 0.09469018532985694
0.07662324577415752 -0.06505123649186784 0.0947177650540621
0.07674423461924562 -0.06436655747601482 0.09465894100107
0.07685921502414196 -0.06354394475162153 0.09478188951259217
0.07692044782789687 -0.06296074897232111 0.0944656314499129
0.07697327677846282 -0.06232671037512925 0.09512038184098576
0.07700292351625103 -0.06154142998462808 0.0955717144930478
0.07696625684519097 -0.06068614668622244 0.09552038995987942
0.07692109345949018 -0.05971641390875662 0.09560201357001277
0.07696070835856772 -0.05909198652120473 0.09571551601233562
0.07700855295899302 -0.058619791800418965 0.09549307214800243
0.07700540504871872 -0.05858528325530097 0.09633953101396672
0.0771208419279621 -0.057646790253933974 0.0968925076576536
0.07730703084932565 -0.05667565889001286 0.09672448584146748
0.07744937612425876 -0.05575438525322102 0.09701121971060124
0.07764206745385734 -0.055175222160464686 0.0968137206038505
0.07782843365836657 -0.0544704462063309 0.09671439880813104
0.07792461044625465 -0.054017767678529185 0.09657791739050543
0.07799872788076027 -0.05372326246311805 0.09736909517184533
0.07820481488602288 -0.053002817983631816 0.09713406102658312
0.07832722898619647 -0.05253751346186448 0.09672779487960019
0.07842661001956064 -0.052400099855405884 0.09757477085030233
0.07853918173451523 -0.05206968453206632 0.09769745230412542
0.0657905828702347 -0.08928199308398663 0.09783410612184396
0.06582091256079753 -0.08915221916559099 0.09787216217389216
0.06583966222873384 -0.08917240633949818 0.09807363718730401
0.0666600481359633 -0.08732007659042704 0.09658619077844736
0.06638724931314646 -0.08793324927911307 0.09733691928877261
0.06604604470985505 -0.08864854367489754 0.09786349556132826
0.06709704971330327 -0.08658460415405685 0.0963973080516734
0.06705939468539891 -0.08669285477883121 0.09731084136951834
0.06765925809099027 -0.08566391750641565 0.09698950321071537
0.06807874167527743 -0.08492600853304817 0.0970015239128354
0.06851626588531759 -0.0840929514637981 0.09689795996008865
0.06891688803477859 -0.08329038346341101 0.09684088716323021
0.06936949851167078 -0.08244620162840044 0.09668842161315258
0.06988383346844479 -0.08147867184119133 0.09648472402955093
0.07033156558452143 -0.08074551433020054 0.096253370114868
0.07075772631418926 -0.0800558232447571 0.09591489507307023
0.07042584182666296 -0.0805953172433927 0.09682872711727843
0.07116110585107563 -0.07939362948165957 0.09574641350097901
0.07089976719745787 -0.07980406573670301 0.0966960168232415
0.07132997899732371 -0.07907547675015794 0.09609584468436574
0.07152843324177682 -0.07868663150775931 0.09523078935566133
0.07180202447710417 -0.07813506147825038 0.09527962690707839
0.07205206669038489 -0.07766585632844547 0.0950009749093757
0.07190110192244403 -0.07791723220189989 0.09581106918061308
0.07222496317783532 -0.07719160848027622 0.09580880968101939
0.07285020078583923 -0.07601494196615262 0.0941399141517798
0.07266530160207459 -0.07631834550897731 0.09509228337944797
0.07309974391846043 -0.07542052640412691 0.09497501991955015
0.07347665828579404 -0.07466533306743614 0.09496191166289299
0.07376420206983489 -0.07407033621948089 0.0947551773794142
0.07403337327277072 -0.0736420945344014 0.09432453728149116
0.0738738911458505 -0.07377824127640215 0.09516248798608509
0.07427846100193147 -0.07303023938281201 0.09501923053918002
0.07464668091302755 -0.07230007381851561 0.09488158865201082
0.07494672207274829 -0.07162964358950366 0.09500429691690061
0.07523299324752299 -0.07098710271183908 0.09499660655889491
0.07550459262856322 -0.07054545681965405 0.09415297876328803
0.07552105336671429 -0.07034216022568998 0.09476398563779037
0.07575619730953671 -0.06976297315455716 0.09457144809680978
0.07589916609161206 -0.06930693980856588 0.09452835614936819
0.07602985574196122 -0.06893335639098108 0.09416366391019874
0.07597581115085468 -0.06898469461559772 0.09497579791361775
0.07621906977505398 -0.06821584462016275 0.09500334255589016
0.07634938092546874 -0.06760521035787667 0.09487765419046489
0.07640819447391299 -0.06715701700189022 0.09452414781693551
0.07637444122017892 -0.06724106262279984 0.09534806269263879
0.07646754306385 -0.06641478248421487 0.09550453125454307
0.07652559543726187 -0.06579929243597923 0.09547578717418537
0.07658184322574947 -0.0652751868790472 0.09528989435889815
0.07655279738920011 -0.06556507711170108 0.09603043137675392
0.07663213196093753 -0.06485218904758548 0.09511505128701563
0.07667117542321483 -0.06474974614953631 0.09587316761032329
0.07685907029495807 -0.0637375045211661 0.09576068923990025
0.07690876326625112 -0.06308269551549778 0.09520885172453239
0.07696894554737319 -0.06281234261550779 0.09591155839118394
0.07700376663228992 -0.062073413939813527 0.09601742743924425
0.07699296285014418 -0.06150671250874111 0.09618146828773753
0.07699760038223298 -0.061180829296104425 0.09598826836556183
0.07697301837901051 -0.06098180785986272 0.0966566341832624
0.07695098454504949 -0.060029168917131684 0.09637578255999228
0.07695637624018266 -0.05935884585583687 0.09617751419223755
0.07697689556753394 -0.05928258009161171 0.09701072511149648
0.07697494345303094 -0.058332019850599125 0.09758145694680356
0.07711845783899483 -0.05738214655026931 0.09793124195524626
0.07721495625819397 -0.057071591216974304 0.09732372330364207
0.0772817430884753 -0.05660269682489553 0.09786103857159978
0.077437777759459 -0.05582072529805569 0.09798801426317166
0.0775700628913824 -0.055275350278850374 0.09758817614638202
0.07765397616515358 -0.05512047227156839 0.09826078555786819
0.07783153119286988 -0.054496031768224124 0.09799484454880321
0.07804753903076571 -0.05364416356263532 0.09837901350335294
0.07825441975519606 -0.052993718042147475 0.09836871985111767
0.07847316214567962 -0.052363874633141225 0.0983460011490856
0.06662313023449717 -0.0875063767323645 0.09816316332409193
0.06702260286672795 -0.08674568711886176 0.0984360737037956
0.06681129660870253 -0.08713402285701301 0.09945415352324447
0.067183590218921 -0.08642506371932981 0.09904330941160903
0.06762372033904242 -0.08574910208744974 0.09801806130495362
0.06817217593568005 -0.08474489300417451 0.09765501768837352
0.06854632275923947 -0.08403733227994549 0.0977091462215938
0.06896512198962729 -0.08317923122644813 0.09765091846811134
0.06943439319245454 -0.08230454122530269 0.09759041984821612
0.069818859866784 -0.08158456926783161 0.09731571341668159
0.07008155942838305 -0.0811105938177288 0.09689479717505406
0.07004990501585043 -0.08121426766659261 0.09755617728430763
0.07042656271654424 -0.0806177867440349 0.09763777866996672
0.07081150048923214 -0.07994465162300915 0.09764800414301561
0.07158794341611338 -0.07854256350972663 0.09587564906773008
0.0713859660128332 -0.07893224571368354 0.09699847209941229
0.07193871796461682 -0.07781254616824688 0.09672041061795002
0.07238434136830536 -0.0768510137248727 0.09645128162741803
0.07277307055913526 -0.0760391366234517 0.09585480623411333
0.07306540479274831 -0.07540771839616028 0.09593810838328881
0.07334754727949275 -0.07482550656891995 0.09580093868454356
0.07357563961914908 -0.0743763006504529 0.09539402094043972
0.07347843292442181 -0.07454167577250106 0.09622479106086967
0.0738749626440123 -0.07372621668403792 0.09623340127769736
0.07428884888386386 -0.0728988017397677 0.09588572041639531
0.07458308027906407 -0.07226148673846593 0.09578854006413962
0.07476866085015424 -0.07182433218335373 0.09604937432078595
0.0749795019753431 -0.07142202789444413 0.09548855675996964
0.0750238561699443 -0.0712628716816443 0.0958748940119877
0.07529486148714451 -0.07071657587616326 0.0956416063534278
0.07556259960008162 -0.07010009404432861 0.09545086532889752
0.07534438227860166 -0.07053493162742387 0.0963753667042393
0.07577541509298547 -0.06957342411905479 0.0951438178654433
0.07570511052911928 -0.0696814663917838 0.09614785004618924
0.0760239202952876 -0.06883853437434259 0.0958532842832504
0.07617128034912254 -0.06830518071614848 0.0958115404329528
0.07627466014723458 -0.06786599705034899 0.09546743387296532
0.07618183546035055 -0.06796867839069229 0.09631907227680978
0.07631233230033935 -0.06712892566119931 0.09642510986166988
0.0764155017878881 -0.06649011024074576 0.09629982058102984
0.07649363348487138 -0.06607510556076027 0.09599466557697504
0.07645989623073066 -0.06614734296021425 0.09678333643597234
0.07658037894056578 -0.06536246794084635 0.09693446239641781
0.07670160198012843 -0.06460748717738432 0.09702807048466142
0.07676199494675037 -0.06424062503392554 0.09634778590106036
0.07682644090823691 -0.06387397924496131 0.09680300065589036
0.07693864615069004 -0.06316769902228016 0.0966737606802645
0.0769845346077818 -0.062381178394062785 0.09673102981122708
0.07696627138501602 -0.06275418106576709 0.09752601533437336
0.07697590931068898 -0.06173624127409639 0.096642292569877
0.07699803493614737 -0.06174701095766837 0.09758275724596405
0.07702084460065427 -0.06087000290111698 0.09759718963258708
0.07700254846154236 -0.06012785798567699 0.09734379450365269
0.07704483777675504 -0.059304218088674344 0.09833810412807938
0.07701368221216658 -0.05829885632019405 0.09853227770075026
0.07700483308140334 -0.05789580492893084 0.09822145719783
0.0771309902560255 -0.05752958046186844 0.09902661238236951
0.07729600851718495 -0.05658410830905731 0.09887540396515215
0.07736460517805507 -0.05619705300147875 0.09842216962435689
0.0774542436575297 -0.055849960629886716 0.09901302167318508
0.07770002732311355 -0.0551690897592961 0.09917768382114914
0.07778168385410986 -0.054804385511341626 0.09865016039007997
0.07789478559097267 -0.05444000865851469 0.0991606700533354
0.0780228927085695 -0.05383328358127335 0.09901371281436318
0.07813849798712169 -0.05339399826914323 0.09889822963782725
0.07818675602915874 -0.05339841162801254 0.09940410421995984
0.07836693190550886 -0.05274169281945334 0.09895519354111404
0.06655809933281738 -0.08761589060382932 0.10035592567741367
0.06668901076664753 -0.08736121522953187 0.10044329904836967
