# .PCD v.7 - Point Cloud Data file format
VERSION .7
FIELDS x y z
SIZE 4 4 4
TYPE f f f
COUNT 1 1 1
WIDTH 793
HEIGHT 1
VIEWPOINT 0 0 0 1 0 0 0
POINTS 793
DATA ascii
0.17456307305354593 -0.09900426325977223 0.10464906443417424
0.17532110801222608 -0.09818036994082803 0.10461954244350058
0.17663187696202728 -0.09736659487354066 0.10414712786808736
0.17613145065083888 -0.09718040618014692 0.10469611519293344
0.1769264215983634 -0.09660663092353197 0.10430872102256898
0.17666290733884676 -0.09604750063811043 0.10489515265253249
0.17672603909577433 -0.09542553988023085 0.10517644464560187
0.17638633185005298 -0.09524680171084804 0.10562154554789134
0.15371025212100098 -0.18041969935347388 0.10615672863044943
0.15360892035280102 -0.17961314279933088 0.10623064958312564
0.15337203761493354 -0.17935509243119552 0.10656165190441094
0.15329904792091117 -0.17875031546915532 0.1064781890966187
0.15343009258290738 -0.17813691214162664 0.10604099350419983
0.15306043164027458 -0.17786609424697772 0.10651516807046088
0.15333232432872104 -0.17733101392934753 0.10589232146072196
0.1529976590942929 -0.17728708152478664 0.10640814010233975
0.15292236178962623 -0.1764955323135755 0.10617760099015323
0.15323817218783164 -0.17576901788535285 0.10540268986228413
0.15283703087573094 -0.17540814369710944 0.1058107658986299
0.15325889071285997 -0.1748914213897614 0.105121143239395
0.15282393442465986 -0.17477241766048732 0.10562145535103513
0.1528736265142636 -0.1739909332091453 0.10543859983392702
0.15335706223394693 -0.17328980236835034 0.10471916720452391
0.15298485154853553 -0.17296611311711227 0.10518497599171824
0.153493556124748 -0.17244695570449217 0.10451918701730857
0.15305091514199837 -0.17236302900984365 0.10505050398423571
0.1531430140313025 -0.1716166848057533 0.10493044262153024
0.15359385676018225 -0.1708563768668703 0.10435513339544242
0.15322579014773116 -0.17087776505744118 0.10482041883801065
0.1532453088503976 -0.17012866934240178 0.10471363124658074
0.15365198268564365 -0.16945339647610594 0.10414652399714132
0.15325192177135824 -0.16907162400085493 0.10463208789644483
0.15367893557030504 -0.16866453736330034 0.1040161668303515
0.15327496624733378 -0.16826842322157942 0.10443449077943202
0.15358086881027996 -0.16794548924673258 0.10400828749271457
0.15355345630560743 -0.16710702172306705 0.1039370119751953
0.1542075711279445 -0.16612530013858381 0.10311445155071222
0.15372443627516968 -0.1660584389715649 0.10367657323964391
0.15398595182317612 -0.165536187908374 0.10330608951564134
0.15405810146463317 -0.16512917565700294 0.10312620289802066
0.15385875395372664 -0.16511622780498955 0.10337453622503529
0.15378356511378363 -0.16463483842440907 0.103421333340895
0.15393392138839232 -0.1638311299080917 0.10323769545176663
0.15448615408211092 -0.16294266922602046 0.10248309720462233
0.15388703856233416 -0.16271134292777242 0.1032331652477648
0.15444607044476277 -0.16214949765343858 0.10253779377445695
0.15394246181550242 -0.16150562938242796 0.10322854882688433
0.15435194062050547 -0.16128379599015769 0.10270795177951099
0.15454827429087836 -0.16092037874086543 0.10252320063369437
0.15431815466873183 -0.16082673184977447 0.10278160811129626
0.1543668912129927 -0.1603563168600466 0.10286693794180968
0.1545776834411718 -0.15951224124858565 0.10290877613619473
0.15550837613299315 -0.1587949411007979 0.10207424504442239
0.15499692612606059 -0.15851855806615064 0.10275850496970179
0.15551947217945553 -0.15816393436550105 0.1023241932426808
0.15591165836656848 -0.15783633353815085 0.10207242008702244
0.1556167070820465 -0.15772863151264593 0.10242875903729046
0.15576704627350707 -0.15725599458760017 0.10250269439287583
0.1561415433373679 -0.15686205400165382 0.10233513888232797
0.1558906551165658 -0.1568155415209946 0.10260866990019218
0.15606149025444513 -0.1564128774311696 0.10265467542137925
0.15653018555041714 -0.15597999010908464 0.10241529864451121
0.15681789020825226 -0.1552453780268638 0.10250388249187367
0.15706940283673645 -0.154525064163071 0.1026126871475578
0.15771671019721703 -0.15405833445028796 0.10215126274848835
0.15736651131231227 -0.15414109203886914 0.10247737834484158
0.15750635286826362 -0.15350859116790913 0.1025806925627833
0.1578594881030159 -0.15276513905678113 0.10245776366290954
0.15860500476458467 -0.15200152476879636 0.10189883957981649
0.15804214720773307 -0.15172087835292525 0.1025750471213704
0.15860157827119487 -0.15124327088191647 0.10213419080253594
0.1581688213693874 -0.15066321774516578 0.10274818834920547
0.15859781570522427 -0.15049446540778993 0.10236522686052535
0.15872805859350025 -0.14978057832931643 0.1024694184175294
0.15940693552881827 -0.14902662296023683 0.10208410613199512
0.15897004178552204 -0.14897195793474413 0.1025088619393182
0.15927498725392633 -0.14854460786992252 0.10237975371847034
0.1593324615526401 -0.14788249049354682 0.10257943305588008
0.16007506630519253 -0.14724259603760914 0.10213629663308775
0.15964363662268083 -0.14712033871716051 0.10257271448893025
0.16002220764585062 -0.14676588100839896 0.10236257282087681
0.16015965523313977 -0.1460657636213289 0.10247771688361688
0.16102559161814792 -0.14534842592060626 0.10193233381970188
0.16057874023629665 -0.14525361423637517 0.10236370708978573
0.16099806773214484 -0.14468773146869163 0.10212724928711456
0.16050652568388 -0.14429640667422616 0.10274620633683713
0.16099424247166447 -0.14400391580289681 0.10233689167654617
0.1611832871891111 -0.1433257135137772 0.1023177400990579
0.1618406872952455 -0.14245790509413245 0.10184031541725616
0.16134659656936653 -0.14229024864202627 0.1023937591434705
0.16185025235209238 -0.14177653859895803 0.10197760819998491
0.16153032092090408 -0.14137587686082193 0.10243467205210366
0.16191280029845329 -0.1409500693200275 0.10213634314892109
0.16148786930468548 -0.14051638817245968 0.10270418941111416
0.16195555238501333 -0.14021132026480257 0.10228786074615566
0.16222871505304562 -0.13942797782946836 0.10226606158382913
0.16221565893466366 -0.13844249566341357 0.1025816128576693
0.16305814880709493 -0.13796545175380218 0.10200060668596271
0.16264960396188988 -0.137787612991855 0.10241628119483516
0.16312826038071687 -0.13725470510074442 0.1021750229630618
0.16267249101303677 -0.13682208525930717 0.10274574212363523
0.1631972973817424 -0.13651733527655918 0.10235700299292076
0.16350871634637063 -0.13576682169561438 0.10235118300474404
0.16352775249132423 -0.1349443276424588 0.10265976977798148
0.1643448591313014 -0.13427294755397456 0.10218827972542996
0.16384411242765543 -0.13405428192459193 0.10276104367946114
0.16448925053364682 -0.13356235800757088 0.10239998485088231
0.16416797523576993 -0.13304569005436087 0.10295052555771984
0.16463157245679286 -0.13285620943840015 0.10260332598754375
0.16493390691624316 -0.1322009977892517 0.10264390885904291
0.16579954542380965 -0.13136105194615647 0.10224778048860142
0.16530492537751967 -0.13116372542179 0.10284635832177708
0.16596735704355295 -0.1306341396835098 0.10245915811428058
0.16567974775894478 -0.13022277480168834 0.10298307233329117
0.1661687087080247 -0.12974818268157068 0.1027127775392005
0.16577970449594576 -0.12934381494977903 0.10334618392775918
0.1662975123740323 -0.12900507225028954 0.10294078071490903
0.16667391843817744 -0.1282515003614827 0.10290582724826412
0.16689373520910095 -0.127248621815984 0.10316428548693087
0.16703759409202282 -0.12630766861483306 0.10345394609749099
0.16786421432654558 -0.12564289663543238 0.10259691407951876
0.16752547565747444 -0.125558879162744 0.10312879128679174
0.16799893763595372 -0.12485910394706416 0.10270820780008161
0.1676450818065309 -0.12458103355164199 0.10329361700885512
0.16813836372432728 -0.12392066196396952 0.10277010627671838
0.16784076511091128 -0.12343357289253885 0.1032884280086402
0.16781907995452583 -0.12229621627712985 0.10343912514530909
0.16796231055534833 -0.12110131255319712 0.10329659710419944
0.16802704908797372 -0.12009466968230327 0.10323704369398931
0.16799586143116702 -0.11937035432438714 0.10328488219282791
0.16762548844023695 -0.11918705543442105 0.10370008504267329
0.1676629405689263 -0.11993262728324611 0.10365107358677941
0.16816351948236077 -0.11849481237531703 0.10318582783963746
0.16768072761731143 -0.11808857977123662 0.10371687595115657
0.1683542190800496 -0.1173787974987236 0.10315072404149091
0.16791582653198092 -0.1168808943860477 0.1036478050701781
0.16855895520932676 -0.11626630457579401 0.10319542667551136
0.1681150414599282 -0.11577966156035964 0.10372568874752673
0.16876577948820795 -0.11519115883936284 0.10332739023869633
0.16832572752606806 -0.1147117579121023 0.10390465435065498
0.16897350051873664 -0.11416937204217395 0.10353217728015675
0.16855598768113408 -0.11360403650236832 0.10420013386388136
0.16926651068237097 -0.1132062246097409 0.1036992942426719
0.16903235755783882 -0.11262763423273528 0.10425498453922645
0.16953313170405765 -0.11242809419287758 0.10384386473500226
0.1699197321476522 -0.11165102131580902 0.10382392387570559
0.17003210180896242 -0.11076647359985656 0.10412239810308731
0.1708344637137971 -0.10998134000278538 0.10360509616881168
0.17039737638652555 -0.10984181964969046 0.10410902585350437
0.1710243466011318 -0.10914243015127843 0.10374759165370964
0.1706354483314881 -0.10865736852092063 0.10430134073897303
0.17127867693891816 -0.10806935575710977 0.10390229851313038
0.17087423268561494 -0.10753419390207115 0.10443890369982409
0.17151134062672369 -0.10695105736062663 0.10403854117072053
0.17110090050091342 -0.10643286833242409 0.10454694839662244
0.17174699368144658 -0.10584432936892436 0.10413915839597901
0.17132793317883363 -0.10533537925468442 0.10462580480490478
0.17199605989958522 -0.104747365087541 0.10422069177102256
0.17159925737772028 -0.1042282895059946 0.10470066861920219
0.17227609398142898 -0.10366753302891692 0.10431264323464358
0.17188103755106554 -0.1031465824670495 0.10479777886887158
0.17256270515150576 -0.1026089832254832 0.10442365397539993
0.1721830492438052 -0.10208505293231042 0.10494391614584289
0.17287847338032408 -0.10156797095153518 0.10457577522075236
0.17251647461944242 -0.10103057438010674 0.10515804617711023
0.17324329117091397 -0.1005395292322887 0.10477304334744936
0.1729033276487759 -0.09989145651403893 0.1054752813793794
0.17376329467591523 -0.09951487078737403 0.10493853520339701
0.1735167151241347 -0.09885881807909176 0.10563455534214476
0.1741809234810512 -0.09857961220833526 0.10525362278915981
0.17475792579504013 -0.09820889734077648 0.10504023180368648
0.1745655601068605 -0.09778374514397509 0.10552045315370866
0.17526480405764316 -0.09747225683339909 0.10517731962982141
0.17506594168291273 -0.0969380609096334 0.10579064580722415
0.1758643622412782 -0.09652917420474713 0.1053848732627479
0.17558434094066477 -0.09602561112088193 0.10602893786228954
0.17625660545943078 -0.09565186853826534 0.10555900633881087
0.17586837978329964 -0.0953150255811179 0.10615938320550404
0.15280526573008238 -0.17800474303341868 0.10697266380682549
0.15241448764708912 -0.1775210946822321 0.1074386858532387
0.1526819395643893 -0.1773337090564882 0.10695593288792885
0.1523394648696459 -0.17715777667013213 0.10745962779409199
0.1522927615733803 -0.17643298288560247 0.10721584777825857
0.15250734483027595 -0.17572391897641965 0.1064566411659117
0.15214503302789556 -0.17539600796452656 0.10689797656802683
0.15247009464041267 -0.1748631113890277 0.10620658996582086
0.15211772698767698 -0.17478787764832485 0.1067383973767153
0.15212654202558645 -0.17403780338272654 0.10655085079277803
0.15255704618822527 -0.17327578677743458 0.10581797083615675
0.15216502984440314 -0.1730053549680415 0.10629066740364654
0.1526391363990234 -0.17247066205100017 0.1056270029942601
0.1522212277783389 -0.17241025444994715 0.10613977056712275
0.15233062906215533 -0.1716841596958975 0.10596433410959949
0.15283470240970828 -0.17090205032151484 0.10530287593977285
0.15244566090426973 -0.17093063013390136 0.10578808996046915
0.15252461899982692 -0.1701649955737082 0.10560972015133047
0.1529075466398944 -0.16953399518990386 0.10508043256621107
0.1526282671485985 -0.16937330634491032 0.10541198510592335
0.15288209570248806 -0.16903849301271823 0.10510624589095162
0.15292698401988578 -0.16847817110667293 0.10495537513466145
0.15325076983827804 -0.1676360163523537 0.10434411237262604
0.152959603633257 -0.16784906208769293 0.10474079787634774
0.15292913978397246 -0.16706551836922684 0.10468666777212723
0.1531770887624193 -0.1662054569573681 0.10431736527996167
0.1536407660444391 -0.16522039804222752 0.10366175024834974
0.153302065690108 -0.16547888613381745 0.10407987201027089
0.15321114438728584 -0.16457990103958747 0.10411428680849019
0.15352239994327532 -0.1639893647409071 0.10373701699215578
0.15317800330932002 -0.1637127346477282 0.1041197862038597
0.15347556830344453 -0.16334324160817312 0.1037661136425603
0.15315241934696366 -0.1632440250236202 0.10412880084489987
0.15312042735437764 -0.1626796459210075 0.10416026249322788
0.15325874741653425 -0.16164214736544413 0.10406846659857392
0.15407896248761557 -0.16077464411540057 0.10310665616635738
0.15358858599606 -0.1605804449187826 0.10378628686943699
0.15398558718176425 -0.16016350399809426 0.1033733914960933
0.15419055271985221 -0.15981132407065315 0.10325022864707219
0.15398406698293957 -0.15976297331250627 0.10349167348676758
0.15401412340615925 -0.15933754149666102 0.10358528636815952
0.15420260359459778 -0.15849570851891479 0.1036434867958477
0.15530803155485765 -0.15769545629125958 0.10277570378594796
0.1547218849592271 -0.15747980960111657 0.10348975294668794
0.1552919321812626 -0.15707523781722113 0.10307096472874311
0.15564129397834425 -0.15673654081558167 0.10288758236123394
0.15536653916298837 -0.15666032380575662 0.10318543944753104
0.15555552250771465 -0.156201506258871 0.10324344992766875
0.1561138228695054 -0.1557772056096686 0.10292144507526689
0.15576610778481997 -0.15569212269281882 0.10329444752414407
0.1559880214754531 -0.15513432853653722 0.10336899656030339
0.15661257822664978 -0.1546242169842492 0.10301406341084732
0.15617649292038038 -0.1542463800434347 0.10358602072778347
0.15691266120214772 -0.153962906461962 0.1029982052863293
0.15650071798550244 -0.1534891371641996 0.10355678833713242
0.15701375907524673 -0.15318349503867598 0.10319232411853252
0.15739846564792317 -0.1528037848625922 0.10293695669052604
0.15697122840194894 -0.15242028574913902 0.10345052275021985
0.15749695925389096 -0.15214704074749366 0.10301274127544931
0.15712462539702224 -0.15170522348431167 0.10350590667911995
0.15749176972627252 -0.15148506857469152 0.10319679806564777
0.15755929312385644 -0.1507396163591759 0.10333814075233805
0.15832614383193447 -0.1500402830131489 0.10278085924466127
0.1578705279506904 -0.1497900112447523 0.10331520960084281
0.15829103437626216 -0.1495255219851726 0.10299162083291134
0.15847542485770016 -0.14900873841205184 0.10297321150018601
0.15898547526500315 -0.14832256443921038 0.10272743963707306
0.15865920570826128 -0.14846804669736702 0.10297764254031225
0.15873460958145383 -0.14777929334282394 0.10317478454934065
0.15911355926308718 -0.14712522512867382 0.10307826238411712
0.15974081595966885 -0.1464878387780172 0.10271682315077423
0.1593902116546585 -0.1465957893251167 0.10301670090622667
0.1595246333759295 -0.14590873849123315 0.10314813568040374
0.15994530726017006 -0.14506931857275032 0.1030547612572474
0.1599144507352327 -0.14408232322197895 0.10343539358978171
0.16077196219480544 -0.14357165391916762 0.10269407467726943
0.16036226967649728 -0.14338364175474066 0.10318115674417234
0.16081024407606526 -0.1428436324427679 0.10284563057998261
0.1603730759650313 -0.14238595323744263 0.10345553576907812
0.1608471698638282 -0.14209829508484004 0.10299344873668859
0.16107271738950193 -0.14133628926730707 0.10292825661794071
0.1610233666870372 -0.14048443032653704 0.10319688536593147
0.16172332591013114 -0.13973296607196622 0.10266546849173665
0.1612317743019619 -0.13954484697699243 0.103262296273046
0.16176266764499156 -0.13897824001361098 0.10284748564172558
0.16144105206966763 -0.1384831329954607 0.1033697473398746
0.16182799743397003 -0.13825123597761615 0.10301236975959316
0.16212684397354568 -0.137567061949468 0.10297074828231112
0.1621878629500756 -0.1367388061169197 0.10324514400225358
0.16298843123881926 -0.1360622795442553 0.10273869850619029
0.16251614084926586 -0.1358465461865081 0.10333204451332795
0.163094897133924 -0.13535891786873439 0.10294229094654432
0.16283143651098694 -0.13495716519832215 0.10342247972378532
0.16325092499530333 -0.1345523874039954 0.10313406265277295
0.16290968275840978 -0.1341230801515351 0.10372914706214807
0.1633605632824392 -0.1338683235864251 0.10332638080985923
0.1636500754431663 -0.13320865006101204 0.1033684550671233
0.1644594595283322 -0.132400511128732 0.10299925440537662
0.16398746324481564 -0.13219043275748524 0.10358898904777124
0.16462948045035827 -0.13168048636495927 0.10322230732399242
0.1643470890620702 -0.1311640273060415 0.10380442149658081
0.16481670176480354 -0.13094013457784517 0.10346011440822593
0.1651811399471104 -0.13017168261809017 0.10351434383188904
0.16529922572412686 -0.1292853573559219 0.10389160011621437
0.16615140589359995 -0.12855441020360509 0.10335072277327523
0.1656944064817075 -0.12833061716984273 0.10398147887182765
0.16634805432957012 -0.12779589514834752 0.10356541626723018
0.16608391155620256 -0.12738748780156542 0.10408069941998845
0.1665409441032858 -0.1269193601752348 0.10379089836502003
0.16618349776568098 -0.12651493582860687 0.1043701484791705
0.16668681613038056 -0.12617803576233114 0.10397547875713407
0.16705916814286706 -0.12536865220887417 0.10380387223555558
0.16725705238536565 -0.12424356242402725 0.1038807337388944
0.16737939270794736 -0.1232628322863172 0.103936318809472
0.16736235854925924 -0.12257544313963509 0.10404517232826756
0.16703767351179785 -0.12238748258330752 0.10443938466353304
0.167046686701862 -0.12307701128844174 0.10436252402192911
0.16747509368077076 -0.12177979387949601 0.1039180805428182
0.16708469148372726 -0.12143208224222596 0.10439211273321686
0.16755055722561496 -0.1207719491590233 0.1037992756381661
0.1671228232352193 -0.12018097688801808 0.10428741745502272
0.1671802537659441 -0.118977163267574 0.10416695757935579
0.1671665442736841 -0.11826301113518387 0.10417882653163893
0.16674391554262227 -0.11812164006735806 0.1045929329494908
0.16692140786698773 -0.11869092592802796 0.10441163160152019
0.16730706208038934 -0.1174378205180134 0.1041162200493854
0.16686297336142655 -0.11693422565780381 0.10454838574117326
0.16747303001679614 -0.11635413826592667 0.10412753352939615
0.16698952461984756 -0.11586841811474609 0.1046046170951764
0.16764915670883218 -0.11528077914556085 0.10426209155316028
0.16712242821316153 -0.11475959877054925 0.10485551630345366
0.16787661127354708 -0.11427190976332767 0.10447022314194379
0.1675354667226836 -0.11382980430569023 0.10496299188612598
0.16803420732791075 -0.11351502758771796 0.10471106873501404
0.16836445643225745 -0.11271175303979125 0.10486186432634476
0.16941695091660286 -0.11196328431841993 0.1042153242428152
0.16900978541445713 -0.11184218116619836 0.10471916442817004
0.1695576316980905 -0.11124143124087472 0.1044259490063033
0.16917741483094037 -0.11088633542018617 0.10503256760778117
0.16977513765090316 -0.11031220224799149 0.1046190183327129
0.16942635252669924 -0.10985571561001471 0.10522221682450764
0.17001714756400627 -0.10926769293930512 0.10474512926319049
0.16966296625565452 -0.10878813306094512 0.10534282443239498
0.17024887843919725 -0.10815517977354909 0.1048642008561519
0.16987630579014276 -0.10770323892860427 0.1054299232387339
0.17047621227801615 -0.10704755779985307 0.10496685291152849
0.17008519933467 -0.10661542406664319 0.10549954171160507
0.17069427643772728 -0.10595966386981646 0.10505348187787819
0.1703103252948233 -0.10553077502004408 0.10557154324092834
0.17094522130397385 -0.10485700812146041 0.10512592943241517
0.17058387328809846 -0.10443826515665158 0.1056635934891413
0.1712149181969911 -0.10377312837826598 0.10521385251701182
0.17085705918095276 -0.103370354545817 0.10578110159277862
0.17149546816796601 -0.10269967631722612 0.10533833282174851
0.1711459969536884 -0.1022944884130619 0.10593700493358256
0.17181364689177817 -0.1016316142342592 0.10553050628610856
0.17147011589495426 -0.10123493552160802 0.1061755667952804
0.1721385562689896 -0.10059306478316483 0.1057941712908309
0.17180987115428492 -0.10012378984180084 0.10652084198856683
0.17240419669996876 -0.09977354066022583 0.10606972022106384
0.17287858698427205 -0.09905225637609558 0.1061230840842251
0.17400327672353263 -0.09812471167444749 0.1057748865188938
0.17352127250549246 -0.09804383156004665 0.10635378897509373
0.1743408963054369 -0.09736991389032362 0.10614069189355518
0.17409353137713338 -0.09686212098690741 0.10691476648771092
0.174849717974283 -0.0964549468642054 0.1064405629175716
0.17468886118641025 -0.09596700342394072 0.1069948022287993
0.17526943828202973 -0.09556417731520554 0.10665164140849398
0.1749479940080384 -0.09518152873982762 0.10729133771930408
0.17540471658518808 -0.09495079988138926 0.1069194068195006
0.17507444161869148 -0.09460954972493232 0.10756659614805902
0.15204800318188375 -0.17693855388032406 0.10781737427996112
0.15167997363284924 -0.17654651556322326 0.10822235984178327
0.151780186058887 -0.1762743459889164 0.10794355354163652
0.15188758445984418 -0.17572597397445605 0.10749585290392545
0.15155841227512729 -0.175529370674264 0.10793005876350488
0.15177675759783338 -0.17492817710534964 0.1073074784761216
0.15144188560510177 -0.17494360688231328 0.10783948428070017
0.1514080625617461 -0.17414964318665302 0.10765913983392625
0.1517507468684621 -0.17336452324968585 0.10692491276958076
0.15141736860460284 -0.17310350228837953 0.10741881750232757
0.1518159497272255 -0.17252710279793324 0.10670700750726782
0.1514685743503392 -0.17249719947148554 0.10725560203382824
0.15156878200260818 -0.17172600882283076 0.10701067067183181
0.15206012420811343 -0.17092794683881432 0.10627360660925708
0.15169321718207626 -0.17091798611622452 0.1067596424695152
0.15178968964859435 -0.17012086895382122 0.10650367020080972
0.15225953422588157 -0.1693836163349547 0.10586633854142946
0.15184719832633442 -0.16917190865561493 0.10634442012036095
0.15212890818096525 -0.16865210266231628 0.10589740956798296
0.15182467374553138 -0.16865075263771176 0.10626702617129571
0.15256512599581692 -0.1687972203216914 0.10543703702316679
0.15180992635823573 -0.16803062498978996 0.10613686803938889
0.15246032462383488 -0.16785392052606044 0.10535948324978728
0.15202119333263103 -0.16724883150677397 0.10578478301636468
0.1523779403923586 -0.16676802978401253 0.10530136222965218
0.15272730680109395 -0.1662338256081596 0.1048587476406289
0.152274362515334 -0.16585371705420454 0.1052930221865413
0.1527926775790343 -0.16538461197150572 0.10465757402106446
0.1522789249893255 -0.16504717645367661 0.10520040948290976
0.15263570022151648 -0.16447248972506326 0.10479295143044728
0.1528678825099414 -0.1639386891192904 0.1044852613835864
0.15248471508512929 -0.16375393224742266 0.10492313211090923
0.15281428815247275 -0.16328805297018778 0.10451636395139749
0.15243409074074538 -0.1632313887329346 0.10494695574179039
0.1524585004684294 -0.16261259360660238 0.10494609391649874
0.15281305935526002 -0.16205688748108169 0.1045913914496727
0.15253985550887128 -0.16199932805485967 0.10493008358042798
0.15258864862045435 -0.1614834974859647 0.104898079391011
0.15287172400935853 -0.16061289427218683 0.10467855519819112
0.1537462891287275 -0.15978249019736246 0.10377554332675418
0.1532733996744036 -0.15970438517997124 0.10440874127706364
0.15361589269712045 -0.15922574586879984 0.10408121344603416
0.15377865410260946 -0.15884275901901146 0.1039840085902989
0.1535595651140722 -0.15883336798186534 0.10424580659946202
0.15356988046680764 -0.1583944279720764 0.10440571219904422
0.15387534445982756 -0.15749084639190492 0.10442304885139378
0.15505888723708422 -0.15665062813210914 0.10351445095746073
0.15446627662206486 -0.15648503972349112 0.10421051265198622
0.15507121248896713 -0.15604444152152142 0.10381041856467833
0.1554577431785728 -0.15564370798363175 0.10362245278189061
0.15513890353828616 -0.1556267088791229 0.10393229722078884
0.1552783759462588 -0.1551453125585839 0.10403340058914211
0.15567340368959157 -0.15468897770097 0.10387471817238458
0.15539029702652363 -0.15467617102192702 0.10414785133478639
0.1555113611755499 -0.15421976347763142 0.10422412271390857
0.15593349699926906 -0.1535777007434475 0.10405636573608247
0.15663467441071588 -0.15290898643961964 0.10362251220235935
0.1562440370962101 -0.15304723444380217 0.10394408387260032
0.15634497611717005 -0.15240687230099328 0.10402987096126651
0.1566681199367865 -0.1517865619093621 0.10391028507011724
0.15719863695242428 -0.15115361786402456 0.10359718345428798
0.15686790631991498 -0.15127760388005362 0.10388113763467016
0.15688296888621137 -0.15061584125511784 0.104044732637465
0.1572201696104724 -0.1498126295744262 0.10395020100947591
0.15805574728451766 -0.14906628653957915 0.10336660194191652
0.15748889275340877 -0.14875163247489698 0.10405962993446422
0.15818919089635666 -0.14829519067455205 0.10351430876478113
0.1577384476499846 -0.14765833565665276 0.10424626615041153
0.15826055457246027 -0.1473730035222011 0.10381050119687835
0.15867465077713722 -0.14703032746784986 0.10353891567714711
0.15835064524574344 -0.14652134298145433 0.10409378773083527
0.15896004511659045 -0.14635469903923562 0.10353643683705524
0.158638679014859 -0.1457325777953303 0.10414601222742731
0.15909299483232334 -0.145555147417969 0.10373369928734588
0.1594438762618894 -0.14522456397810365 0.10349955339261058
0.15917840546232423 -0.14493369095893577 0.10390092523407868
0.159514295546489 -0.1446393156320173 0.10366274277125079
0.15924837295997593 -0.14451504496863768 0.10399348333182452
0.1593797482269035 -0.1439714952940684 0.10405220023191779
0.15980539218063564 -0.14310981948568338 0.10386648349114144
0.1598703258895675 -0.1421160044350452 0.10409191341949464
0.16064136077671523 -0.14165242148766857 0.10333109110220988
0.1602675076880592 -0.14149423832390873 0.10380593068849311
0.16065664792093093 -0.14094614594538496 0.10348453472563345
0.16027563624099422 -0.1406097407453197 0.10405266561305535
0.16070966137179368 -0.14009494562946037 0.10367253995370397
0.1603466333820666 -0.13962647605348416 0.1042655727644876
0.16077451789146022 -0.1393739005411519 0.10383628458322675
0.16099366104314788 -0.1386893212382455 0.10382277796748625
0.16166516351523977 -0.13781301933949033 0.10334801886458861
0.16123600580343442 -0.13764215413297348 0.10394144394616653
0.16176253538876567 -0.13713682024000654 0.10352865805171525
0.16151485030134294 -0.13672941039788541 0.10402325298712431
0.1619318182832727 -0.1363264074053651 0.10372206483372733
0.16161301906321454 -0.1358916478679584 0.10433571333666565
0.16207432991225978 -0.13562592995716705 0.1039276126252962
0.1623930248953578 -0.13488350846840247 0.10395583857673014
0.16246354699993565 -0.13392374039211966 0.1043583802788674
0.16322509452053888 -0.13342452484164788 0.10370039416997352
0.16289918020327968 -0.1332455351423399 0.10418279327122862
0.16337338845234214 -0.1327148785726406 0.10392812684915688
0.1630122488461802 -0.13225936806290173 0.10458380285076167
0.16350437552715186 -0.13199468385505084 0.1041783689365902
0.1638161689444891 -0.1313219682769259 0.1042246210582497
0.16465669268788025 -0.1304739844532017 0.10387418751112336
0.16419190620225835 -0.1303549701863008 0.1043917549040227
0.1647879802662832 -0.12972286532205246 0.1041476448077793
0.1644062498742829 -0.12923059064733045 0.10480383762800012
0.1650339141821942 -0.12882875638478386 0.10439243829354417
0.16478075226869865 -0.12830022810924932 0.10492639357587426
0.16523766321285682 -0.12808701254441385 0.10456838105492645
0.16560832747300305 -0.12733427690295893 0.10458608531152985
0.16570838618211836 -0.12646076373213594 0.10488276802769306
0.16655310942756926 -0.1257095892001675 0.10430819475106501
0.1660858828634494 -0.12555134154340283 0.10482782798629017
0.16669966259159322 -0.1248669182336284 0.10439006521889517
0.16632070823526707 -0.12438725501753713 0.104925977412821
0.16688135448357824 -0.12385959937956449 0.10441847099693827
0.16656409970607075 -0.12322849981509221 0.10487415694344907
0.16662240141874304 -0.12215732029369353 0.10491562235505542
0.16666140955597533 -0.12120021075933829 0.10487071240978348
0.16658026187558903 -0.12045667072207737 0.10492244994576842
0.16618189618277496 -0.12039526166173542 0.10537050268368264
0.16630300023231057 -0.12106499146003108 0.10527876983262512
0.16660920195796441 -0.1193961391760475 0.10478919199661495
0.16601905307761347 -0.11961554398557771 0.10545227057638824
0.1661787146932957 -0.11867651421527249 0.10518098462412033
0.16571169891441964 -0.1183692648083331 0.10561116171117278
0.1657881624792572 -0.11911484659079281 0.10562618071757085
0.16620319640392084 -0.11748080572521678 0.10509770372342696
0.16559779696379218 -0.11746916025582094 0.1056551746081644
0.165917720869901 -0.1164720884061634 0.10537737367411557
0.16546629099952948 -0.11603837511472444 0.10586192576220918
0.16541285144611073 -0.11687197024592665 0.10582521324769088
0.16646984263201284 -0.11643859121187178 0.10491617269782565
0.16594905378212937 -0.11565644942807093 0.10542801210805872
0.16642030439075686 -0.11555503153069664 0.10509444692444733
0.1661437152848669 -0.1152347704093543 0.10534732441529221
0.1664078846615371 -0.1147054681850924 0.10537855665106721
0.16695250134606587 -0.11396917946160681 0.10532989127920588
0.16779609148811303 -0.11320022258597712 0.10509703584665561
0.16735946502395624 -0.11336910949139814 0.1053618884095655
0.16762408937707887 -0.11261977567413098 0.10559666956897693
0.16842887977585994 -0.111599858881847 0.10546894702864461
0.16881392860234423 -0.11044219232225345 0.10570244578190309
0.16909469091735438 -0.10940010675230734 0.10585064525673145
0.16933303021377075 -0.10834659128207869 0.10594508877225266
0.16953418487222224 -0.10728568833325382 0.10599788008813503
0.16973821212977142 -0.10622295408138997 0.10605420431289236
0.16997343865624898 -0.10514516917050172 0.10613571053319992
0.17025081749705648 -0.1040586879353741 0.10624383142903328
0.17052674673064303 -0.10298794786823082 0.10637851092466212
0.17082813486328205 -0.10192856419193444 0.10657035548585428
0.17113956862720597 -0.10091815034737152 0.1068386400794383
0.17139153784771335 -0.10006636119344335 0.10715716056049913
0.17234566602536594 -0.0992899391145778 0.10653825543392932
0.17197419177408604 -0.09905880135800903 0.10726817755550304
0.1727517446399186 -0.09850477201535429 0.10680549004318073
0.1726427558095933 -0.09805489655830366 0.10745351043041136
0.17326718317764161 -0.09756232932414147 0.10716957415773623
0.172995773233658 -0.0971099483771523 0.10792069275027433
0.17363595105734284 -0.09672312934917152 0.10753523768981052
0.17425416538211058 -0.09584734093917129 0.10759815863170016
0.174639557280824 -0.09487337303428095 0.10791601288879449
0.17478561814094615 -0.09445528539902079 0.10802260707203641
0.15148011313359558 -0.17595280099494026 0.10825144542351767
0.1512171679639351 -0.17503138187935763 0.10828527490509052
0.1509528712880677 -0.17477644827277278 0.1086509468027536
0.15081325056376524 -0.1741520592824823 0.10866340765251756
0.15105660133245008 -0.17346397638417232 0.10804499709068502
0.1507124319963332 -0.17322580277909214 0.1085156540317269
0.1511052685807159 -0.1726315889083254 0.10782792734044681
0.1507209043836452 -0.17259770623355872 0.10833093539512752
0.15080301450700434 -0.17176019918579669 0.10803339082206667
0.15132750529801303 -0.17090183308543297 0.10721792836799306
0.15089846000502877 -0.17075093703507307 0.10773000461722634
0.15121657556772478 -0.17011490402918492 0.10723107736030271
0.15147516526269247 -0.1694873754125107 0.106803463651815
0.15104335439061578 -0.1693394268455881 0.10725399692372124
0.15147124554381744 -0.16874594077835472 0.106676796894792
0.15099458109296252 -0.16861144425584024 0.10717353866235654
0.15126373518341413 -0.16794994817021666 0.10674428592158161
0.15156851256709689 -0.16719540401002858 0.10630608608041611
0.15105535505842016 -0.16719324957201237 0.10687565636745837
0.15132735222832674 -0.16644603469620403 0.10645669871084612
0.15092795183980834 -0.16663358918176616 0.10691611988619104
0.15186193865332015 -0.1664614599061131 0.10583756690085133
0.1508710767045286 -0.16591529829240373 0.10687731782325201
0.15165565508872722 -0.16535073742663958 0.10593768725466779
0.15100014069142337 -0.16476937180628742 0.10661162621585694
0.1515728992461467 -0.16418588971895867 0.10594466156505547
0.15115889417791273 -0.16385633885222636 0.10639394202399194
0.15210310632734778 -0.16434178434941155 0.10536961370128768
0.15154386805502265 -0.16352596125761001 0.10596175632796087
0.15199585439390387 -0.16339655299649272 0.10545154874716393
0.15166222439462718 -0.16314061380733222 0.10584548506121373
0.15175366358461867 -0.1625753118919637 0.10577998113636276
0.1521959980425527 -0.16196470756879586 0.10529868299360366
0.15184108031473478 -0.16193293845276066 0.1056857785448583
0.15196952084975138 -0.1613479816730179 0.10560798293754846
0.1523815255746605 -0.16090184403765356 0.10519687672497993
0.15215090943086138 -0.1608036757688389 0.10550093897630748
0.1523358039619081 -0.16036433340324585 0.10540242676614911
0.15269622134092817 -0.15977574018769297 0.10508863038128674
0.1533178838564286 -0.15893784312562803 0.10453030060688684
0.1529411681232009 -0.1591741884873552 0.10493548246693798
0.15296024629238217 -0.1584088869403265 0.10514018302596352
0.1533467200166519 -0.1578686921932068 0.10488443358700499
0.1530897890163767 -0.15781629009835904 0.10521915297122554
0.15322481870308804 -0.15729887442363175 0.10524585717026747
0.15367643452655808 -0.15649190894808757 0.10508043831185157
0.15480084516353473 -0.15566407442901128 0.10424800846625315
0.1542105688944105 -0.1556030680855689 0.10488674480142444
0.15475427871575875 -0.15507594049971513 0.10458949950515269
0.1550962931275538 -0.15464192277054453 0.10445479626388147
0.15478313712100092 -0.15464435668147078 0.10477220714735871
0.15484701267208426 -0.15410216955854067 0.10489429216941493
0.1554057975093243 -0.15358689671659953 0.10454608497134568
0.15498854697683626 -0.15315603167460376 0.10506209966421431
0.1557276138490818 -0.1528720893335107 0.10447585952081422
0.15526197348049228 -0.15228252971789796 0.10506515779147031
0.1558403186325486 -0.15205819354996256 0.1045872382957136
0.15624310297358837 -0.15176226084313624 0.10429029316416104
0.15594387410751906 -0.15140399717418745 0.10467757499416791
0.15640945443044332 -0.15115922510302618 0.1043180897534386
0.15604829464875464 -0.15094514980907664 0.10472507151048144
0.15619845547958575 -0.15034746766617776 0.10477588716545265
0.15669287434528162 -0.1498652777174546 0.10445970859059438
0.15631441634253507 -0.14941562918656515 0.10499232039020395
0.1568645589918058 -0.1491700211123953 0.1045331238930951
0.15655485608630068 -0.1487158195041839 0.10502873735695574
0.15693548687133188 -0.1485135142042727 0.10472698937380943
0.15710036517141213 -0.14777562448103274 0.10490587911483025
0.1579465505530523 -0.14696251567041024 0.10433538894593483
0.15750035892362668 -0.14681939169294753 0.10491688586257947
0.15791974581487128 -0.14643465842456144 0.10461672794576472
0.15810709424299074 -0.1457565039378558 0.1047151732262586
0.15886269560330815 -0.1451517065091958 0.10415286344328467
0.15849159825111075 -0.1450201250063028 0.10461541146894335
0.15893677304939227 -0.14448557871696113 0.10434765403542516
0.1584711614687211 -0.14407980463112494 0.10506034539482596
0.15896188628408878 -0.1436700308627411 0.10465376407057787
0.15931713190489802 -0.14323867776007523 0.1043887979950102
0.15901189476543984 -0.14284981090918694 0.10490394248487855
0.15945318437867537 -0.14255277732581387 0.10445963576482332
0.1592050960681632 -0.1420457182757819 0.1049433725988675
0.1595453682337341 -0.14188551245474817 0.10456575696417711
0.1598161731686426 -0.14122996625127085 0.10443637379628727
0.15989126492643882 -0.14026256115391966 0.1046324027140833
0.15991442886302262 -0.13939476455450733 0.10488675587300202
0.16061224192971657 -0.13891946065506938 0.10417157188208924
0.1602843594965937 -0.1387348954040175 0.1046447174753772
0.16069783620944092 -0.13819197265327535 0.10434115422246389
0.16032895552389403 -0.13775098944221956 0.10499391038028053
0.1607837994002396 -0.13743444462951204 0.10455195370260703
0.161086715782211 -0.13664671150711252 0.10456946103349345
0.16117467810663433 -0.1356842898924137 0.10495822339468751
0.16194122390938448 -0.13519075412933085 0.10432968749186469
0.16160789760636493 -0.13503251011134254 0.10482294026552597
0.16203105163054246 -0.13448351405791675 0.1045964425497147
0.16170394225156948 -0.134076229889818 0.10523814230525586
0.16212806417327041 -0.13376692486725905 0.10485295933305115
0.16246050250334054 -0.1330306483054459 0.10483402562491036
0.16258816345150304 -0.13215234627516667 0.10515842885982335
0.16336192384096754 -0.13150423220306828 0.10460672487225164
0.16295591497958042 -0.1312082560916903 0.10525486771384307
0.16357149305903723 -0.13074559896426294 0.10481759422967755
0.16335121945982486 -0.1302604506302041 0.10536024937492411
0.16382249855202957 -0.12984444249733793 0.10506733955308158
0.16350870234644352 -0.1293686990636827 0.10568164159781292
0.16397894867803836 -0.12911173801516834 0.10532367603293213
0.16429661737179047 -0.1284652741642652 0.10535523642043995
0.16509522385286457 -0.1276314979487606 0.10494842213156846
0.16465135140637976 -0.12752669490376164 0.10544723550439386
0.1652298043978005 -0.12689764318719754 0.10517909329042939
0.16485148874298367 -0.1264484509036658 0.10573002114297987
0.16543823940821206 -0.12593978532498853 0.10535480481307506
0.16506229504331688 -0.12531480321233518 0.10594970866922718
0.16571147782478837 -0.12490551222212744 0.10541909470895444
0.16541933020385638 -0.12436186878793123 0.1058826675753347
0.1659275351763723 -0.1238447986585236 0.10545896560316248
0.16543470563129695 -0.12333218942326998 0.10609105221632671
0.16610574101227468 -0.1227942381511966 0.1054419124008243
0.16580454402239908 -0.12232080703430123 0.10583248655105776
0.16623313103982865 -0.12183223876850632 0.10537448165834787
0.1658531910439785 -0.12137025619244739 0.10580206294162409
0.16569307158877636 -0.12041954558965082 0.1059154031892792
0.16565645547063457 -0.1196871070096011 0.10584986812327925
0.16537893312249788 -0.11925843694577326 0.10610280754402344
0.16541309776572613 -0.12002807101840007 0.10618062201433373
0.16519986148720162 -0.11827519819009123 0.10613750856650746
0.16520484270492358 -0.11747555912226712 0.10604030302113797
0.16496602200396304 -0.11702916562947539 0.10633492445107526
0.16493023705633023 -0.11782843488583594 0.10638245046941079
0.16488200055245247 -0.11609923490795211 0.10649642756407744
0.16586589841079574 -0.11518041427450632 0.10564254815436008
0.16537959610658504 -0.11519903007771372 0.10615789183353555
0.16593602167874516 -0.11449500494365679 0.10588146774253497
0.1664429073625131 -0.11401381792249245 0.10569077340358891
0.16611897404236214 -0.1137497935071293 0.10613414140334997
0.16681512567001155 -0.11330860904405127 0.10582614082059058
0.16637285899329268 -0.11317884039723661 0.10628876001353939
0.16681948857760487 -0.11242093369830215 0.10645740948211209
0.1677122912712712 -0.11177827471167871 0.10608976687028367
0.16745477812411982 -0.11133180114232001 0.10668127886567247
0.16815479964669622 -0.1109147092075645 0.10621278301359469
0.16788186115787443 -0.11034071606379765 0.10690666333473432
0.1685256914419353 -0.10993670299851319 0.10635395375640216
0.16831360052516492 -0.10947341697326089 0.10688000209976875
0.16878848127408644 -0.10894817922391976 0.10646943771596512
0.1684021601111558 -0.10850168016038211 0.10717611671094035
0.169017041355189 -0.10792273814149515 0.10653249366155798
0.16879148270628644 -0.10747542379943557 0.10700616517649728
0.1692288966955365 -0.1068978013164657 0.10655963319496954
0.1689181981985297 -0.10656844673772115 0.10713103523078601
0.16942527994534534 -0.10586098250783732 0.1066391369268608
0.16913157984424682 -0.10549236291585297 0.10724172191016121
0.16967393145068382 -0.10477587741544503 0.10673593551337904
0.16938594306603208 -0.10440771885034875 0.10736070504870981
0.16993721934131778 -0.10370588657462647 0.10685543213238112
0.16964357165538582 -0.10334802858087917 0.10749622061489242
0.17020901352352788 -0.10264088827648335 0.10700584873696271
0.16993603050020217 -0.1022832298336676 0.10766524449335715
0.17053114581371936 -0.10159290127162433 0.10722340786648527
0.17026733815350642 -0.10124684596066942 0.10789585605516068
0.1708567649063998 -0.10060949895393946 0.10748887914117528
0.17059850017265418 -0.10022918244349878 0.10816014130808665
0.17123182838655987 -0.09965206453166503 0.10774890242460204
0.17103075678999052 -0.09913993965887564 0.10849978358672953
0.17157501567385045 -0.09883734270157953 0.10799156138983992
0.17218546446938018 -0.09799973832990565 0.10806434562466939
0.17254102637175836 -0.09706252380425676 0.10852589044503924
0.17361042585713288 -0.09620508955661328 0.10801841483693629
0.17315418245845537 -0.0960880274516818 0.10864045095549463
0.17398147113231133 -0.09538433330698383 0.1083076212059935
0.1735517514631027 -0.09513194276734561 0.10895624094043697
0.1743246065142369 -0.0947465820093896 0.10838709271247274
0.14988418668035672 -0.17428055453737631 0.10992789213565984
0.15013028566410347 -0.17405121991156297 0.10957019933194272
0.150377092335485 -0.1735934270192801 0.10911503362297512
0.1499697471537729 -0.17337987967745705 0.10956275289386147
0.15033979609743703 -0.17272447217839745 0.10886267815980694
0.14988503910501808 -0.17255725976861874 0.10941841656559462
0.1501480314404255 -0.17179316090461252 0.10888904740967552
0.15043431607868987 -0.1709049967470855 0.10831688470933776
0.14988975908094068 -0.17092033435693765 0.10898090824747543
0.15019943247042286 -0.17010571214389986 0.10840596505629545
0.14976839273144815 -0.1701430901105656 0.10892304002952374
0.15070669636103387 -0.17005279126863537 0.10780682477255614
0.14998217851718768 -0.16953395630044732 0.10854234668172436
0.15044793042271165 -0.1690617261028276 0.10785897258118282
0.14987917215506522 -0.16883050767631097 0.1084646866114015
0.15017341785159302 -0.16810199230347453 0.10796846307127973
0.1497815676198812 -0.16823620812790047 0.10841633193265264
0.15074227975070023 -0.16798537554696877 0.10735106046583709
0.14980753385959591 -0.16751293145282567 0.10830880629625476
0.15047964605201408 -0.16700128997633173 0.10748242892229076
0.15004911327034068 -0.1667613747104248 0.10794262859912943
0.15017380742682634 -0.16596560620986672 0.10765303639890783
0.15056146328068076 -0.16530471975353764 0.10712506877892708
0.15027641152086915 -0.16514271506235118 0.10741651081159954
0.15054550095023003 -0.16477749203915446 0.10710165320012953
0.150685168350096 -0.16416857265842671 0.10695000649032024
0.151332412251329 -0.16316901315463792 0.10622641101440879
0.1508768686725878 -0.16347195626250352 0.10673106135372566
0.1509802293575511 -0.16263836888629574 0.10669509741161591
0.151487628798897 -0.16193033250027883 0.10612273912771325
0.15111370228838428 -0.16192901360440742 0.10657030009886088
0.15129170203687578 -0.16125741008979988 0.10645901859255874
0.15189295537775854 -0.16070143944564896 0.10587012980405659
0.15156544430857596 -0.16049362350397703 0.1063235059523947
0.15195264219809165 -0.16011463213451707 0.10595589992288365
0.15228415165091752 -0.15976800415841094 0.10560023554423507
0.1519509491401758 -0.1595175477932848 0.10604354030969247
0.15242392772349866 -0.1591302206478243 0.10554896749266526
0.15199211217655273 -0.15902900545369247 0.10605670520616418
0.15217168518240023 -0.15835272323230215 0.10603542592793017
0.1527692893678168 -0.15775392384862744 0.10560040499991548
0.1524205013870483 -0.15767529965177962 0.10599210389389649
0.15267000164735123 -0.157071362326136 0.10593967193835951
0.15316804065813894 -0.1566968197264277 0.1055650563123893
0.15296190779493665 -0.15644598122828604 0.10588558452691214
0.15328052766382083 -0.1562421897458386 0.10562050438769528
0.15354145139143904 -0.15571412234538018 0.10552882307878562
0.1544192177779188 -0.1547741773393359 0.10505342554652794
0.15387755291940589 -0.15505418827778947 0.10544854275969033
0.15401328311212045 -0.1541918059594962 0.10561461083407693
0.15450305044967388 -0.15360816630682042 0.10535873970735864
0.15418062405290417 -0.15346405073067512 0.105692961616759
0.15449339168961282 -0.15313250710620707 0.10552199922144329
0.15464664753813556 -0.15252346700841185 0.1055759659741569
0.15550170675825953 -0.15162119466625754 0.1050347990460058
0.1548490916037296 -0.1514771977445763 0.10570452144460743
0.15563040874512588 -0.15089749427627344 0.10515689419819263
0.15516619173677615 -0.15040016315770258 0.10578141447998175
0.15568075482823096 -0.15014253668972247 0.10535935635378639
0.1559409088288738 -0.14978606252082355 0.10522126615429969
0.15571911969150656 -0.14973577407486513 0.10547104128977068
0.155827028731363 -0.14931737561286978 0.10554603632079168
0.15614856563592563 -0.14876306290169655 0.10544370523060421
0.1566979464043665 -0.14818980820852634 0.10512917476029908
0.15638838917990636 -0.14829332553978322 0.10540510667618551
0.15651514988582454 -0.1476924078542015 0.10557906020423093
0.15682355123162534 -0.14686821456250312 0.10566287959111295
0.15770202004691042 -0.14610683781586592 0.10502090804923397
0.15726815735546118 -0.1459422536578045 0.10561304411965354
0.15771204683868872 -0.1455737051714882 0.10527222209434041
0.1579690278673728 -0.14486937842661268 0.10530330177481428
0.15795484459461845 -0.14395027611672 0.10572881569891703
0.15868132256136624 -0.14332898333402055 0.1051218638956426
0.1583051315253945 -0.14317500252462512 0.10562659316925656
0.158656983844937 -0.14281650036018395 0.10533506565522499
0.15881774139104762 -0.14221312595687297 0.10536335658537117
0.1594082404412833 -0.14144370522692618 0.10487960423776814
0.1590155748864287 -0.14125929310356541 0.10543981259276551
0.15947677633591936 -0.1407590681069363 0.10499637896509822
0.15921753750745468 -0.1403766492014071 0.10547322595858294
0.15954645254456776 -0.13993579372160467 0.10517530439431601
0.159226393755786 -0.13954170301787477 0.10577518111155207
0.15959510652411024 -0.13924570811663864 0.10536987154831154
0.15985767014609523 -0.13852740337880648 0.10529812835618324
0.15992056443015606 -0.13767370680663948 0.1055751127185308
0.16061666729040464 -0.1369573840290134 0.10497829480083927
0.16020334908993134 -0.13675593239649905 0.10564865342447255
0.16073153022027925 -0.13621021874549846 0.10521903631177251
0.16049597723288006 -0.13570767293206734 0.10581138402698784
0.16086386418170842 -0.1354951520125412 0.10544127511725887
0.16118905278187992 -0.13481958197719632 0.10544120389722532
0.16131457808662494 -0.13399089707233094 0.10578657161947408
0.16201073814873487 -0.13330563567037998 0.10524988047149542
0.16163871721642714 -0.1330717749366489 0.10588344217429074
0.1621672569367733 -0.13256819118224833 0.10546363885336614
0.1619682807508035 -0.1321368256462435 0.10598152751959546
0.16237568033028724 -0.13170919270196157 0.10568322970718151
0.16209210379365901 -0.13125859756589472 0.10633516933526356
0.162545906281964 -0.1309472325382247 0.10591055591639167
0.16292267889811846 -0.13014423870102446 0.1059246498575748
0.16308448533195558 -0.1291263731142202 0.10630443538746552
0.1638852820021001 -0.12867005605599469 0.10567443058607257
0.16356555066925918 -0.12847485054172905 0.10611262129566736
0.16406552150926773 -0.12794542947122003 0.1058540642154426
0.16371836909295445 -0.12755427283577786 0.10641295766422611
0.16427629793729587 -0.12700551554282621 0.10607534143529818
0.1639074253430798 -0.126561871068828 0.1066593468415029
