# .PCD v.7 - Point Cloud Data file format
VERSION .7
FIELDS x y z
SIZE 4 4 4
TYPE f f f
COUNT 1 1 1
WIDTH 793
HEIGHT 1
VIEWPOINT 0 0 0 1 0 0 0
POINTS 793
DATA ascii
0.15882354270548157 -0.12422398264208354 0.10651020068825737
0.15853672315940973 -0.12358369667336214 0.10685152840229727
0.1586414087822915 -0.12252404294640724 0.10687809159314732
0.1586555511193112 -0.12183955432279336 0.10693409079255081
0.15840425178969195 -0.12155055533262664 0.10726288930297839
0.15830745558844392 -0.12240554739209675 0.10723088446074938
0.1584340420070764 -0.12054201922937088 0.10740504709563554
0.15860377464896436 -0.1196976141846774 0.1074003554831705
0.15840806603918045 -0.11936083609683104 0.10769801927334777
0.15822084558736366 -0.12019275627739878 0.10769854113137992
0.1585247127068831 -0.11833780317764853 0.10781663555393214
0.15885453543445793 -0.11731679041100139 0.10783125333380554
0.15837178504294702 -0.11731370672359548 0.10823918499173468
0.15832959868532762 -0.11791721447730927 0.1081188103263189
0.15896228540309895 -0.11654062073201202 0.10802834832948285
0.158406456166057 -0.11671231457251502 0.10836654331569219
0.15973848733295165 -0.11647612747751582 0.10755591716906897
0.15882642515932738 -0.11597574309852489 0.1083597972917806
0.159722754815851 -0.11562859430197447 0.10804551872209239
0.15931398769446148 -0.11545481045215662 0.10833499943444143
0.16076445602269723 -0.11548568180627164 0.10758582769727212
0.1597711394677752 -0.11494051936326048 0.10847984587911297
0.1607710854799678 -0.11467481215474093 0.10816978509926517
0.16041825422285935 -0.1144301977046166 0.1085444203779898
0.1616279032980296 -0.11469488663908989 0.10769548409770492
0.16100576126344973 -0.11385180252337535 0.10874003678359687
0.16202396626280396 -0.11377095849037333 0.10817520684520272
0.16196506222869103 -0.11301239029538765 0.10883900362921221
0.162815996013374 -0.11268063425719928 0.10845134919581456
0.1626127268246027 -0.11210137110547963 0.10904480175798875
0.16334141869391539 -0.11166567948146602 0.10866746814220869
0.16312871023954684 -0.11100770295864296 0.10930140294527879
0.16383635913215247 -0.11060932657480249 0.10882791953086175
0.16372284086324998 -0.1100711380149897 0.10932920643121224
0.1642758450357284 -0.10954178347053047 0.10903621821029309
0.16399198514748264 -0.10918365606789401 0.10961247882878701
0.1646473281799632 -0.10847818411547482 0.10930801710500751
0.16434901610528854 -0.10803357291376574 0.10995130098993047
0.16493868633742578 -0.10757147985677987 0.10955156606755133
0.16547418940721284 -0.10661970462112785 0.10955735378890602
0.16588922288093516 -0.10545333293656238 0.10989596869678481
0.166298174273491 -0.1043613057630056 0.11019228115047647
0.16673132503789187 -0.10335615282847063 0.11050843427771619
0.16708706877919732 -0.1025164600365296 0.11081118768335449
0.16823318893637249 -0.10170232436129828 0.11036784415486955
0.16785468049582186 -0.10155732658510984 0.1109255309972955
0.1687682041230408 -0.10089320880132815 0.11069634681998537
0.16871297356397555 -0.10027032190296506 0.11136811284249815
0.16920755295805073 -0.09912350954466562 0.11182216397429645
0.1694402542964779 -0.09837208204230503 0.11213677687612528
0.16914289719418313 -0.09819897473945682 0.11257270496446514
0.1689391367936186 -0.09887591998643762 0.11227582603547018
0.16974628564737224 -0.09771814619723082 0.1122288860565399
0.16935706933952105 -0.0975567742294605 0.11276500385043475
0.16988361529619744 -0.09730244084573109 0.11227709773296438
0.14216913441699625 -0.1700832718161586 0.10885489239489997
0.14188987257459432 -0.16962240289022848 0.10898800007932169
0.1416510026370107 -0.16952261806895713 0.10941864002967752
0.1421324697979955 -0.1697207727687443 0.10849830113004419
0.14166214208987243 -0.16924035459793355 0.10918976669650941
0.1417057782125167 -0.16875291526723174 0.10830378876259304
0.14135063279601792 -0.16862639301972526 0.10899133215489476
0.14115411496665134 -0.1677773176737409 0.10815306702726554
0.1410223465202167 -0.16804829137833002 0.10875719923197393
0.14139062304116257 -0.16733963205924735 0.10716185390013158
0.1407735537903329 -0.16727246687135974 0.10838394085866913
0.14084434944586946 -0.16646673457357106 0.10730541507033903
0.1405841349445235 -0.1664213088691478 0.10776959611716615
0.14114693899005176 -0.16609094310612837 0.10636990622731302
0.14041803026839486 -0.16563861802953006 0.10735397966243788
0.14062339236358445 -0.16497468559003556 0.10624061384326959
0.14014533786718478 -0.16456897511304416 0.106666081547604
0.1402125199801072 -0.16388725691692455 0.10604622050881195
0.14000836448628057 -0.16395177275948195 0.10641641543892823
0.14058917712455488 -0.16364181546158404 0.10535869683495866
0.13992033798158018 -0.16334190968032974 0.10620558272761056
0.14015951142838876 -0.16284929560491027 0.10552178689184541
0.13985971353171806 -0.16274727370415423 0.10582676208109254
0.14069623875037304 -0.16247276807845784 0.10474395186066561
0.13985323295949093 -0.16213602957966525 0.10558675045546435
0.14019697726917008 -0.16170598151866167 0.10496884683207121
0.13992756179941876 -0.161576728128358 0.10529978006736462
0.14079130371638526 -0.16135641688382504 0.10420752259027986
0.1399061977969842 -0.16098872428658795 0.10508121253379786
0.14032046740191775 -0.16060183205905829 0.10446269359195208
0.1399775944245511 -0.16041520439861875 0.10479226924412893
0.1408425222541843 -0.16045325776664035 0.10379901430862684
0.14008922436005308 -0.15980504843054502 0.10460518676695124
0.14067608547558733 -0.15957436956249949 0.10386904632113574
0.140295296863178 -0.15908594737569756 0.10424302784682632
0.14065793784305766 -0.15865506396755272 0.10381612288553568
0.14098506224623397 -0.15813089612034775 0.1034269946214542
0.14062436805818207 -0.15803157694974088 0.10379961863290539
0.14086072053098356 -0.15753550611974557 0.10353180412850382
0.14108472212276954 -0.15705433843187538 0.1033241682740873
0.14072350572690398 -0.1569188709943183 0.1036486046467242
0.1411076873748235 -0.1564659971031971 0.10331212343777703
0.1406755713733075 -0.1563449207485455 0.1036265944067061
0.14093852942904392 -0.15587223390468333 0.103384567558448
0.1412826622115014 -0.1553519475019676 0.10317832921947177
0.14081207011229624 -0.1553062232311455 0.10348366237396522
0.14113790650455962 -0.15483579743809311 0.1033007635242529
0.14077689582731656 -0.1549108803866326 0.10352100205612595
0.14165635263571433 -0.15486120402315462 0.10299015726426317
0.14086752046376397 -0.15445955780206164 0.10354561671929803
0.14158891771594537 -0.1542078210991898 0.10314324084384785
0.1411803107462699 -0.15399471461961134 0.10344634677840925
0.1415211043657066 -0.1534683497241191 0.10339523031857191
0.14231160058774914 -0.15304419363641394 0.10308855379418004
0.14193594393113207 -0.15283979502947492 0.10337746127905707
0.1424648578937766 -0.15249063826841783 0.10322476289393046
0.1430127272057646 -0.15206670189376195 0.10311823338168351
0.14248098607317933 -0.15200260363231957 0.10341678014037815
0.14295171866148038 -0.15158748828853186 0.10335574297743713
0.14252329866762667 -0.1516703491348302 0.1035462209630887
0.1435944841919211 -0.15157925607513595 0.10303628737799461
0.14266232660407707 -0.1512632894428577 0.10367154592511106
0.1434247718538366 -0.15098948098881515 0.10338355462900266
0.14302948969188112 -0.15084664107740836 0.10365289680941027
0.14410546897837767 -0.15104912867616704 0.1030130524666496
0.14334647039292894 -0.15040993039457812 0.10372010003479219
0.14427256415067158 -0.15029183819466438 0.10327396271762654
0.14390112902604726 -0.14981489670946105 0.10372856918047094
0.14452116135856546 -0.1494969564642671 0.10354862022036397
0.1441505854438064 -0.14943037057734906 0.10378866103729795
0.14507428918424042 -0.14964031804892003 0.1031651798519399
0.14441693354905777 -0.14902328135666326 0.10387099438425103
0.1452957411682803 -0.14887865382440138 0.10345427984681191
0.1449093456863082 -0.14859455606437802 0.10382975529458643
0.14537403044717578 -0.14806347714813295 0.10387311048594229
0.14614833515100964 -0.14763759066309096 0.10366899420314428
0.14587329009818836 -0.1473978048856047 0.10396954946376953
0.14647635143421764 -0.14712768069261425 0.10376145693691205
0.14613315829194226 -0.147028616221536 0.10402074159568102
0.14642690527095079 -0.14659336885752788 0.10409656362449168
0.14708453612681302 -0.14622768703822508 0.10387930165470129
0.14684199382806595 -0.1459889017668092 0.10419676440676622
0.14733578845750764 -0.14573856421562537 0.1039960297116982
0.1470534305732728 -0.14563030617865275 0.10425260402729782
0.14728856903062187 -0.1452233911914291 0.10434763317568867
0.14784726107225618 -0.14461187027827901 0.10438809753071827
0.14877864271727745 -0.14392195730622243 0.10406395450383446
0.14830614527413977 -0.14377553570403104 0.10460882435201185
0.14898896113744012 -0.14330884353039317 0.1042651336526524
0.14877751498371364 -0.1428769990099805 0.1047829729348112
0.14920829150881315 -0.14265024872462356 0.10444854712249121
0.1495661020659365 -0.14198430665587472 0.10448405545234525
0.14971992919625882 -0.14121988387381096 0.10482081315878661
0.15042883004759214 -0.14056158677712913 0.10436197827131875
0.15010305523580278 -0.1403918330743919 0.10492591421434977
0.15063644563040002 -0.1399371601706946 0.10459169837007352
0.15047292692171896 -0.13958669805064108 0.10503768630663184
0.15087797698428362 -0.13920399944117542 0.10481828781523377
0.15063123335931317 -0.1388809475467113 0.10534113294684676
0.15105847497313468 -0.1386003827473402 0.10505027814552273
0.15137889295377846 -0.1380101357230594 0.10518030311761487
0.1523062264937956 -0.1371904945384364 0.10498043320266338
0.15182275667597991 -0.13709685426057797 0.10555805541493536
0.1525711976209972 -0.13654968266327705 0.10531204379388263
0.1524098785610963 -0.13615331046391024 0.10587686351497393
0.1528849842119802 -0.13592369516737482 0.10562583614878002
0.15335239195826716 -0.1353022973294328 0.10571083427459836
0.1537008180053766 -0.13438923814509157 0.10617089356935869
0.15404018916004672 -0.13376742139569586 0.10633432976312883
0.15476918759139324 -0.13310958632114636 0.10594318518565751
0.15439563537163659 -0.13306026422188352 0.10645506869037916
0.15506584514256602 -0.13236063842992093 0.1061930538378799
0.1547474170828538 -0.13187219391620794 0.10690453866707131
0.15545638998569797 -0.13138107802196433 0.10640536056964196
0.1552994271829437 -0.1309172555899361 0.10687256146449406
0.1558371060996363 -0.13042992869674422 0.10660969495674151
0.1555278118454424 -0.13010227922403275 0.1070810728316149
0.1561417865231207 -0.12949839224753631 0.10682927690163994
0.15580629238761426 -0.1291506413135706 0.10730487032138791
0.15646222769215953 -0.12852758231744071 0.10704545026754614
0.15607526236819136 -0.12812304253868181 0.10760015518900233
0.1567955534050544 -0.12750552180803354 0.10722585930722096
0.15649912360896526 -0.12699932632567637 0.10774341025828701
0.1571730167650144 -0.12643541483212117 0.10736630258533175
0.1568627905923393 -0.1258456958476283 0.10789353042457893
0.15752683459156142 -0.12538518692434142 0.10740994378671508
0.15730973925727265 -0.12488010014720619 0.10775329369093135
0.15785613459471862 -0.12432756616015941 0.10736566589008564
0.157532273752242 -0.12397046740309312 0.10780962785727241
0.1581158967695921 -0.12327974459716873 0.10732586188025446
0.15781973099628238 -0.12276578628746379 0.10775821231439849
0.15789766299300753 -0.1216780760396202 0.10790938696642081
0.15799585011758477 -0.1208698324976369 0.10787431824980748
0.1578177923230351 -0.12049547094709719 0.10818061065547613
0.1577255879772006 -0.12134253937157857 0.10823240926478374
0.1578999701086489 -0.11941062170845754 0.10827701305720394
0.15806015324806236 -0.11855797118984486 0.10824141987828184
0.1578704206366115 -0.11823571395019597 0.1085395954363598
0.15773214762604115 -0.1189986952960071 0.10852317468578733
0.15787000066432325 -0.1173918497076294 0.10871097712852085
0.1581305998469229 -0.11651714112094701 0.10870181661320345
0.15779770526957176 -0.11636437178715192 0.10920164233086437
0.15766050152254957 -0.11704081710377724 0.10903914306410079
0.1584377852768672 -0.11582280320430013 0.10876022000011763
0.1590116301435718 -0.11537442582910386 0.10858738996700111
0.15871462856505314 -0.11536431345206466 0.10883302383483161
0.15914705670302806 -0.11485637030259026 0.10900940749557436
0.16006596014641628 -0.11432174378640919 0.10887147702681513
0.1597099750309014 -0.11426240117986908 0.10918388223956511
0.16030855058554927 -0.11366371219419859 0.10940713774784797
0.1612901645161085 -0.11314217321465127 0.10922471933609203
0.16112081461609207 -0.11272617710708624 0.10976186433769422
0.16189340483637674 -0.11245285909126604 0.10939180152064938
0.16179575846213123 -0.11200773153641944 0.10985566982276145
0.16239349939234213 -0.11162942074767983 0.10960234331223379
0.1621364904163907 -0.11119692642793567 0.11018830586155025
0.16273130602459104 -0.11085348328878221 0.10982588275054299
0.16329343766500082 -0.10999582211713725 0.10985989884969828
0.16363964886275514 -0.10889582770168202 0.11020049959370368
0.16390378768231306 -0.10800035303139456 0.11049608426486869
0.16488669716684684 -0.10708660218406253 0.10996734595303916
0.1644590845389914 -0.10701066770413227 0.11054390032300968
0.16519318398248792 -0.10617985288166695 0.1102239521427361
0.16488607330869653 -0.10577135667101246 0.11086323336283811
0.16561256189804907 -0.105048521669526 0.11052555658682309
0.16535203612511964 -0.10461343740355764 0.11115317371231469
0.16605968943384533 -0.10397618138890702 0.11082251857244062
0.16584102886849622 -0.10356138218847513 0.1114365271256172
0.16649933456672666 -0.10300883340558802 0.11110380851820507
0.16635612618465254 -0.10259171846117868 0.1117275192518062
0.16704713211985847 -0.1020399670009389 0.11136067746874158
0.1669074482855107 -0.10158349216410999 0.11202383626881313
0.16773483545034099 -0.10095041882489592 0.11167330025790888
0.16758645472055306 -0.10044870366716509 0.11238830959530993
0.16843044235425203 -0.09978832461033293 0.1120502422068373
0.16830255888287127 -0.0991412932292975 0.11270708652859938
0.16871160266638538 -0.09804964831998378 0.11313143187328628
0.1688244048160631 -0.09747220850373647 0.11339739060325882
0.16846163661470143 -0.0973429855044012 0.11383627027004442
0.14093812437882947 -0.16902439474491546 0.11010732977491393
0.1407068184676575 -0.16891833071896356 0.11048246836203057
0.14134285658746296 -0.16912808362380094 0.10958209585711837
0.1407138797992043 -0.16867093274174189 0.11018987101293641
0.14093022978686756 -0.16835015652660215 0.10943723118298229
0.140627841015208 -0.16798698477790988 0.10984190667716118
0.14062071830672926 -0.1673101407966904 0.10910271956326534
0.14046761434444197 -0.16647519776774056 0.10822183710389363
0.14036036088570342 -0.1665021451702331 0.10877842910465363
0.1402167868923307 -0.16571603109836597 0.10803110178267354
0.14009189276090775 -0.1649704990827482 0.10732529159727411
0.13989572099458514 -0.16483455028828436 0.10774781049207362
0.13984971091648737 -0.16409898395745995 0.10686523923992797
0.13961712355817132 -0.16393342213827472 0.10731925608312842
0.13962038031650004 -0.16325848181456815 0.10666824187974454
0.13966668934809626 -0.16265381842992196 0.1060865163153725
0.13942952251219265 -0.16253311247112953 0.10643070013095089
0.13955202190700738 -0.16196201201320756 0.10597229381359777
0.13974084414023902 -0.16146776794347276 0.10555410060046609
0.13948620034382692 -0.161331161585449 0.1058572787159248
0.13958805529446736 -0.16083521801414105 0.1054591887989041
0.13975428150667066 -0.16032130126147442 0.10505727439787085
0.1394958672324851 -0.16024202250345154 0.10537659796898415
0.13967116356990955 -0.1596865177311109 0.10505672688358365
0.13992232919001124 -0.15906171895035315 0.10467578410163808
0.13953216994836448 -0.15904800017170032 0.1050942976990017
0.13977712082518137 -0.1584412571728334 0.10479323201945681
0.13948587532538576 -0.15858426984039328 0.10510946874692897
0.14022484577105665 -0.15834232873297865 0.10425971712035587
0.1395106305292365 -0.15805673786994595 0.1050503335989933
0.13993676554720813 -0.15763007720101707 0.10453425932976297
0.1396309597739603 -0.15751833595049394 0.10483959475000859
0.14043994010788055 -0.15750595960844474 0.1039847927682628
0.13970749616654468 -0.15695676944733916 0.1046962155253837
0.1402368660877833 -0.1566435989690411 0.10409365213267927
0.13983213684724646 -0.15621445552505894 0.1044661027206517
0.14012539889683417 -0.15579288924287735 0.10413469812311145
0.13986107741296683 -0.15575640764651116 0.10440775097516228
0.14050719044295398 -0.1558368578582801 0.10373730393273695
0.1399244544225679 -0.15530312273606645 0.10431723612744687
0.14040374510282805 -0.15509541967409615 0.10383104491115322
0.1401073234084622 -0.15487048343303275 0.10410836232402187
0.1403550987881364 -0.1543557240953044 0.10399937164788181
0.14085808811306327 -0.15390208853547732 0.10369877306476413
0.140562315144594 -0.15384957118479908 0.10392835448598653
0.14080853002825047 -0.15338024389854807 0.10391182073860417
0.14143474799299852 -0.15286187190479458 0.10368238646285535
0.14104069555721147 -0.15276788267999308 0.10400676080686777
0.1414605760653619 -0.15238923537211968 0.10388128313292028
0.14113259293966743 -0.15244646615726087 0.10408591607609698
0.14196240149145722 -0.15238949770285415 0.10355882419613587
0.14127350979455527 -0.1521040513360436 0.1041840405468121
0.14198846759815154 -0.1518424356800686 0.1038093341277474
0.14163598208292444 -0.15170585198763778 0.10412751977554044
0.1420055615221932 -0.15122113373297708 0.10414478778689061
0.14269583634264416 -0.1507864171535384 0.10389102538502584
0.14238205672580853 -0.15074841284749932 0.10413013782035033
0.14275700652146592 -0.15028423673033328 0.10415088457676161
0.14337602645833977 -0.14991596481020728 0.10396962147762868
0.14316195162988757 -0.14969164920733738 0.10422632104336983
0.14373393660359896 -0.14943971194978936 0.1040372663291561
0.14340186686056522 -0.14934911722342784 0.10428964201997665
0.14374225304956967 -0.14891020756174733 0.10437731345256873
0.14453306488743536 -0.1484723798659539 0.10412661726823108
0.14416125177158753 -0.14840775674821796 0.10440857585977739
0.14459038260799192 -0.14794743657234463 0.10442453667355124
0.14532635798313204 -0.14756663897119665 0.10420807110392474
0.14504766731473206 -0.1473859228110925 0.10452716052015872
0.14569059766215162 -0.14707239939404218 0.10428891484340752
0.1453057452533523 -0.1470343479707179 0.10459631263072337
0.1456246524432652 -0.1465502440164362 0.1046751179485273
0.1463439551596525 -0.14613010603753376 0.10446302758886693
0.14608735586033236 -0.1459098552107358 0.10477881678838964
0.1466765307091659 -0.14563065773585504 0.10453926209436976
0.14635649658163016 -0.14553577599971107 0.10482505762278033
0.14668624926070828 -0.14508585849540825 0.1048873509249138
0.14732991475058926 -0.14470823202113087 0.10468487126608632
0.1471413981279359 -0.1444882037635124 0.10501014569987047
0.14762468157189426 -0.14423266560381492 0.10483776327635048
0.1473780300224197 -0.14414599935426284 0.10510830361652851
0.14763613390943262 -0.1437282971032316 0.10523252059665071
0.14822923205519484 -0.1430432513230668 0.10523235451783766
0.14911961491024706 -0.1422601429708698 0.10481570426797752
0.14872097534690445 -0.14216945514332024 0.10532953942784849
0.14929331337836313 -0.14161399925599147 0.10507566563552793
0.1490281773870679 -0.14118104343982332 0.10566682354790735
0.14956047535081224 -0.1408272770564438 0.10529257251705929
0.14942560464610985 -0.14037297616580213 0.10577139433246088
0.14979725670860217 -0.14019182984398587 0.10545555971860544
0.15012975557858602 -0.13955053595011366 0.10547561983755394
0.15028221155870822 -0.13884716826011823 0.10577584836666568
0.15095114695130724 -0.1382500296549762 0.10540739198194073
0.15061610594106686 -0.13818874725972058 0.10582783355450917
0.15110192218528598 -0.13768450619186376 0.10569001498518593
0.15080617466651425 -0.137635541440792 0.10601466142720418
0.15109964636644668 -0.13709147165149504 0.10621306182294062
0.1518041531996937 -0.1363207296597356 0.10628861345906951
0.15286185839041158 -0.13556830283638366 0.10599742113162128
0.1524607901779341 -0.13548393221273802 0.10645696412324163
0.15310348761847883 -0.13498005132304025 0.10628234180989327
0.15287043559560398 -0.134761832751509 0.10671492864774036
0.15330863178522114 -0.13439715194287088 0.10661023550325499
0.153723634715814 -0.1337009642184113 0.10674964274470593
0.15407577586620333 -0.13276592115786667 0.10706839704128228
0.15423632106384147 -0.13211851430853358 0.1073322502201484
0.15400181331117485 -0.1318225824270638 0.10775357845914298
0.15385416366256077 -0.13253062598752122 0.10750328186698878
0.1544701933156659 -0.13155319576933716 0.10742155854191973
0.15491720587935262 -0.13081939026514086 0.10736492635530127
0.15520357880232571 -0.12978999630202312 0.10756870754965477
0.15546506686911996 -0.12888848579867376 0.1077625695341495
0.1555982971161179 -0.12823970268297324 0.10797874523168628
0.15534700148089933 -0.12802310622445764 0.10833676565912582
0.1552265850011158 -0.1286693422490821 0.10812152820630966
0.15588515573009737 -0.12751164514750965 0.10807946145141754
0.1556256583186664 -0.1271327014432817 0.10856221091886387
0.1562224457410823 -0.12657191945190788 0.10826330042359797
0.15593572674831488 -0.12611308698054036 0.10879859223862182
0.1564517311234641 -0.1257589002539826 0.10839947341774225
0.15688483500903894 -0.12483444041701942 0.10824325247871686
0.15718755559188663 -0.12366105297233966 0.1083061325061526
0.15740512176346855 -0.12265102946966999 0.10833404097854474
0.1575288168366613 -0.1219526856801299 0.10840509221867137
0.15733947272247786 -0.1215733561846042 0.10872666825983997
0.15719355063236232 -0.12243907659060822 0.10871866492949292
0.15736374899015898 -0.12050035711492414 0.10882388618764033
0.15749521145452133 -0.1196389555126747 0.10872113800348378
0.15741242016212373 -0.11919326052684395 0.10892114517381939
0.15719807231836433 -0.12003928258655162 0.1091480380637848
0.15734912804980083 -0.11846711067016104 0.10913730265357852
0.15741890400026093 -0.11768180283555994 0.10916888247939815
0.15720648440436516 -0.11739795509118217 0.10957624324415693
0.15710422726401843 -0.1181839139737495 0.10951801882184088
0.15726368284092182 -0.11659777271534673 0.1098515552732792
0.15834969503605079 -0.11551502847899739 0.10915043037012356
0.15778731063357243 -0.11584750108278098 0.10959743222184182
0.1583694620855108 -0.11498657508895796 0.10973738670219735
0.1593132939536497 -0.11427111986529187 0.10952899572777883
0.15890885285290346 -0.11430609843091095 0.10989024878155214
0.15948469305350285 -0.11367085539044139 0.11012577264035649
0.16038188936644066 -0.11314022319546935 0.10996387456376569
0.1601822674561273 -0.11296050234715713 0.1103436101766783
0.16071800527637006 -0.11264701951134644 0.11020691500168248
0.1613045037504512 -0.11196420623531654 0.11034546189810789
0.1616598825106785 -0.11114768039592259 0.11072631960730743
0.1626954781739217 -0.11037320487867561 0.1102229255562435
0.1622549613717636 -0.11024412698780389 0.11077688272393386
0.16299568384452312 -0.10953054541740144 0.11049157044158801
0.1627118745072923 -0.10910506353429321 0.11110606743598368
0.16334569529988893 -0.10852732739190443 0.1107763862207299
0.16310428042713848 -0.10807531433741942 0.11136436434824395
0.16374686205327516 -0.10751255177474627 0.1110072132175548
0.16351299879545644 -0.10703506577074229 0.11161818601641803
0.16419350751536826 -0.1064275856628299 0.11124939422217792
0.16393381161792014 -0.10593330731263151 0.11190001592452598
0.1646326244260318 -0.10527448712373655 0.11152127766978973
0.1643860343282445 -0.10470866730537831 0.11223133806451392
0.16512965128308393 -0.10415227484056644 0.11177087430437635
0.1650166866822026 -0.10369845502325152 0.11230443125586906
0.16565350835694406 -0.10315655059403948 0.11204557193116964
0.16541608777209463 -0.10284442585145698 0.11265835184922708
0.1661728523228521 -0.10219469837749144 0.11237726837682034
0.16596506621263288 -0.10180377652547588 0.1130487442486246
0.16676159661532078 -0.10113439587771629 0.11273878242716624
0.1665396524912555 -0.10069641693993937 0.11343102209165383
0.1673688513246838 -0.09998715684573144 0.11309329100272286
0.16707407563984875 -0.0995117138887986 0.11376710182552555
0.16788347389452687 -0.09877595116788507 0.11340972999670226
0.1675660000288806 -0.09836058672407776 0.11407475133896423
0.1683009310987933 -0.09777658577321267 0.11371930601616355
0.16789539848077073 -0.0975790137073777 0.1143036008014661
0.14000986504613055 -0.16815634176767483 0.11126341405610334
0.13977036079537478 -0.1680929696319346 0.1116752935024356
0.14039130041622525 -0.16820707795568565 0.11047598472782551
0.1398407009431933 -0.16784158115794584 0.11145759800071019
0.14000957710974465 -0.16739968083603246 0.11067892332169613
0.1397119609042597 -0.16719638017655303 0.11111243549308487
0.14033617676954316 -0.16707393800057987 0.10967154402484175
0.1397175667405117 -0.16654758981978784 0.11046692677485526
0.13986543874004723 -0.1660266200629125 0.1096197860115814
0.13956688537424555 -0.16578276376037615 0.11002147745679629
0.14005501538069373 -0.165781448441003 0.10869841332988471
0.13947674563767934 -0.16505411545575652 0.10928461354971244
0.1395762026457102 -0.16449149697148724 0.10830632150018286
0.13914396446695132 -0.16411501983696872 0.10880211491409884
0.13909134272478782 -0.16324944264631872 0.1079335122900126
0.1388338560790446 -0.16321300498162947 0.10840663556180846
0.13932506815346637 -0.16305234877841435 0.107163672177232
0.1387838056465305 -0.1625524771999841 0.10785631971508172
0.13892488618381446 -0.16211175907466574 0.10721737312645388
0.1386735084345574 -0.1619077299707834 0.10761305204132307
0.13921478528544223 -0.16178380648895202 0.10640643269567429
0.13866738169972928 -0.16136942087615896 0.10715877130983208
0.13883850572459394 -0.16094869229142558 0.10655322145430408
0.13855531100582194 -0.1607355324962253 0.10692108243936276
0.13925766233829176 -0.160665080634156 0.10586137343695937
0.13867319679409854 -0.16021540973146942 0.10655018962826608
0.138989778224634 -0.15986573953154834 0.10604843381581773
0.13869951717857334 -0.15961681658870508 0.10638939342376229
0.1393397913310899 -0.15972373064462372 0.10548003216999394
0.13885294787857075 -0.1591484059004011 0.10602024767675734
0.13919260844058204 -0.15886160292819015 0.10549589921681392
0.13887903495795764 -0.15853643152026123 0.10582719958103651
0.13913774795998463 -0.15800975857343075 0.10544305912302003
0.13939750347702723 -0.15745820192238225 0.10508120730502114
0.1391290120303064 -0.1573886972066273 0.10540508943002386
0.13934745266288212 -0.15686639198728541 0.10510935620384906
0.13958067826941872 -0.1563992025218248 0.1048248416959246
0.13930646731051785 -0.15622611489935528 0.10515679710321328
0.13962171048141753 -0.1557955101405853 0.10470691128111632
0.13932453622394794 -0.15561612586041362 0.10507951628873297
0.1395947107737703 -0.15517158002844209 0.10472622847157669
0.1398853206733566 -0.15474961608037652 0.10437889203798378
0.13962212914546215 -0.1546406418948727 0.10474195269792644
0.13992514089180574 -0.1542247724437315 0.10446424938573112
0.14030661004419054 -0.15381491008683432 0.10418676282716588
0.139972796913041 -0.1537828640584933 0.10455979805960021
0.1402957041649935 -0.15339773830852418 0.10437512264923926
0.14064822905612248 -0.1530152381112517 0.10423323799988252
0.14030967506245343 -0.15296765342603963 0.1046093004353216
0.1407855631133625 -0.1525694961780181 0.10435687587434148
0.14041182471460795 -0.15261086268200133 0.10471984179757692
0.1406620822574629 -0.1521422211069605 0.10477123344722493
0.1413183775103628 -0.15165578762648768 0.10443872567005566
0.14099916072714824 -0.15163833131109178 0.10476447676719045
0.1413542600892283 -0.15113636073613865 0.10477023471514235
0.1420803133074201 -0.15069483164038547 0.10440664103711408
0.1417782454154451 -0.15056057335156506 0.10476391304670366
0.14226224850203492 -0.15020949157263835 0.10458102740791773
0.14271902722132612 -0.1498550314411699 0.1044457731251777
0.14240979583785943 -0.149754384913026 0.10477989499755791
0.14300115841766392 -0.14939758804638137 0.10455333918678153
0.14259943376758263 -0.14939673961363453 0.10488948035480766
0.1429569849013727 -0.14886528236776683 0.10498415507865046
0.14379574616725485 -0.14836219613504859 0.10468768556169378
0.1434219284377198 -0.14823574325169092 0.1050397508040319
0.14398668140827825 -0.14788891067004292 0.10487780899993783
0.1445127601772707 -0.1475515897035259 0.10476324495280695
0.14414743594994633 -0.1474449154928358 0.10509511258662893
0.1448146918701054 -0.14709438493982135 0.10489372220498394
0.14435075829971658 -0.14708037576709201 0.10521660975016096
0.14473738194893457 -0.14655715005562306 0.10530671350679924
0.14553894932975475 -0.1460896686265907 0.1050443931398758
0.14528910755966926 -0.14588620421890508 0.10537719617043086
0.14594208544226075 -0.1455693323935968 0.1051056373555307
0.14561007213204072 -0.1455038543421826 0.1054125442303741
0.14600061908429934 -0.14503756962484776 0.10546946343606983
0.14667831384655453 -0.14463990690728057 0.10525524546490697
0.14645565602376676 -0.1444466703076331 0.10561872136176279
0.14702191913300866 -0.14416036902341642 0.10538969516804603
0.14670175714414735 -0.14407809049517128 0.10572933838093576
0.14701534519332998 -0.14358551481211965 0.10586315621550758
0.14771361584107726 -0.1431446913007161 0.1056298974388529
0.14747854878828523 -0.14283138197419137 0.10609024132461731
0.1480861343055756 -0.1424963426845029 0.1057666664249969
0.14780968479351086 -0.14206155035777532 0.10637173601920032
0.1484553208565342 -0.14170908624028686 0.10595751515824826
0.14829076161223284 -0.14124980245321908 0.10644144229859501
0.1486871103372231 -0.14106282312631568 0.1061332249251159
0.14900483186769195 -0.1405081412997353 0.10613647983319806
0.14972417020906142 -0.1398012117258086 0.10579384068478902
0.14938387807499873 -0.13971709065015966 0.10622448194584264
0.1498824001605194 -0.13919413946678108 0.1059949988760424
0.14965202792288163 -0.13886122964540618 0.1064727364251388
0.1501328941172225 -0.13846455090500256 0.10618516944056823
0.14992828671758093 -0.1381011632227476 0.10665094654084248
0.15046033568377137 -0.13769820302334976 0.10637329802967797
0.15016416162882368 -0.13758086499241287 0.10678137918377197
0.15051338575446105 -0.13693498145086233 0.10692924249687281
0.15124077477278047 -0.1363999468076235 0.10669581902865626
0.15108052946912268 -0.13602742045761979 0.10715823963883314
0.1517518631176936 -0.1357148251360156 0.1068703207211027
0.1515599697443825 -0.1352515784927368 0.10740034426862768
0.15235255914491594 -0.1348137498492323 0.10712532692949536
0.15197227998038945 -0.13439606064757356 0.10778001208879794
0.15272291421178977 -0.13391214947280536 0.1075272877645848
0.15246264225151968 -0.13352602531247434 0.10801448528356343
0.15307480531445963 -0.13414371082813828 0.1070358186057208
0.15298890007411473 -0.13324165206563438 0.10779906258757924
0.15342591358161922 -0.13327608846174738 0.10738583005882577
0.15342170554717802 -0.13256041194379548 0.10789561723069906
0.1535894295420071 -0.13180351464569345 0.10816024174845912
0.1544285972704197 -0.1311075435739534 0.10773717242718407
0.1540292404078339 -0.13097530818950273 0.1081739076421362
0.15464920147966024 -0.130335176750275 0.10788730971196386
0.1543634653834458 -0.12988532137323078 0.1083585975328926
0.15494146423097999 -0.12939211321643315 0.10803458393369925
0.1547757031654156 -0.12879331108706057 0.10851918930073479
0.15501961108844392 -0.12775746164019777 0.10880920642851705
0.15531633519778712 -0.1267993920378469 0.10904952809510654
0.1555294704144308 -0.1259926351992374 0.10924387779912406
0.15636247058985306 -0.12526300053355133 0.10869904634585782
0.15599197506278112 -0.12510854127492382 0.10918550876297625
0.15661068298000697 -0.12436635329198084 0.10876638030538911
0.15637683267616803 -0.12391901158794569 0.10928493658915822
0.15691555793340253 -0.123294879583047 0.10879151330153113
0.15675891589284596 -0.12263492505761897 0.10923950896643717
0.15693135502944533 -0.12145382091601307 0.1093284009303388
0.1570267388673174 -0.12068912872674095 0.10934619647759279
0.1569528882678518 -0.11972459827063907 0.10957574845982677
0.15697282212732616 -0.12037230720740814 0.10949903365644106
0.1569236406740115 -0.1188810362203917 0.1096740462949851
0.15670797355745938 -0.11851389133309338 0.11009291885323368
0.15664932799025755 -0.11943457369122015 0.11006203252381754
0.1567315344408463 -0.11748788775622795 0.1103141764813608
0.15689643345068666 -0.11670952451204669 0.11034849700873217
0.15673986883473132 -0.11651609248545285 0.11078407572492481
0.15658202172086452 -0.11710939481777556 0.11067550393043542
0.15737260169556963 -0.11588276580266585 0.11022902867857357
0.15703949002998158 -0.11565180851904011 0.11102197743157823
0.15781509088963286 -0.11498929281433186 0.11048155621236462
0.15852685609337647 -0.1143570247955608 0.11028916865294064
0.15811296792825488 -0.11444705164818196 0.11067833261380823
0.15857098979934073 -0.1137865536583306 0.11097086752155713
0.15969567135083917 -0.11295470783553035 0.11079018451406261
0.15918872551736368 -0.11274324543754784 0.11152599478967179
0.1601408514785982 -0.11218629596943862 0.11121191283622886
0.15989745530591193 -0.11183143404377811 0.1118006960890169
0.1605260764857209 -0.11238072168913008 0.11065063790033679
0.16047392132364194 -0.1115655974948049 0.1115091248074285
0.16096144012325814 -0.11155979713327861 0.11104175743416403
0.1609264385624874 -0.11095675050374243 0.11162268374733154
0.16153966414053642 -0.1106288786702996 0.11124855238312216
0.16136129136988905 -0.11010057356727723 0.11185544731249578
0.1620265327641687 -0.10962455072927674 0.1114771349737356
0.16181319968076496 -0.10900593569308081 0.11217298447853226
0.1624885300502839 -0.10858952667910242 0.11172711422105576
0.16236412316800442 -0.10809069060180397 0.11223934873929617
0.16289680956536728 -0.10761033574964286 0.11196115865839415
0.1626420858252344 -0.10723615168966653 0.11254454235523453
0.16325918798228786 -0.10660049924344243 0.11223449928399946
0.16298881526418624 -0.1062009090237488 0.11286135614232891
0.1636365314092848 -0.1055295431268056 0.11253802940167933
0.1633900336917613 -0.1050601591244457 0.11322204408856248
0.16398226478268246 -0.10463449102785902 0.1128225400959359
0.16458032929009486 -0.10369754405195256 0.11286612073339795
0.165143721287831 -0.1025384895363688 0.11331069125601179
0.16571534813911357 -0.10142215145864064 0.11372551639999787
0.16628122646291463 -0.1002502067996287 0.11411539349332386
0.16681499084609344 -0.09901318497265857 0.1144634731529524
0.16729227267111427 -0.09799635964475992 0.11473044811177432
0.16738386969907176 -0.09754441842000071 0.11491999043596358
0.1668773700704874 -0.09765548373730107 0.11527459943133549
0.16711136013611044 -0.09775012728649494 0.11510097947071728
0.13906292502871606 -0.16748280896915455 0.11244260994879941
0.1387118994656818 -0.16757388984717506 0.11299849968449116
0.13948645822412778 -0.16745554521395326 0.11170178039018734
0.13882985207696433 -0.16720347570587102 0.11255474854148688
0.13905054144786885 -0.1666943518253636 0.11180701824838916
0.13875842275094802 -0.16659365350585437 0.1122289179967088
0.13938035169873875 -0.16630808563424748 0.11082784072564165
0.13873983109368443 -0.16590721011024628 0.11158454876001103
0.13882619711962765 -0.16525225424120907 0.11063058825047352
0.13847294195006576 -0.1650161783682042 0.11109735704340959
0.13919547339535665 -0.16503298305373626 0.10979961020035436
0.13836746097385033 -0.16410686229296764 0.11016271452960008
0.13822782263043026 -0.16431526951153194 0.1107152554823475
0.1386815539182802 -0.16381744345297736 0.10928356565344786
0.13802111345992946 -0.16353411277347116 0.11025124391277409
0.13816908082412976 -0.1628829109711258 0.1092956928874679
0.13794519786648426 -0.16278341804359672 0.10967038198367668
0.13849808096692712 -0.16242241151275777 0.10831899710551349
0.13784591918647998 -0.16208897755793514 0.10926143188232186
0.13809237034577324 -0.16160549937331922 0.10849240968562571
0.13786380666036704 -0.16147089463105746 0.10882928522058381
0.1384253327565145 -0.16119568308581902 0.10759076472511453
0.1378138379088105 -0.16085380713549663 0.10850314513735394
0.1380679692512664 -0.16040028636137785 0.10779526546497101
0.13786493321729731 -0.1602765885285025 0.10813675610575849
0.13843584793786326 -0.16002793332432666 0.10695600410480334
0.13785699562758097 -0.15967693283192708 0.10788049145153135
0.13815757563649939 -0.15923356546686457 0.10720862577228402
0.13790740936830637 -0.15910806901128963 0.10753935414359701
0.13856123078879487 -0.1589110508231682 0.10640072875338719
0.13792329625255553 -0.15852814231831044 0.10729837553938054
0.138289990942207 -0.1580982669826287 0.10666302373540436
0.13801768809177106 -0.1579582891261206 0.10698531143159207
0.13879071401103216 -0.1578043972576605 0.10591089583529688
0.13814521163908558 -0.15735934933280393 0.10683584485130974
0.1385540885920515 -0.15698720301886118 0.10618223719827366
0.13830504293100254 -0.15667903605820324 0.10654991624109339
0.1389948118555958 -0.1568522771455699 0.10555902108473489
0.13850143312820837 -0.15627259735357582 0.1062239447723478
0.1389051214225299 -0.15595787507521183 0.1056730604022881
0.13855563278102906 -0.15569045493432468 0.10622143113646637
0.13880603057357202 -0.15517053630229574 0.10587805329660335
0.1385552954769481 -0.15526898399442499 0.10626525136811069
0.13926387261366527 -0.1550003847316672 0.10523333356997075
0.13859889719173893 -0.15480975705254327 0.10627884173873692
0.13903730821275262 -0.15440529141011636 0.10570416020954375
0.13878202060150363 -0.15433924274687372 0.10611837248594398
0.13955578755769793 -0.15413917470903019 0.10498306817646434
0.13891054288891247 -0.15389031272875492 0.10607198120184708
0.13939651874032677 -0.15359655503528613 0.10548530089664013
0.1391379623051991 -0.15347367828685357 0.10590476999737305
0.13988537710070928 -0.15344204783688514 0.10484478869098263
0.13936595359989892 -0.15303704117367198 0.10584559508829322
0.13994331087518957 -0.15281187740599333 0.10516518974556104
0.13968524678171487 -0.15262303525850296 0.10563525384080298
0.14005365061155894 -0.15211766532215376 0.10554485062805313
0.1406751694451355 -0.15162265619150858 0.10513240381175656
0.14038993582158252 -0.15160361003352288 0.10550774310356703
0.14071811708097837 -0.15111239721875955 0.10549656275207359
0.14134904359292969 -0.15060898236580322 0.10516598118215092
0.14100751437409176 -0.15052342819936176 0.10561070901259595
0.14144541984115194 -0.1501393219631509 0.10542190874144347
0.1411447383673807 -0.15019958154293295 0.1057073669295516
0.14187439482186423 -0.15013309657987994 0.10498396689531594
0.14135238483231338 -0.14983514897941622 0.10580107153188502
0.14205582671999953 -0.1495443322380757 0.10527504915525154
0.1417489344358452 -0.1494068933677685 0.10571489930731885
0.14216008872818175 -0.14884318488186302 0.10571752511107606
0.14292178150249266 -0.148272777240926 0.10540900594571584
0.14253101673202437 -0.14814662546927007 0.10582380923135824
0.14304179634897762 -0.1477743299861622 0.10566607166744978
0.1427071201158434 -0.14779806256991435 0.10591557824632614
0.14352695861761075 -0.1478115518123356 0.10527371355429478
0.14295601164136598 -0.14741218588383442 0.10602274377518264
0.14374559308376866 -0.14721343337851803 0.10557360226975467
0.1434127897014415 -0.14701044056325366 0.10596929502233794
0.1439221521641962 -0.14650282525342728 0.10597361079547789
0.1447177044102139 -0.1460752712645257 0.1056984721062892
0.1444810336618738 -0.1458388456946029 0.10608370448314676
0.14520256284435382 -0.14553581468285423 0.10573667863948091
0.14487576142731087 -0.14535524649765869 0.10615912970095844
0.1454448653145661 -0.1449854250227854 0.10597276137657348
0.14597057130252386 -0.1446151422487024 0.10585625776764579
0.14564045154737917 -0.1444882481889315 0.10623581357878915
0.14627965015859215 -0.14412420604310683 0.10602745158632128
0.1458673878890657 -0.14409563061460345 0.1063820284627604
0.1462604817958662 -0.14357302233272454 0.10650848661503778
0.14695172522665031 -0.14310254234041103 0.1063437782295354
0.14671155298967464 -0.14292389524272936 0.10671345515267464
0.14720408584356615 -0.1425971378878155 0.1065437355117396
0.1469444930164366 -0.14255923656990008 0.10682314869681785
0.14720643969725022 -0.14212008370536494 0.10693572109814735
0.1477811486107256 -0.14140585022249022 0.10687794990112792
0.14863207672393575 -0.14068839932710864 0.10643915155673253
0.14828882929370377 -0.14058119868821906 0.10688893128087996
0.14885409232103103 -0.1400768613992604 0.1065973202572089
0.14862137980035683 -0.13969661983224257 0.107101822371197
0.14914038646762778 -0.13927059425430577 0.10677368945074504
0.1489323805170002 -0.13887518918707656 0.10726789878643934
0.14943682838098155 -0.1384600292887609 0.10696183963808557
0.14925042946146355 -0.13808479453524905 0.10742309619643613
0.14979418249498788 -0.13763660721712997 0.10712726911828041
0.14951179278769938 -0.13753522875428656 0.10751661647083094
0.14987645568746608 -0.13685504161351228 0.10762240436454751
0.15053945153170753 -0.1362874086666563 0.10743418551354182
0.15034831701341297 -0.13599384290724423 0.10785208398647325
0.1509171286603616 -0.13563752781636862 0.10761447280164961
0.15071680871628573 -0.13529245794715325 0.10804277163873502
0.1512766170491707 -0.13495171597448546 0.10784653128771877
0.15106443962038066 -0.13473605729467927 0.1081869329353028
0.15148344123406388 -0.1344175284456678 0.10811203556184566
0.1518438215717629 -0.13379029512889226 0.10829432415686516
0.15287583673790767 -0.1328921932127562 0.10812603223545358
0.1523846169806622 -0.13285306356071905 0.10850381024689404
0.1530821715534682 -0.13222951335958297 0.1083517595734217
0.1527483553874172 -0.13184282154104046 0.10879096901685197
0.15339246564975512 -0.1313776141745236 0.10854204264041041
0.15310604692329677 -0.13089852282811537 0.10901580163176357
0.15373453675129287 -0.13042487487050483 0.10869459571245874
0.15343509750435075 -0.12990593728541455 0.10919407912892735
0.1540760211935147 -0.1293791690698547 0.10886947336634623
0.1537768168812798 -0.1288857389310001 0.10937491084189693
0.15440597957888444 -0.1283501011135869 0.1090815713727877
0.15409870540029916 -0.12787699275919834 0.10957095867298039
0.15471673320565107 -0.12735326859234017 0.10930537960837644
0.15444548523418924 -0.12690839677824087 0.10978845378992987
0.15503430672974833 -0.12642322168678238 0.10950666160438281
0.15477667402142084 -0.1259590914828603 0.10997417477876349
0.1553724441849604 -0.12550106830460453 0.10963900832418443
0.15514660917944065 -0.12497290655223728 0.11013749814501185
0.15577636253363433 -0.12449935086448914 0.10975555406368259
0.15551958803541385 -0.12395627601324123 0.11028025522451165
0.15612340473626263 -0.12339404966674279 0.10982993927580675
0.1558725087688697 -0.1229001474037777 0.11037458041482058
0.1564277080360346 -0.1222300791004773 0.10986443850528328
0.15613988828699077 -0.12188360372245183 0.11041818136267138
0.15665293097895253 -0.12098539134388167 0.1098561619705927
0.15626413925465815 -0.1210898037165375 0.11045395479183512
0.1564845741775503 -0.12028684140592008 0.11024308158612728
0.15623399569016289 -0.119683133277546 0.11067503329060792
0.15612815398526392 -0.12066698787687222 0.11073966225463512
0.15625285530189892 -0.11850312989749917 0.11087157043416816
0.15637566394093783 -0.11765083195130341 0.11085779204045369
0.1563365976048617 -0.11721747361008286 0.11113057314644956
0.1560876764637934 -0.11798321102749547 0.11131368961280637
0.15641952703260825 -0.11656236424232333 0.1113949621035485
0.1565525739719098 -0.11590055262405999 0.11167177493629671
0.15766332076187878 -0.114670342491639 0.11107860122509228
0.15697704793025535 -0.1150949993821445 0.11167357580333687
0.15765612017826477 -0.11405335306303145 0.11178779308133872
0.15836791650424492 -0.11339161547584686 0.11166366589647332
0.15804157184783013 -0.11344713414106515 0.11195645449202364
0.15843853364482252 -0.11289390944945364 0.11213655008262115
0.15921227181073394 -0.11209284080970881 0.11221533149552104
0.160398712700273 -0.11121647182837521 0.11191071922042134
0.1599232980703572 -0.1110905752250186 0.11247249201607096
0.16072528368182112 -0.11054948780942186 0.11217207112557903
0.16053151481755049 -0.11014440135000493 0.11268389118552716
0.16111670347265303 -0.10966740385876235 0.11245209598516699
0.1608316276576513 -0.10923515160839486 0.11309781541217342
0.16142381059264596 -0.10887832235171395 0.11273189285999641
0.16194167282944077 -0.10801264707533258 0.11277050850766536
0.16234774537888283 -0.10688958231771768 0.11315046235803981
0.16270861599408662 -0.10585779866924616 0.11347646669673048
0.16297748188784467 -0.10498280302091481 0.11377224784285965
0.16396073905347755 -0.10414062688680087 0.11326589267208023
0.16356227533957995 -0.10400811258777207 0.11384716777062148
0.1643597407765719 -0.1032341970637886 0.11358803640511705
0.16413120584554874 -0.10277353312971832 0.11427407411743787
0.16489932251488099 -0.10213298019740057 0.11399704679184286
0.16468828476917896 -0.10163217694200649 0.11469074178879109
0.16548888179274138 -0.10097909063995938 0.11442823724022753
0.1652275991023051 -0.10044734243250272 0.11509895771548742
0.16601363405672617 -0.09974104144458149 0.11480642111621431
0.16568610572501563 -0.09919946013830896 0.1154530916263161
0.16653016460361492 -0.09836844477378048 0.11518136027749927
0.16591773148180214 -0.098322601414227 0.11566704866914683
0.16619697808547892 -0.0978464826155812 0.11565781751160373
0.16561348813412377 -0.09781507433022288 0.116059058063837
0.1657963455616972 -0.09798349594724096 0.11589032037970894
0.1382202868375859 -0.16832172758970837 0.1143016612345573
0.1383696627602035 -0.1678155349721706 0.11368564032825705
0.1381372932297684 -0.16800308195444993 0.11427148666468373
0.13819601282363264 -0.16728225098865077 0.113661006542227
0.13804145315235422 -0.16753739967816395 0.11419014060590206
0.13853446359807556 -0.16700793956185345 0.11290288165728106
0.13787104260801192 -0.16674201940544256 0.11383242722385443
0.13815462118288155 -0.166071442314059 0.11278737711584588
0.13779555589568476 -0.16566064253360588 0.11304771006189249
0.13848552096304753 -0.1658952925415937 0.11203034777228268
0.13786730898376098 -0.16504450584970176 0.11232185330983258
0.1381136273208764 -0.16469024573345928 0.11147875510977287
0.13770756727285552 -0.16419961402460992 0.11169008351089188
0.13772300124804546 -0.16347190422858116 0.11081822853132657
0.13777930820602355 -0.16272451968912777 0.11000636293179589
0.13752635150169723 -0.1626299602802587 0.11041511647910122
0.1375697240667623 -0.16197560653196935 0.10973331053568328
0.13765747166159129 -0.16138275020266238 0.10909773401781239
0.137411730224868 -0.16129247286603543 0.10947954165723243
0.1375172379933722 -0.16070979122750012 0.10892735223116697
0.13771370968424174 -0.16017995691781411 0.10842290717865079
0.13749241974798088 -0.1600673448018965 0.10880269237255367
0.13761878759965968 -0.15955101240404954 0.10833287314135083
0.13773724830079256 -0.15903727386876249 0.10781988457261535
0.13755946320372708 -0.15894231495456188 0.1082036779183484
0.13768296511343392 -0.15842095105015022 0.10774594861604424
0.13784884780871304 -0.15788880330764268 0.10728573879308173
0.1376791762057761 -0.15784395746615146 0.1076878088116302
0.13785722513129306 -0.15729330243770398 0.10733501801519316
0.1380912602647461 -0.15671295085013118 0.1069768915619831
0.1378329009996275 -0.15671925123129204 0.10744190413774422
0.13804086868510007 -0.1561870021906617 0.10709313990025184
0.13783117050695032 -0.15631113964249888 0.10745234581645613
0.13827191737494537 -0.1561474598600749 0.10661561929007624
0.13790343216826628 -0.1558167148714762 0.10736946281389592
