# .PCD v.7 - Point Cloud Data file format
VERSION .7
FIELDS x y z
SIZE 4 4 4
TYPE f f f
COUNT 1 1 1
WIDTH 793
HEIGHT 1
VIEWPOINT 0 0 0 1 0 0 0
POINTS 793
DATA ascii
0.16935080939218006 -0.12435214520542882 0.09195719092439146
0.17022207660484165 -0.12376552904380957 0.09171729292320406
0.1707440434359967 -0.12299959500759285 0.0920333739035429
0.17112161387867608 -0.12230557156372886 0.09238858267459461
0.17217189299901917 -0.12140173404644614 0.09200097780944655
0.17146118341116812 -0.12157721194944963 0.09269043639689421
0.17225423764829642 -0.12090464149475655 0.09234089655620735
0.1727680103395957 -0.12002620588171299 0.09229961675621823
0.17303921150166773 -0.11901042454599073 0.09255497219151426
0.17330220402649257 -0.11798333312105852 0.09272342978820419
0.17354100039099313 -0.11687518661134384 0.09286307697860322
0.17391962799443683 -0.11581262457119917 0.09261296574512
0.17389158362989365 -0.11523666472162492 0.09284324822075654
0.1741947450743558 -0.11376908620785772 0.09275749348282383
0.17377241858269954 -0.11473304317445183 0.0931711592427065
0.17421026206278928 -0.11303411952725893 0.09303069853437047
0.1743791247719856 -0.11215997186281883 0.09324219049973144
0.174744699401008 -0.11119945590008082 0.09342148324463623
0.17521984337882437 -0.11007605726821292 0.09367403738727767
0.1761966301469871 -0.10916267183331232 0.0928398922517476
0.1767613785785306 -0.10812121121616368 0.09301437862029639
0.17724208844417264 -0.10711315912118605 0.09325488722449245
0.17779476181667506 -0.1061072204842482 0.0934661381397968
0.17838436190861287 -0.10511927932228732 0.09362685254332019
0.17894696225756965 -0.10418207076719553 0.0937467366822637
0.1793606172047004 -0.10338835016199319 0.09382359134457019
0.1795141866312717 -0.10297429184234039 0.09398710618110133
0.17916695098914664 -0.10296473280894564 0.0946134191367708
0.17914131183572807 -0.10329357863128677 0.09433986926894448
0.15789256864410534 -0.1789018649103019 0.09513195160653751
0.15838998652428848 -0.17859698647704597 0.09457702218589592
0.15784119067669677 -0.17825738391750345 0.09491256917865205
0.1583378728509645 -0.17819837432815808 0.09447361064555859
0.15834410933555224 -0.17762254769248972 0.09431922973654054
0.1587195488377584 -0.17680188339144487 0.09392904363292828
0.15830997889368542 -0.17697991719190673 0.09421685734802573
0.1578443003253347 -0.17610119060244633 0.09417330636761342
0.15771366371251222 -0.17521282714189992 0.0938995147702062
0.15830333684980466 -0.1743658753499551 0.093514391620188
0.15757416940282137 -0.17444460389405547 0.09375589581240017
0.1570178973560481 -0.17343595138597045 0.09373360662973798
0.15769618412612874 -0.17303415836795855 0.09339948126583801
0.15660253096856136 -0.17239630546964724 0.09354620240625333
0.15752932108293696 -0.17228091047969424 0.09328029131956042
0.15641086433242413 -0.17179979381536523 0.09347018688017318
0.15620579752956573 -0.17107247771651418 0.09338240746654472
0.1569988678346694 -0.17067214526432026 0.09305674880978153
0.15530521846905362 -0.16977741946050634 0.09320121029517099
0.15668793675550707 -0.16971832272405338 0.09279983991548058
0.1548711890036531 -0.16865044013991465 0.09300881920059811
0.15585856594150094 -0.1685084071918072 0.09276703405223975
0.15630708531955248 -0.16821093153358532 0.09247627547624333
0.1553040073514885 -0.16771790036846163 0.09266562980426045
0.1557008934278683 -0.16750355549158907 0.09233120916440479
0.15489726658372427 -0.16725024920455078 0.09249131319928953
0.15439050065638915 -0.16667844855136502 0.09226162698390068
0.1540763500310131 -0.16585240023572823 0.09188889564496325
0.15283133190880266 -0.16478531661105264 0.09179967009640755
0.15419372465633072 -0.1645085797054505 0.09134888558893828
0.15296248871995774 -0.16406352044274042 0.09164111889682323
0.15370766627680477 -0.16394773341499466 0.09137949446119661
0.15384108765941598 -0.16358655983009715 0.0912759442873612
0.15332449502621476 -0.16280069061115063 0.09138421691798192
0.15255410302917058 -0.16193149179699745 0.09163360604271824
0.15376469902085654 -0.16170170541996481 0.09128615600223083
0.15281216388372382 -0.16143289311409478 0.09157393253214965
0.1533306396494609 -0.16121271697558137 0.09147564130968612
0.1531096218613947 -0.16054762829756403 0.09163246553787772
0.15437639889830834 -0.16005627516679324 0.09125957294138053
0.15322441579798518 -0.15973449898148603 0.09165528759041601
0.15385069873947332 -0.15949203105852386 0.09146155905338353
0.15367447652823016 -0.158832435394011 0.09157159360769947
0.15472316567956318 -0.1583685633289889 0.09109867420429346
0.1537096238891346 -0.15808911983561816 0.09157672272585123
0.1542423283001587 -0.15784766190203878 0.09130722959923637
0.15411025481085974 -0.15721590687962095 0.09137438697186989
0.1539301862729057 -0.1563686179436558 0.09154859346407856
0.15466733698794433 -0.15622481977320218 0.09116536103418708
0.1542352181709029 -0.15553072387900416 0.09148568701824407
0.15556812960438798 -0.15523010757076294 0.09095922136172456
0.15459303180552125 -0.15497941168823212 0.09146607734668406
0.15518298494278684 -0.1547361749977254 0.09123307240679396
0.15524947411405088 -0.15418528463574502 0.09140303593925769
0.1567286373576569 -0.153825741959807 0.09120546742572525
0.15572553676370043 -0.15356470060468053 0.091601868860028
0.15643255626803876 -0.15336344363276616 0.09154557057968152
0.1563960059205109 -0.15278353382617713 0.09182685608720455
0.15765666419092964 -0.15223519707930552 0.09148229682073257
0.15670570338994336 -0.15206550015997386 0.09200199873149392
0.15736290509674106 -0.15178439463827775 0.09179962315432666
0.15754304904862193 -0.15117924951053124 0.09199698830753134
0.157807961113023 -0.1503581335130091 0.09228177863170699
0.15870397387633955 -0.15004905150109676 0.09179577325235033
0.15872373795864267 -0.14924639602677062 0.09189920807096794
0.15905073474672707 -0.14852776245576998 0.09175095346399272
0.15898677613098156 -0.14791592521173882 0.0919016181026228
0.15906955546974894 -0.14717831688961547 0.09197265916600253
0.15921869920653495 -0.1464597110022566 0.09202402427462461
0.15930209764365721 -0.14574985697321044 0.09212664506125463
0.15944969838775586 -0.14499056670714888 0.09219811832019947
0.1596409540722118 -0.1441060129205161 0.09230051535221413
0.1607157629444366 -0.1435965885469866 0.0916488633227121
0.1609522505682677 -0.14274806761984932 0.09167878437884588
0.16109724033807402 -0.14180013788375545 0.09179846467367551
0.1615296671702459 -0.14090402138581115 0.09150275649133907
0.16147718181224507 -0.1402726985252316 0.09153311380845097
0.16140204804858854 -0.13962204029656264 0.0915772877405663
0.161920763145806 -0.1381917054658507 0.09103606893008932
0.16126123756197974 -0.13901328325868406 0.09167171122141946
0.1618575875660376 -0.13749493954946607 0.0910843285725112
0.16188820367662124 -0.13677196426209923 0.09116695338984768
0.1620270898394882 -0.13605311250135513 0.09129313471846444
0.16232324223381686 -0.13529930323612885 0.09140068058669382
0.16273923055188763 -0.13453170869465958 0.09157451205087229
0.1637554878431581 -0.1337660152232165 0.0910217068226877
0.16417301370435577 -0.1329754689466736 0.09130175754595563
0.16461392080392434 -0.1321749276138824 0.09160926054115982
0.16502602028281158 -0.13138258791556268 0.09186467974463969
0.16545888644973633 -0.13052100303246128 0.092004348276737
0.16587885557187163 -0.12958309869884999 0.09214882254669117
0.16618962083156513 -0.12864725540089517 0.09236420725871237
0.16634192029737147 -0.12790900445878003 0.09265446754804686
0.1676559444819697 -0.12661813227681715 0.09194509620379918
0.1669297803286097 -0.12682099932289528 0.0927160872886995
0.16778310030051632 -0.12602613246814745 0.09223974231611697
0.16832879728810915 -0.12510717170774321 0.09238352656667714
0.16875353125990208 -0.12436275417478262 0.09260466848539238
0.16990345543879257 -0.1235996362208989 0.0922400979522977
0.16920730431360045 -0.12372139441658946 0.09283250321871574
0.16997311947526048 -0.1231507011219111 0.09267305370487992
0.17049839490528954 -0.12243029215946885 0.09291737914472947
0.17070306940084953 -0.12169380996751142 0.09344429106603441
0.17199943614784358 -0.12066892529312624 0.09282141797003278
0.17131518425645306 -0.12079705929035739 0.09349816484960916
0.17221929809235964 -0.11989188234030212 0.09308007479470626
0.17166650590710972 -0.11979126087682314 0.09380197001959062
0.17247753727787454 -0.11893738808924267 0.09330650510953521
0.1719410723151017 -0.11886847242711272 0.0940445653863842
0.17273886206152525 -0.1179647997161432 0.09349464723949227
0.1722032672864602 -0.11786651603701952 0.09424203281088231
0.1729413630297195 -0.11717486552258581 0.0936289351116155
0.1733591072141634 -0.11623627657879217 0.09336759251344995
0.17345783954185415 -0.11551135436707473 0.09344409587614888
0.17350968050441562 -0.11430677976447232 0.09370463111449537
0.1732592640257436 -0.11526776981099017 0.0937873505813308
0.17367431438127937 -0.11324452854918529 0.0939218934561801
0.1739570438948966 -0.11224588209775178 0.09411018389638036
0.1743403348734911 -0.11124422230403937 0.09429865862560718
0.1746299246526654 -0.11043507165745683 0.09453486684037725
0.17590591666646246 -0.10893817919715583 0.09354832069300925
0.175279921164484 -0.10929759054054149 0.09439342961808833
0.17628293959245311 -0.10809407048736137 0.09383128455392278
0.17580009596781473 -0.10813245248822048 0.09466355538837168
0.17677912386033104 -0.10707252588742129 0.09405286097302681
0.17636258775351102 -0.10703998416726954 0.09484993575367326
0.1773613563611108 -0.10606215143155555 0.09423934939199269
0.17700897457998635 -0.10597292386546489 0.09500241831454363
0.1780424551059584 -0.10503685204098755 0.09436826325815065
0.1777372604286524 -0.10487266067553189 0.09508721040609314
0.17866577172091794 -0.1040513954451557 0.09441137061131395
0.17851437267803386 -0.10366733502856583 0.09507483596428384
0.17884299946671592 -0.10279484693217178 0.09546494157363042
0.1789817494584321 -0.10217263562392621 0.09591693535529792
0.1571168430881603 -0.1802787181877719 0.09610838155142377
0.1576383458425088 -0.17933819300066384 0.09544839498412575
0.15701772657652455 -0.17939701915947706 0.09592629243303333
0.1575084566237301 -0.17906698153095832 0.09552194584926817
0.15733061198384762 -0.17837348268750772 0.09541089422907952
0.15777984263967246 -0.17763694681055348 0.09472642917144955
0.15669581482579117 -0.17711808157625203 0.09523955784989291
0.15742959391785294 -0.17669977728696418 0.09463716464200628
0.1559718781953096 -0.175727181384742 0.09494941433055494
0.15659790241960317 -0.17552898656508867 0.09449766151486069
0.15688316858395765 -0.17513707590959043 0.09417220887283882
0.15589596036900247 -0.1745311373814018 0.09436192138034528
0.156488327188134 -0.17420888442979898 0.09405059585976448
0.15549734583571592 -0.17382455909754504 0.09428706065653467
0.1551451872103005 -0.1730150033290077 0.09414822758138357
0.15561534498167895 -0.17239661701309672 0.09377252113667679
0.1542373340697168 -0.1717390958686497 0.09396526255152518
0.15534804836557492 -0.17152696290917144 0.0936047521799966
0.15398322676557089 -0.170824280129728 0.09373638654072336
0.15470774603922424 -0.1706541874218031 0.09351136038604892
0.1548419570369642 -0.17023345633970238 0.09339642735785521
0.15421600116418294 -0.17013757477494523 0.09344332353073179
0.15377741622230837 -0.16952153134523437 0.09342662561672911
0.15367356013343525 -0.16863822182045143 0.09325775919003527
0.15468002541921957 -0.16788184998237088 0.09288401949485943
0.15318055498215383 -0.16755368714742067 0.09301534348568007
0.1540065317497219 -0.16710382324896567 0.09266882898426365
0.15256103825497502 -0.1665284493923354 0.09283633026824104
0.15299022612381208 -0.16622292775786093 0.09248208983550295
0.1531698833610856 -0.16588657694323547 0.09215011062752222
0.15184949064706396 -0.16539712101996903 0.09231418948072258
0.15248639881422352 -0.1652095817542689 0.09197837929346564
0.15124698243295204 -0.16466815518412353 0.0920918848025208
0.15171342621115091 -0.1645220263133649 0.09190962624039074
0.1512627451921752 -0.16376812605669944 0.09194162523372867
0.15285923743718657 -0.16329227686356862 0.09157515054972945
0.15133868552350754 -0.16286998228544713 0.09191379982939125
0.15209306002712028 -0.16256762615158588 0.09173331702741212
0.15222570668381497 -0.1622322656065315 0.09171569888820454
0.15172800836279862 -0.16215213338534107 0.09184292068160317
0.1514913727191416 -0.16172934487212767 0.09191458080713005
0.15176903910075815 -0.1612722987280345 0.09185956901867758
0.1525778593519059 -0.16087408369209524 0.09169430413118797
0.15193952435186645 -0.16088679631805788 0.09183081786443904
0.15167585612050796 -0.1602780397002558 0.09199932249328738
0.15167001951538467 -0.159508043442865 0.09210342863789135
0.1530744675813299 -0.1590562680924821 0.09176576242247536
0.15191631817652956 -0.15873767110247514 0.09211387813356817
0.15256264473409084 -0.15851815065759875 0.09194250119602594
0.1524128657477396 -0.1579034960978751 0.0920733721063802
0.15350794195286402 -0.15745775847186388 0.09166283664535033
0.1524637403743966 -0.15719024500086398 0.09208891891747403
0.1530023392780014 -0.1569506178709944 0.09186266308954631
0.15286204899428124 -0.15633690036295997 0.0920162816940549
0.15383633424539445 -0.15581789345510566 0.09163125081799853
0.1529838017194756 -0.1556145852233447 0.09209780154219148
0.15347502633671825 -0.15536655986505402 0.09189494641249962
0.1534567425296079 -0.15483789367464626 0.09203470563278485
0.15458667372648627 -0.15439663844032814 0.0916202909662431
0.153762948977896 -0.15418050891692137 0.09211736526613178
0.1543313786717062 -0.15394648212573864 0.09188358419107942
0.15438055403735854 -0.15340622505759618 0.09208175268382769
0.15577991558876467 -0.15301924451528223 0.0919050153113459
0.15482938280015465 -0.15276662908770441 0.0922933468600822
0.1554769537458525 -0.1525704565415252 0.09222542644789564
0.15549702857119968 -0.15200167987988383 0.09249097969852921
0.15674920999834263 -0.1514912322432519 0.09220781154036436
0.15587318816673904 -0.15130374204209668 0.09270655390814884
0.15651399001403143 -0.15104593010441345 0.09254016109884915
0.1566907581685741 -0.1504443982687076 0.09281072245782616
0.15805056163446976 -0.14974825055852298 0.09232618543120949
0.15723034829830326 -0.1496601941851661 0.09287379141536178
0.1579214200815683 -0.14928435700819642 0.09254212591379703
0.1582291140555876 -0.14860639740496367 0.09244459352722727
0.15818714755345106 -0.14771167325708934 0.0926396766087434
0.1585400116195081 -0.14695812019861063 0.09250215147431362
0.15850998030053098 -0.14635072857986425 0.09263146631219216
0.1585727603511235 -0.1455921017874549 0.09272260176155915
0.15866402153648845 -0.14481219448887453 0.09280616387459996
0.15877579737288544 -0.14415814641123112 0.09293143915293126
0.1601304955535833 -0.14329320100120574 0.09217013127296314
0.15928305216817804 -0.14340263832866498 0.09281728195523116
0.1601525519372165 -0.14262550207489913 0.09235913370066877
0.159377179457388 -0.14251682344041594 0.09309316776599848
0.16019168705129896 -0.14196296272183226 0.09252474268425329
0.16059236903659468 -0.14110383805664056 0.09227167994102535
0.16085059829027548 -0.140283883799427 0.09210456722827581
0.16070586759508212 -0.1397963683225501 0.09227029484092537
0.1610985011848099 -0.13838971470557546 0.09176606096996726
0.16050257389677117 -0.13927010873312756 0.09239692604413842
0.16105909223068518 -0.1376962469254913 0.09187902808253716
0.1611732757022536 -0.13691134254921783 0.09196525674661479
0.161407003888717 -0.13611314789385529 0.0920570260662236
0.16173689644004388 -0.13534302018054392 0.09220315780050484
0.16212081451350288 -0.1345864252320864 0.09243994315976635
0.16313954576548614 -0.13378278141227545 0.09187562594262931
0.16355883079032188 -0.13299642180479126 0.09214989612275339
0.1640295461169492 -0.13220611240557023 0.09241491972902756
0.1644729900129765 -0.13138369522386675 0.09260984136900449
0.1649308582923358 -0.13048873424558885 0.09273413887967727
0.16532531008713086 -0.12958393781518818 0.09288800247145536
0.16562412281513986 -0.12872298522253467 0.09309456193165998
0.16592772490680077 -0.12783140597074635 0.09326074430643458
0.16617723528878006 -0.12703136001549736 0.09346007422908367
0.1674819927302341 -0.1257958708447709 0.09276921530344347
0.1667574386670783 -0.12595982624057225 0.0935547651671868
0.16759620422609295 -0.12521282064449418 0.09311943191543799
0.168148919661217 -0.12432418859943553 0.09334720327699345
0.1688022887006781 -0.12331476865998516 0.09374460067199347
0.16957232677214024 -0.12293402015693429 0.09331576447240444
0.16993512625170942 -0.12220173272084345 0.09372453305611506
0.17029564404416092 -0.12132563436089358 0.09419760419663013
0.17091354201794728 -0.12045717388702143 0.09423673552221785
0.1711262766916725 -0.11970385477448656 0.09451816858135687
0.17141651038981345 -0.11884635482103138 0.09473084904248102
0.17158960589464897 -0.11813045927539387 0.09494126099876031
0.17272765319511915 -0.11689964185412859 0.09400992557066644
0.17214437450475673 -0.11707412705448542 0.09470218307933315
0.17292047213949935 -0.11612083639306518 0.09399719544546219
0.17263783096764523 -0.1156757182772466 0.09457185093764815
0.17292810455106492 -0.11444829404311574 0.09469110219938379
0.17321069665114774 -0.1133560213428854 0.09482120836284887
0.17357675868074907 -0.11232369203534477 0.09497298958584609
0.17396444336508385 -0.1113417375504474 0.09512686266678726
0.1743873066902969 -0.11034533434710007 0.09523209704349118
0.17490585684726645 -0.10923030500399858 0.09533966526464412
0.17541771693153413 -0.1081149233002613 0.09550879332560078
0.17598720447154462 -0.1069963283228984 0.09565388097049438
0.17665246891786338 -0.10586766693996215 0.09577536116492275
0.1774240643010483 -0.10471299274025532 0.095871152077655
0.17807354056115454 -0.10359040450506087 0.09599699574551664
0.17860069569508524 -0.1026109023569782 0.09622344597524311
0.178832297567041 -0.10207791634747558 0.09653462398574081
0.15696822098355537 -0.18048147734544165 0.09636430719792245
0.15675738116905805 -0.18000872774243828 0.09640272795335622
0.1560601368928556 -0.17891353541682078 0.09654698932232096
0.15696601235179777 -0.178642530992403 0.09576472781149442
0.15609051787753148 -0.17820495044446497 0.0961727320247138
0.1563276461701878 -0.17768841730357338 0.09577319766234484
0.15500028416705328 -0.17678984183457194 0.09624561603722401
0.15548255314188156 -0.17660666309002263 0.0957605108212079
0.15487120318343384 -0.17551433158209087 0.09551712459000629
0.15551839208906748 -0.17481387570409262 0.09467601095218278
0.1545282012496893 -0.17444728177649033 0.0950354339576755
0.15478772199034507 -0.17374087568276422 0.09460021643696723
0.1532295686773338 -0.1730003651142657 0.09498038994106864
0.15387049868836797 -0.17269673156671095 0.09453366852433175
0.1538940756607563 -0.1722219986329529 0.09427064146444264
0.15334550697371743 -0.17211181529254588 0.09444062285077474
0.15298566013030457 -0.17149463085885874 0.09433390159417793
0.1530093842876294 -0.17078178019353585 0.09404246504724387
0.1536466958464633 -0.1700929898235591 0.09357752308762941
0.1529119171280763 -0.17013738915335863 0.09380689744479583
0.15226819513248438 -0.16917431076037384 0.09372912432275816
0.15268669402296922 -0.16864636182749446 0.09348172933491204
0.15132222574166368 -0.16803131160821083 0.09358346057592262
0.15227704096340008 -0.16786832406327892 0.09331773943480165
0.15089470041342642 -0.1670996499646522 0.0933928817594832
0.15177651840957407 -0.16714024115514656 0.09318049782759277
0.15170309267756688 -0.16658352400775953 0.09304360036817945
0.15195570267788033 -0.16586465459185729 0.0926742894041416
0.15148184607718349 -0.16598599341490983 0.0928992203783999
0.15068002801666283 -0.16522716573164006 0.09272387865454035
0.1504673164907293 -0.16458455115541698 0.09242051096559313
0.15082537347533312 -0.1640975659598767 0.0920424370327565
0.1502901830958962 -0.1640992790788344 0.09225476993805039
0.14979673690713474 -0.16341311708847275 0.09231889576706971
0.14955421343116787 -0.16259743951490357 0.09231545789148705
0.1510601152523563 -0.16206276484335483 0.09196043102829202
0.14964711932813404 -0.161715745864207 0.09231152201838135
0.1502896508503512 -0.16135795174613798 0.09218686307687955
0.1508038925531061 -0.1611020359802972 0.09208426184738193
0.1498069731580107 -0.160618765649452 0.09241246643810057
0.15089722071973974 -0.16057596904544327 0.09212666787448492
0.14979657953156023 -0.15998631964005983 0.0924686855098404
0.15062703672985298 -0.1599204872243813 0.09234660293389702
0.15097664143156306 -0.1596681197218855 0.09231897298402815
0.15050132697524435 -0.1595498553225192 0.09247047438861183
0.15034719956717893 -0.1591603073587555 0.09251624507936455
0.15044167209473508 -0.158487381690669 0.09255989657032164
0.15180108822149843 -0.15809671713302173 0.09223246423570407
0.15076890458674255 -0.15779524402198855 0.09259314862813281
0.15139082451682545 -0.15759561605912986 0.09244873726318843
0.15124954222206918 -0.15701824091757943 0.09258100216637415
0.15229685427180015 -0.15657166969135888 0.09220467925668756
0.1513765810730555 -0.1563233581243403 0.09260980959858271
0.1519143560263877 -0.15609698642369868 0.09242305355201404
0.15185019471089478 -0.15552587840491694 0.0925554174923123
0.15290658634347346 -0.15505815734096198 0.09220951603526063
0.15205518207941746 -0.15486210474116827 0.09259504696005953
0.15258925816868027 -0.1546251828464075 0.09241821198885872
0.15261120814772006 -0.15408836161529327 0.0925948378636102
0.15373778175153216 -0.15362777818197082 0.09227785297153192
0.15290182891176116 -0.1534304835890208 0.09276387212481532
0.15346762688682555 -0.15317926970397552 0.09258122969113398
0.15354549550724975 -0.15262091961354565 0.09278705567931145
0.15485776548843264 -0.15222004699020358 0.09254950158891165
0.15397043848993008 -0.15196874376364916 0.09298124757694945
0.1546110461712331 -0.1517684435290649 0.09288279410066372
0.15472527104604067 -0.1511996111861217 0.09319358888265145
0.15599378115964432 -0.15073116644361179 0.09296279559358953
0.15516605027848288 -0.15050678914080767 0.0933955736443501
0.1558285872126768 -0.15027531876330433 0.09328743730405052
0.15606625212671435 -0.149652218104851 0.0934433887944235
0.15750055826731407 -0.14900546889266222 0.09292464754170672
0.15670332337269077 -0.14894597493366457 0.09334798866274942
0.1574002223702605 -0.14837271526592408 0.0930819055922505
0.15652411570968422 -0.14808433074381772 0.0936515133783066
0.15734941495734311 -0.14775524884757532 0.0932410648086814
0.15774661830571837 -0.1470493972577265 0.09310485019378849
0.15777790869725034 -0.14622037493503307 0.09322932803899196
0.15781670119792812 -0.1454238462180021 0.0933106515190074
0.15792895150553216 -0.14459286479205366 0.09348008974045824
0.1584323238490893 -0.1438772242920191 0.09335102936483688
0.15855185391837587 -0.14326556006199292 0.09351747425299727
0.15858786957360146 -0.1427078799403613 0.09372070053965581
0.1597875235092358 -0.14175587058069475 0.09293176691535752
0.15898567562117932 -0.14191323947526516 0.09362553008929751
0.15977993289364514 -0.14128831015209564 0.09300325164438522
0.16014615349940273 -0.14056521204211 0.09275551317948948
0.16014849344864243 -0.13994664315739377 0.09278926728183975
0.1601103840086359 -0.13883085088408406 0.09273053265709162
0.15984718243288715 -0.13968662908897503 0.09300894140697617
0.1602559226252449 -0.13791431032950266 0.09277313356875923
0.16047682968314417 -0.13704515671344006 0.0928224740761723
0.16079461372118414 -0.13621869980762571 0.09289718549508118
0.16116428721891646 -0.13544340562500484 0.09308739946123333
0.16153981278954063 -0.13465022398272375 0.09333645421860784
0.16253468265719936 -0.13382146999542968 0.09272252024529284
0.16296683152146238 -0.13302785737163608 0.09299210593902743
0.16348046319495874 -0.1321937057596822 0.09318481725361494
0.16395935644777734 -0.1313560739290038 0.09330549213311479
0.16436157476944319 -0.13050328801423364 0.09343160438758583
0.16474161117242514 -0.12962331753688883 0.09359797361434269
0.16507659890605333 -0.12873104061362775 0.09377127982434205
0.16542535326460803 -0.12780888607943822 0.09390675671763986
0.16579502090126966 -0.12688284933942423 0.094050263230937
0.1660363916900109 -0.12612472740599218 0.09434929645975627
0.16728564244141594 -0.124987105215612 0.09371570222335673
0.16658381752961743 -0.1250848802959302 0.09452509104272003
0.16739931764355911 -0.12440256046819675 0.09412519549949498
0.16790265460893677 -0.12355265245529094 0.09440797171621831
0.16926874794353414 -0.1226472290062246 0.09395847999787618
0.1687103296812695 -0.12266944426350286 0.09452580118241775
0.1694334707977437 -0.12203614317494793 0.09442423946853663
0.16892432708289978 -0.12184042487281121 0.09518339373755906
0.1696429550246853 -0.12138708460838814 0.09484962971274137
0.17023017632301957 -0.1205163446620084 0.09500269097681832
0.17074674638332668 -0.11955959963505228 0.09511071533700935
0.17092591911595392 -0.11885127565012275 0.09539130631197312
0.17128629441691626 -0.11791564779604 0.09551303648964
0.17169581157582353 -0.11681049224335487 0.09548196631517504
0.1720716517645323 -0.11564732115666052 0.09549357448315642
0.1724151309304319 -0.114523746571862 0.09557467912448016
0.17276991659736682 -0.11345257031262726 0.09567829974976462
0.1731949905054157 -0.11241683201831038 0.09581178339368843
0.1736274410562282 -0.11140533727499274 0.0959475817196924
0.17407411062355627 -0.11035459657413235 0.09607329930596811
0.17454741719610004 -0.109257524072517 0.09620863443018021
0.1750241637943803 -0.10813610775064741 0.09635375019262715
0.17560505522166084 -0.10695767234248622 0.09650767877110873
0.17630470891663022 -0.10574723636988173 0.09658875413416144
0.1770639765329155 -0.10459050217032405 0.09669834192371142
0.17778047215635281 -0.10349560718283905 0.09684627408392117
0.17838481058040306 -0.10257554674801714 0.09703519996582495
0.17859290845997622 -0.10210373180264896 0.09735082329830862
0.15543133174734503 -0.180046640695746 0.09793265654294812
0.15651752317120787 -0.18018948758583783 0.09679441963085543
0.15570780646952373 -0.17979534749157927 0.09746249920842738
0.15597941816379357 -0.17947825118586572 0.09696834537791944
0.15497255283198286 -0.1787186876835039 0.09755783984398152
0.15534076133486927 -0.17849544461837055 0.09708145691340224
0.15486768952156466 -0.17743383605093693 0.09683532798913863
0.1541881094797142 -0.17635863895715456 0.09666065138099658
0.15455319864590508 -0.17583452139013808 0.0960257791253181
0.1535550094418435 -0.1753375961328409 0.09645486707321767
0.15382006256957792 -0.17496307817129958 0.09597311303123324
0.15306867787259307 -0.17379302921828266 0.09558498947196356
0.1522806217734045 -0.17266616292372977 0.09535628858149199
0.15273882318331974 -0.1719814759623851 0.09467226536551109
0.15149935878706902 -0.17158701343595523 0.09511226468077456
0.15181835748971279 -0.17100542971911614 0.09469064050720956
0.15210131196232843 -0.1705998420207995 0.09436762314038791
0.1508065841083675 -0.16987818328665072 0.09458043304799187
0.15174810034016584 -0.16975052864490672 0.09412736228781908
0.15024932469642233 -0.1688570516813579 0.09432617056557967
0.1510371305409376 -0.16880023669786123 0.09405194928260474
0.1511114055406949 -0.16844521739242665 0.09384579944390871
0.15058475935880186 -0.16832362283020116 0.09396806822964678
0.15013931867740518 -0.1677689735884115 0.0938656738930019
0.14991627863989515 -0.16703430218667373 0.0936466372090128
0.15081902089667223 -0.1665150990981001 0.09321761122807476
0.1493137919060883 -0.16599090490184595 0.09341398212274585
0.15028680032128885 -0.16571140287392858 0.09307004277861514
0.14857754920315355 -0.1648625166117038 0.09323295102697007
0.1492798409885013 -0.1646956891180255 0.09298360527671147
0.14963468313244374 -0.1644036247470787 0.09275245725591529
0.1483469676549616 -0.1637815008955315 0.09292960026354184
0.1492976543178997 -0.16375256781636505 0.09259492084257709
0.14799471085429305 -0.16300564856541316 0.0928562146347546
0.1487798111769929 -0.1630016622929344 0.09266052055373142
0.14898832831050138 -0.16275782678699366 0.09253740521515412
0.1485075633851957 -0.16261992330484595 0.09267151280065251
0.14823883350975992 -0.16222617641480414 0.09265507288007786
0.14810628513230054 -0.16151664169990085 0.09271787339651147
0.14933418389348788 -0.16097677905990995 0.09247631340666737
0.1482412547042483 -0.16073335200622532 0.09273454925418756
0.14884471934104587 -0.16048044194549546 0.09265235083659537
0.14876900103150908 -0.15995800820047942 0.09274576981015817
0.14990816948176955 -0.1594870600037908 0.09255494409104448
0.14894364863756032 -0.1594076501443138 0.09277798757345641
0.14921083478246222 -0.15893184154595233 0.09280944880970748
0.1495760158243584 -0.15857244861546926 0.09277675507112144
0.1486240269387116 -0.15823972746677448 0.0930974434253542
0.14937039291450988 -0.15811119503249407 0.09291424634529466
0.14939216614700895 -0.15759218932435665 0.09297928515286874
0.1506451123652756 -0.15719963049023197 0.09271355337120553
0.14965250616566708 -0.15692099137217133 0.0930358416450827
0.15024643265073023 -0.15671760346055114 0.09289917712904451
0.15017888430531207 -0.15616304458538763 0.09303330852287542
0.1512633782628526 -0.15573078163062737 0.09272405336435456
0.15042054761688367 -0.15548222956548996 0.09310222284294899
0.15097485707136418 -0.15527858834553118 0.09293895004297083
0.15099963998990296 -0.15476602205550496 0.09305585356535667
0.15204568497277748 -0.1543148383445853 0.09273283383369535
0.151269696413095 -0.15415925766328947 0.09310409021051597
0.15176802329829756 -0.15390868110983522 0.09296230945283973
0.1517427928930016 -0.15337750549345974 0.09316274093848922
0.1529154777755973 -0.15284929487041504 0.09295953559561392
0.15203241596146866 -0.15266940605513069 0.0933783197216878
0.1526307633568949 -0.15240546487039075 0.09326083755367345
0.15275285962896584 -0.15182722789159336 0.0935125066780002
0.15405706724873147 -0.1514219304081269 0.09328037012372523
0.15324850408836152 -0.15117365632425184 0.09372933591795554
0.15387292896103466 -0.15095744004658548 0.09363447498484324
0.15406422438857176 -0.15038486233794696 0.09384130333596755
0.15531938010058788 -0.1499233295784117 0.09366109053564922
0.15453979795829742 -0.14966736684012735 0.0940298676862069
0.15524102594662775 -0.14941313992850244 0.09390516857845746
0.15565000351981956 -0.14877164210278623 0.09389969319277999
0.1555392271886674 -0.14788732432913254 0.09412716917162534
0.15696777072792512 -0.1474301555308155 0.09358109777750093
0.15625920123268974 -0.14733389911144898 0.0939730083220784
0.15699366166428477 -0.1467920874335815 0.09368508176775903
0.15617850264330813 -0.14657569739719079 0.09416051123092731
0.15700165341904626 -0.1460325145084662 0.0937814452994037
0.15622216066127956 -0.1458012503575187 0.09427417790299535
0.15706234586333903 -0.14527026518809186 0.09388849103908167
0.15632434554374092 -0.14506294535395844 0.09443860069929519
0.15714251830188272 -0.14467181120540454 0.09406133877673471
0.1576078154752827 -0.1439297696740886 0.09401927672584666
0.15799609771867415 -0.14318037999115904 0.09403462156461807
0.15806532852528177 -0.14264363127717192 0.09424076195685406
0.1582003868541864 -0.14203991248687414 0.09436540249618013
0.15943761918663338 -0.1410872973941001 0.09337512765660061
0.15873868668810975 -0.14119131410949604 0.09403820954377652
0.15954978024685754 -0.1404183233793947 0.09332061282585984
0.15910697077382502 -0.14000515268069447 0.09374775968718264
0.15928377446996486 -0.1389763433124034 0.0936819889158047
0.15954471777685525 -0.1380396116039722 0.093642751610254
0.15984452436361948 -0.13716320049325953 0.09365975803911894
0.1601832326844463 -0.13634171681410676 0.09375258709197742
0.16055731324733383 -0.13552991288334726 0.09394597826541289
0.16090084725447457 -0.1346855912135438 0.09429077235532872
0.16198089552425943 -0.13385042940761793 0.09359685995204849
0.16242849893380512 -0.13297760784885757 0.09390150057043312
0.16308899411249123 -0.1320776597529148 0.09380469702705384
0.16338465334643237 -0.13138675713339376 0.09398405366239924
0.16377729968010007 -0.13054161797893232 0.09412852038287173
0.1641515847444323 -0.12966703276123953 0.09431666004327553
0.16452110715248872 -0.128733812329334 0.09445885706092094
0.164927864602989 -0.12775951562866386 0.09455308783864734
0.16528948730294973 -0.1268609207533872 0.09474009899695428
0.16559616275713476 -0.12600032251922652 0.09502446881635629
0.16583824769694355 -0.1251777119198688 0.09535708383051664
0.16713984290841058 -0.12411029461419418 0.09472562129241241
0.166521252302747 -0.1240644333900153 0.09551282024179267
0.16732754528035862 -0.12347697184594122 0.0951286305330722
0.1679625535872448 -0.1225845289510011 0.09537729850144791
0.16842181468899733 -0.12183263769611351 0.09571314577442377
0.1694389361584384 -0.12112128569047105 0.09534236225845043
0.1688709556518954 -0.12118134426071739 0.09591366098448095
0.16955987919874238 -0.12060666672167096 0.09567932843653593
0.1701176081572738 -0.11975784668864363 0.09577201143039339
0.17046785811254614 -0.11874479191789077 0.09610730707299456
0.17087668318002294 -0.11772524447307996 0.09621308093087602
0.17125301493862988 -0.11671154662347556 0.09625895693579586
0.1715944454858269 -0.115673622625669 0.09635766169871957
0.1719845453661094 -0.11459394330539115 0.09645236406115051
0.17239650000472231 -0.11353389137569578 0.09654363941748906
0.17285368711649282 -0.11250221805339293 0.09665950759139155
0.17327045206018826 -0.11148399403664955 0.09678670815065565
0.1737155842203571 -0.11041693723141043 0.09691686062242846
0.17413905442347252 -0.10934405104791599 0.09706732961375206
0.17457612167820213 -0.10820622614058842 0.09723650600517389
0.1751754798545759 -0.10687538093982131 0.09749892444095178
0.1761227553821198 -0.10552984659982263 0.09727519248948915
0.17669596737479967 -0.10457321115911417 0.09768946187387277
0.17767201949011205 -0.10333811885514985 0.09754868667899112
0.17811745828679684 -0.10261692825280953 0.09784895001976529
0.17831092290043923 -0.10212889490792769 0.09814082689155691
0.1551365224158727 -0.17997110618744785 0.09824984675785328
0.15483484054848845 -0.17934587165963117 0.09813853208770039
0.15434258079234603 -0.17838071866630126 0.09803844534648218
0.1545930783237724 -0.17779452460722198 0.09735019392279264
0.15370137861570143 -0.17733978291414337 0.0978293635962674
0.15387600815162125 -0.17689927512719958 0.09731310545647265
0.15331184076909052 -0.17585199139167057 0.09703634411978336
0.15259359312881446 -0.17483268342169522 0.0967653418807426
0.1528418393492282 -0.17423552786497298 0.09610460951882867
0.15179720462910906 -0.17370673096316744 0.09650483846564258
0.1519959722860451 -0.17332592069632774 0.09598668417671705
0.15125450417341169 -0.17222748722401662 0.09565110111443767
0.15052646460893404 -0.1711976779134418 0.09544822963177041
0.1507286427244486 -0.1704762941689531 0.09490517066345534
0.14969666444816535 -0.1701616516661922 0.09523698732996494
0.14987775707513923 -0.1696961547821774 0.09489677365234236
0.14922769819311196 -0.16876037554238574 0.09472968552708833
0.14993662078750858 -0.16815962614811653 0.09409582300905958
0.14868121305481546 -0.16772661963679508 0.09436726531357784
0.14896859653209177 -0.16730545525353915 0.0941032164346864
0.14914750149042622 -0.16694243948981902 0.09390654095120465
0.14798643821414942 -0.1663740901716311 0.09405562964490341
0.1486343798382994 -0.16625015246920397 0.0937540814151758
0.14734170458213625 -0.16552488037098342 0.09386716184022582
0.1479416278895003 -0.16552322590071988 0.0936334072631714
0.14748118257589266 -0.1647722974299392 0.09354096930635598
0.14810667094513846 -0.16416805078356572 0.09310451706606186
0.1471074544641851 -0.1638728226104973 0.09337073885580568
0.14738490510422148 -0.16356651681304943 0.09318303782110827
0.14694722077760783 -0.16285450936142884 0.09317715885636065
0.14791108339061385 -0.16248729378276958 0.09277657392435266
0.1467649333144812 -0.16209377038776776 0.09306040648311982
0.14728475214996328 -0.16190414689333518 0.09287119939744698
0.14748636715525262 -0.16166984763488534 0.0928268420348971
0.14703271649431446 -0.16153580228306963 0.09294379814938061
0.14685995156672232 -0.1611730711140853 0.09301106950900376
0.14680770159928117 -0.16052762470443382 0.09309077693444151
0.14815582153582715 -0.16013813686908668 0.0928471666931908
0.1471441138866104 -0.15983257821103644 0.09310126644895639
0.14791581362769873 -0.15970816013307798 0.09300879773176222
0.14819629764015793 -0.15940311692531323 0.09300881779286639
0.1479466334533239 -0.15876582917662957 0.09313343028071083
0.14745314363131648 -0.15803303529624074 0.09336297088009642
0.14874612373162596 -0.1577585265510488 0.09312256469794644
0.14785480222427863 -0.1575664665438338 0.09335648693455795
0.1484039359379532 -0.157339023765125 0.09324152360526494
0.14830823145323158 -0.15678145987504105 0.09337859086338766
0.14955675627054227 -0.15634888024761792 0.09313217976638577
0.1485734761057586 -0.15609031755433064 0.0934368587884178
0.14921222271280166 -0.1558785619780661 0.0933154921369414
0.1492254465594642 -0.15532534223823094 0.09346520455535366
0.15040221252279184 -0.15493961721287988 0.09321464157469406
0.14952993842761264 -0.1546826315746323 0.09353300247244148
0.15014137726218896 -0.15452021816910794 0.0933781575394671
0.15027549293379955 -0.15407574650726896 0.09348240986062027
0.15119833308006142 -0.15365380360098807 0.09326726928362407
0.15054326866565312 -0.15359972823197665 0.09355704986773068
0.15084194568586787 -0.15324042699170726 0.09354600929766138
0.1509367712303529 -0.1526904110252606 0.093716041224155
0.15208776890261355 -0.1520654250541896 0.09367407326558375
0.15111868559480698 -0.1518365703222617 0.09407181867654554
0.15187830593689391 -0.15159107482465897 0.09395167076229673
0.15207236214305855 -0.1510160886948154 0.09415644809398176
0.15341934217274605 -0.15059831645694619 0.09397000034617636
0.15264019064706827 -0.15035625153601678 0.0942995551810869
0.15327470012232544 -0.15014600867591607 0.09417936738934413
0.15351487249103316 -0.14963618408681578 0.09429844353458963
0.15477414503627648 -0.1489870499395605 0.09416201757828495
0.15375292532179452 -0.14873600493716926 0.09449688621398633
0.1547429997429542 -0.14831403052562314 0.09429858629444764
0.15406644566853053 -0.1478431723620827 0.09462450293940394
0.15482644787563982 -0.14769032316774136 0.09443075872784823
0.15528700293421147 -0.14713475296760364 0.09442273080559761
0.15521606137796906 -0.14624850536420192 0.09469244682908208
0.15557232710717636 -0.14555940843287368 0.0946788626575081
0.15550444131429966 -0.14512124438922677 0.09489058809434894
0.15677895570016193 -0.14444896968006196 0.09441642912427262
0.15596662955260207 -0.14452386171897583 0.09489436045686075
0.1567539150722573 -0.14403453890740608 0.09462492441545844
0.157192833857438 -0.14334742844533213 0.09463078440910834
0.1574322440692755 -0.14257242436848666 0.09483385845676603
0.15774634747228264 -0.1418312519974929 0.09482741567599208
0.1580674124029529 -0.14096718867128818 0.09472563031584129
0.1583371864443675 -0.13999624400761213 0.09462367751998954
0.15861091242057984 -0.1390523009236345 0.09456119200178104
0.15890765068213908 -0.13813164644575576 0.09448020078147783
0.15924981458084317 -0.13727217498776773 0.09449001797560545
0.15959824724987387 -0.13643238343519895 0.09456545676254757
0.15994449683083053 -0.1356496842030911 0.094743107432601
0.16016407959520465 -0.13503260683114274 0.09503685872592817
0.1615382388329014 -0.13380733605544762 0.09430095207599791
0.16074773854572127 -0.13410197445385288 0.09508544788032892
0.16168810411842785 -0.13331306937799714 0.09462984944179527
0.16231946081594742 -0.13234821534325034 0.09464034998936251
0.16295692906074194 -0.13133649273238787 0.09462404711463533
0.16320434641911047 -0.13059997260879103 0.09485577556285314
0.16357913668889104 -0.1296792685929314 0.09503673608944323
0.16400535892066312 -0.12869593031662557 0.09513501861443836
0.16443714089685776 -0.1277405788540092 0.09521600353602866
0.1647322123067383 -0.1268755173931153 0.09544489650029025
0.1649888702780085 -0.125948609794794 0.09580889878285094
0.16549761195819812 -0.12485802736203938 0.09601100371172175
0.1658059589746618 -0.12387076388779242 0.09639780516149181
0.16717396988683125 -0.12310930532704997 0.09568047472652406
0.16666845119179338 -0.12295434460123715 0.09635653930932066
0.16737333583573336 -0.1225073756456764 0.09607010733634262
0.16794060014868958 -0.1216887157593668 0.09633091838826251
0.1685787573483771 -0.12070222854243744 0.09669610485109474
0.1692824603614975 -0.12031784099132016 0.09627572728232886
0.1697081052592072 -0.11946890021054049 0.09657647151535474
0.17006528062296528 -0.11847424037767913 0.0969188667418108
0.1705991769371466 -0.11750111222302266 0.09682832350507088
0.17084141422056967 -0.11669127000352864 0.09704931493958273
0.17119273242138455 -0.11564581584318333 0.09720249754315742
0.1716375607423107 -0.11456709763267817 0.09727906145846808
0.17207203599162563 -0.1135498262084701 0.09734761962955892
0.17251802610979763 -0.11255407493685647 0.0974836226290425
0.17293259468537966 -0.11153953795678774 0.09761572177851
0.1733147593461314 -0.11052383025984595 0.09775401806423413
0.17365023254676748 -0.10949227307234885 0.09790839783712882
0.17404586625729576 -0.10839200009006038 0.09811220346130939
0.1744364027259742 -0.10755009486641205 0.0982179524936854
0.17421110793792366 -0.10749277439468226 0.09877854293609405
0.1739215565404358 -0.10816018515068 0.09858529384078603
0.17480278446076838 -0.10689724955981278 0.09819551079102025
0.17553075931262466 -0.10595747641212704 0.09801884411668087
0.1759267061847456 -0.10532311947244946 0.09838040096045834
0.17563151299378285 -0.10535463398829721 0.09903797329142865
0.17524476710679984 -0.10599580819053497 0.09864972741703489
0.1763904205604061 -0.104695905807789 0.09849769375870737
0.17715092939571822 -0.10366152619136025 0.09833902094487788
0.17776355941417557 -0.10265187028988806 0.09862752812329947
0.17801922411649138 -0.10221501090000829 0.09875952290961977
0.15356861765185956 -0.17975795074004144 0.09970701424606962
0.15459971236683584 -0.17961264367219246 0.09859569520282645
0.15383275242195787 -0.1792968239870518 0.09921432405697297
0.15415245785535842 -0.17905286739057757 0.09871904985901278
0.15363284998919083 -0.17801022429204305 0.09854180639678632
0.15296549375136173 -0.17692270700097001 0.09829092401309307
0.15309120588148367 -0.1762205485925766 0.0975494149693906
0.15225534716008746 -0.17581079955568135 0.0980372690098776
0.1524676950420098 -0.17540183788095098 0.09750911290828644
0.15185630319415352 -0.17445607045838774 0.09712608119053318
0.15060963705423308 -0.17307352860175795 0.09698284796761619
0.1510689107668517 -0.17262996898769414 0.09610312026763473
0.15006527753328744 -0.1720653119973658 0.09644784026059555
0.15026704642794472 -0.1717814690182637 0.09599632313017989
0.14969443132028992 -0.1708682133100141 0.09574390775122567
0.14832897231425018 -0.16950689710919706 0.09563528961003968
0.14901364812278006 -0.16917239634450876 0.0950088205598324
0.1479423955183247 -0.1686850889109185 0.09523223357085664
0.14817413261861526 -0.16841554630650868 0.09492825455550802
0.14749218336152106 -0.16751339089030123 0.09475083820196681
0.1479694601543384 -0.1668485795559807 0.09423601923801105
0.14698696591153965 -0.16654045894576242 0.09444898403192727
0.14715673982738267 -0.16620536578838876 0.09423516216747037
0.14650624347050215 -0.16540981961868925 0.09417029789863231
0.14703869729325786 -0.1649821874977708 0.0937166908418706
0.14610988239956607 -0.16459864826660425 0.09395352856332599
0.14642313628369683 -0.1644128262368549 0.0937222195521859
0.14595172872121193 -0.16366722916055118 0.09369178353760896
0.14662693509413569 -0.1631412378142224 0.09337138798010707
0.14566352240272973 -0.16282254696011478 0.0935733245295399
0.1460047983748211 -0.16256725501918498 0.09340502112555615
0.14555144819269134 -0.16187804438033704 0.09336529700559648
0.1465451224372205 -0.16143343755680647 0.09308336340277491
0.14546262687672212 -0.16110367454368038 0.09333235482356558
0.14593224897348023 -0.16087705320140683 0.09320265481709068
0.14611393986552426 -0.16064915182646153 0.0931564825280381
0.1456320417861703 -0.16051705458454754 0.09323845677121205
0.1455475335268839 -0.16017547014075528 0.09329678386664152
0.14564671118349348 -0.15960649990517248 0.09334583236536606
0.14735026186981498 -0.1592075211599373 0.09319096451896187
0.1461223142681485 -0.15895519746118147 0.09339329984151515
0.14680771187033848 -0.1586368798818997 0.09338178290445387
0.14700899777150292 -0.15831814449337608 0.0934000561620364
0.14655943932159238 -0.15829250347766327 0.09350806047673561
0.146431510399456 -0.1579181754721436 0.09357272257027602
0.1468650951728053 -0.15747585493244115 0.09358602117962271
0.14776703022435583 -0.15705817963574017 0.09345400888616237
0.14719106435157644 -0.157106072282537 0.09360645845106944
0.1470811895926049 -0.1565877021841276 0.09368173091354298
0.1472359580755982 -0.15595472055387358 0.09379061957090215
0.14859021679440101 -0.15551283788290435 0.0935611354272766
0.14763468963727877 -0.1552715953836424 0.09385136525386621
0.14830362114128764 -0.15506458230651005 0.0937521838472055
0.14836466751131622 -0.15451507563622086 0.09389719076698828
0.1496315318364807 -0.15418046625532128 0.09362646149367224
0.1488010243070052 -0.1538741563771574 0.09396107017633189
0.14952071087205618 -0.15378654124702723 0.09377792878129858
0.1498643712335812 -0.15352948768228694 0.09377612971995002
0.14991126802158952 -0.15291858197118016 0.0939583639214316
0.15006740355892015 -0.15214706379398957 0.09425832374168593
0.14995224601528867 -0.15143185398178874 0.09459283789304636
0.1513680952236207 -0.1512294838244745 0.09429138862668261
0.15059642091660513 -0.15093047739607596 0.09465956702029664
0.15128535634037032 -0.1507458963181892 0.09455501277648755
0.15155191178320815 -0.15018808903797531 0.0946934350946089
0.15283748718932752 -0.1497674640268772 0.09446239527766936
0.15214570182148499 -0.1495721649452288 0.09474604088217708
0.1527999244317476 -0.1491300122033843 0.09465549660770997
0.15186406391251425 -0.14869147231554342 0.09498029434985616
0.15273341960272452 -0.14847260345741375 0.09481928863244861
0.15298932838852372 -0.14784442337896583 0.09489531144888229
0.1544688873313443 -0.14733608930743985 0.09466162440422465
0.15364642554389235 -0.14722267096524222 0.09490535994688219
0.1544182744090067 -0.14679259535939174 0.09487295856343285
0.15344304184399657 -0.1464742100566517 0.09528234511489804
0.1543473215855605 -0.14620483500170448 0.09512601552487353
0.1547235108152299 -0.14553534422311604 0.0952129398116643
0.15511978114113237 -0.14486009880510967 0.09529053893649402
0.15523420604446267 -0.14426013820027336 0.09557257940020825
0.15622715708953275 -0.14384053890431014 0.09514740265768375
0.15647853016897775 -0.14309411577036268 0.09537547271485988
0.15697797292641558 -0.14238255044367099 0.09533258074883624
0.1571487472189482 -0.14173861836302296 0.09545482976544295
0.15742962004375866 -0.1408955119382808 0.09545857634509403
0.157668114983739 -0.1399954699867791 0.09539612202004415
0.15792764646198482 -0.1390921954062735 0.09531879033948744
0.15826517581765254 -0.13817142805521235 0.09522689456577865
0.15865933479173175 -0.1372954021538634 0.09519920704656815
0.15901650597103742 -0.1364600627668569 0.09525390351992552
0.15937408793770472 -0.13568642242608092 0.09542077313480406
0.15977308255930245 -0.13493315050406332 0.09558669433114995
0.16005576933412013 -0.134296308840317 0.09581388880035314
0.16139117992674493 -0.1331692768113909 0.09514616414882714
0.1606117483467762 -0.13336896772216394 0.09587551428385149
0.1615522177845127 -0.13260010333248873 0.09541318536607894
0.1621580518995571 -0.1316156007264331 0.0954083622464768
