# .PCD v.7 - Point Cloud Data file format
VERSION .7
FIELDS x y z
SIZE 4 4 4
TYPE f f f
COUNT 1 1 1
WIDTH 793
HEIGHT 1
VIEWPOINT 0 0 0 1 0 0 0
POINTS 793
DATA ascii
0.14482002424831852 -0.15057438081261687 0.10126918325635323
0.14519521619869166 -0.15011733315116296 0.10124078459673204
0.145844832362201 -0.14967376964846157 0.10112354178420827
0.1454865480085285 -0.14974999852204374 0.10127780401141304
0.14565892354251717 -0.14928062452977411 0.1014911398442478
0.1460598099928543 -0.1486230724795619 0.10167702929593839
0.14709337424537136 -0.14797940305944215 0.10130918259521217
0.146620196633608 -0.14786076909412005 0.10175842439922746
0.14714220755290428 -0.147544317552468 0.10155072469755488
0.14749056204849523 -0.14695698562654386 0.10164905627926675
0.14755576193431838 -0.1462050778724321 0.10203079593902795
0.14843270276755202 -0.14563811729690343 0.10165790905577284
0.1480287888562342 -0.14554773312750618 0.10201625530729214
0.14845581207069414 -0.14521581699493533 0.1018325946518155
0.1487117015540908 -0.14470591206611577 0.10190940974123848
0.14946436641910313 -0.14400275657514985 0.10162385612956404
0.14904899527265758 -0.1438862053621248 0.10203489594889209
0.14962615266426374 -0.14341621541454075 0.10174029215850607
0.14938927008397265 -0.14312162344067825 0.10212960430146308
0.14980806150952944 -0.14270669544839892 0.10193207471005
0.14950726809226617 -0.14239636538708195 0.10243819726547362
0.1499584612670844 -0.14210723403104655 0.10215153080863583
0.15034218424309279 -0.1414574892015888 0.10216366501036567
0.15053012559196444 -0.14071524793354184 0.10245620452291732
0.15141554014183112 -0.14004406743477077 0.1020753796908623
0.1509904643152754 -0.13992480752477615 0.10262523072494574
0.1516588281628227 -0.1394188530185687 0.10235958622340324
0.15147002340359428 -0.13901204873220616 0.10288301328177028
0.1519202033844686 -0.1388059663836567 0.10263132997239265
0.15241295271481897 -0.13822298444289197 0.10276044819256024
0.15268733081930455 -0.13751235974729573 0.10316810088321111
0.1535672041802015 -0.13686613560914543 0.10285646952723909
0.15317662235641327 -0.13667040159665503 0.1033742805477572
0.15384485394185546 -0.1361932468211271 0.10311515340232873
0.15368022495142025 -0.1358109462855956 0.10357562882428722
0.1541965921299002 -0.1354043276327099 0.10339556293045227
0.15394971280292363 -0.1350143224919157 0.103965552391969
0.15450066063930765 -0.13470268416629272 0.10367579738145175
0.15505791153477488 -0.13396511601086927 0.10380752616051789
0.15540496795745143 -0.1330360840000853 0.10424954253201055
0.15638782930991066 -0.1325908408570627 0.10384322212687608
0.15605434376296004 -0.13242595933852722 0.10420343321698118
0.15670175473946601 -0.13191521502441184 0.10408410895028215
0.15637022816739107 -0.1315664503892743 0.1045747684608063
0.15707810593456406 -0.1310308032128722 0.10438051625021401
0.15673262383288478 -0.1306264587667232 0.10490328470942756
0.15742093198186347 -0.13006631102385505 0.10467470971791087
0.1570944366839048 -0.12956677575156159 0.10519221532908665
0.15770364750495322 -0.12924991331593658 0.10489643637644155
0.15820636621040385 -0.12845808188348642 0.1049288342655454
0.15829732395764726 -0.1277336171921735 0.10516599138935553
0.15795697889477212 -0.12747294278232396 0.1055124585938315
0.15786790349390056 -0.12819407207799957 0.1053000822951585
0.15852760289107662 -0.12712567090612178 0.10521319630406721
0.15900194443538215 -0.126335034454939 0.10506953613746399
0.15920399780829686 -0.1253364617472677 0.1051304480012495
0.15925813630383445 -0.12466971818438825 0.10519077027021154
0.1590058178873969 -0.12427315877324467 0.10544285987898547
0.15889899923944745 -0.1251000843443285 0.10545370914323894
0.1589779402910715 -0.1232723109451088 0.10550267092463173
0.15906939804008846 -0.12247344150726318 0.10545129704960081
0.15885923490090278 -0.12207326430723385 0.10572622422040642
0.15873069692875788 -0.12288495979453658 0.1057640213752287
0.15888250373166263 -0.1210783013002831 0.10584217452064755
0.1590552602271542 -0.12022966348105821 0.10586036581298211
0.1587803839520672 -0.12003527285746837 0.10624076547478971
0.15864064077702444 -0.12072786740044326 0.10614968843386698
0.1595288528442085 -0.11930541315727225 0.10577226617850964
0.15902404377279533 -0.11905767783775074 0.10634978396131237
0.1598429559856227 -0.11832753836037813 0.10602444826654091
0.1594175552672447 -0.11832641904710683 0.10634386104464305
0.1604172270271864 -0.11838972312497174 0.10551977085116299
0.15989995478195232 -0.11767322588982546 0.10640058274960337
0.16087310457382673 -0.11740859565743361 0.10592348889922923
0.16058510656522998 -0.11708428232490034 0.10637827224777152
0.1612664594413298 -0.11640419513961305 0.10651051235096716
0.16225437088081787 -0.11577719627000449 0.10639198883412171
0.16193994889995655 -0.11542745464669142 0.10691604990506194
0.16279644437958637 -0.11504475232486272 0.10664962820932254
0.1626278303896737 -0.11460479651660863 0.10713915392829924
0.1631906824028812 -0.11439962606401011 0.1068733159578471
0.16369607562236158 -0.11370976402880956 0.10691127443742757
0.163813658533936 -0.11304777594954712 0.1072035913040332
0.16348811949578348 -0.11280401737764441 0.10762702127093311
0.16338565627987603 -0.11350390682826396 0.10733743586082864
0.16403655869836123 -0.1124271741621321 0.10729172452446842
0.16451824365045495 -0.11154463931128139 0.10720635779291249
0.16489949887614522 -0.1103333627124241 0.10741048702463755
0.1653251094581377 -0.10919296940380739 0.10760925370457243
0.1657471493643224 -0.10809159514268912 0.10780294414921623
0.16620001148415373 -0.10699853068764499 0.10802095403727044
0.16666728846241433 -0.10593708082575788 0.10827882471784353
0.16713701148128216 -0.10490552114385977 0.10859691057311963
0.16761151562732893 -0.10386945973802791 0.1089579966218112
0.16809205856520085 -0.10290463417648212 0.10941911645228773
0.16917079610229901 -0.1022801597418983 0.10873353865363539
0.16889379155509823 -0.10215232586405963 0.10930555906668735
0.16968371813902117 -0.10150366861990956 0.1091390501112974
0.1694532904198951 -0.10117649043303825 0.1098384249097382
0.17024414848744526 -0.10049668516180162 0.1095526584379003
0.1699980776553733 -0.10000347764666555 0.11035407791763599
0.1708803920841861 -0.09938109874585509 0.10993990946562657
0.17060986339417133 -0.09883242220255001 0.11064681270902178
0.17111941999731214 -0.09861137365035702 0.11025459795078678
0.17076776683761402 -0.0981513081805831 0.11086323529123235
0.1439203396445036 -0.17235416523134098 0.10701264322912342
0.14337441889495325 -0.1712656673703566 0.10671949592961959
0.14230842011870534 -0.1705277734883114 0.10752742881140527
0.14249921841813964 -0.170307540319602 0.1068645006438965
0.14222294043504635 -0.17034859246132456 0.10739869922679508
0.14296607519642712 -0.17019994987533577 0.10610547713661264
0.14190188312578975 -0.16966441300865898 0.10692568672056303
0.14224129767710095 -0.16905171948008793 0.10585356672634756
0.14157021449994292 -0.16861190440941806 0.10613307694537723
0.14163055641587158 -0.16793559473920489 0.10544091422895618
0.14133999514582365 -0.16796512885956433 0.10576122237853663
0.14205983329432567 -0.1678468865230667 0.10494739410979834
0.14115022284269207 -0.16728749946428947 0.10541490083634195
0.141489157765497 -0.16685157337131465 0.1046168706038166
0.1410784405714593 -0.16657351633547668 0.10490491069702242
0.14093952563336795 -0.16578174422876632 0.10443520081699181
0.14109986311328135 -0.16503499499365662 0.10361572762677043
0.1406839513303027 -0.164854441324169 0.10389529327187452
0.14072737947897757 -0.16428804082824125 0.10334897893508221
0.14080130563403395 -0.16364456608460495 0.10285385808639427
0.14043778794496958 -0.1635853722119416 0.10326091545993335
0.1405971741894079 -0.16301200533205504 0.10286360622432493
0.14033374060810402 -0.1631022508037035 0.10320573972930555
0.1409399124118553 -0.16307598432596757 0.10245196753360503
0.1402840082562316 -0.1625706271954105 0.10303562411007372
0.14074427304235998 -0.16226072936181873 0.10233937801986977
0.14034657656813876 -0.16201226665458837 0.10266715055279552
0.1404028460279178 -0.1613679400515508 0.10236282613602615
0.1406706151874747 -0.1607648165952661 0.10179036804020203
0.14033567252160004 -0.16076695312883527 0.10212551639888154
0.14031431062252292 -0.16019684287358246 0.10197172228157166
0.1407301224970024 -0.15957816312490009 0.10156990660829522
0.1402782147453299 -0.1594747088624106 0.10196292173506506
0.14057997352211876 -0.159042403989567 0.10170050236820334
0.14027381326542826 -0.1590896836873779 0.10199306775041399
0.14102448373591808 -0.15908336602187034 0.10129811332222335
0.14025687473273396 -0.15867950893452848 0.10194361286922107
0.1408251702276272 -0.15844043136871122 0.10138705885898193
0.14039533482665112 -0.15821830597448366 0.10173800227798632
0.1405541200989066 -0.15763178851086265 0.10163110703940602
0.14118304536400242 -0.15714973080790073 0.10124985778102363
0.1407739840355981 -0.15692337033474377 0.10157784511203155
0.1411780881466705 -0.15656370702921385 0.10138732875617336
0.14159229960468858 -0.1561674927518904 0.10125260544985117
0.14112821908331577 -0.15601044678233567 0.10154396266877108
0.14151986225579216 -0.1556463984283889 0.1014075199313413
0.1411288262612688 -0.15562873507772512 0.10161538958541326
0.14198819028281073 -0.15582370320259228 0.1010912574924284
0.14123081231491638 -0.15518003189045604 0.1016142119395852
0.1420864387800486 -0.15510675965049114 0.10121064090194008
0.14161110716866918 -0.1546500123188677 0.10152244152235083
0.14211004159466598 -0.15433245056888636 0.1013742155200907
0.14256702169993649 -0.15388852167031758 0.10128491647861908
0.1420115508433088 -0.15377491161100026 0.10157386225715262
0.1424372510896974 -0.15338991673970853 0.10150563967569322
0.14201808453476558 -0.15340773740180813 0.10168982470919882
0.14296129183008555 -0.153475626266619 0.10123799341725195
0.14214888281244747 -0.15299441211519932 0.10173929287256843
0.14287916385640134 -0.15287306289045183 0.10145326848174029
0.14252357807618793 -0.15262898356600105 0.1016996841599134
0.14283297416329385 -0.15222068792298896 0.10172126220016932
0.143319506526206 -0.15155400954570156 0.10174911579627559
0.14440268168005269 -0.1509073032431443 0.1013892063856061
0.14383196031827175 -0.15085094318909684 0.10177239998489283
0.14438685127438936 -0.15041876160683942 0.10165164948333526
0.14478699225984154 -0.15010744734300455 0.10154291919277132
0.1444447104696555 -0.14987783649391012 0.10190701925580865
0.14508035034589717 -0.14964785369486489 0.10162440781710222
0.14473984708435614 -0.14932865554751093 0.10207624651459211
0.1452366496030384 -0.14911593933446213 0.10188263224797402
0.14555471851399904 -0.1488468065335638 0.10183947441450479
0.14532393044864877 -0.14880312123575792 0.10202896972746173
0.14543929134081637 -0.14849484408656324 0.10215867255375644
0.14592569077867934 -0.14795030536682133 0.10219329484763458
0.14693250871794794 -0.14723953396896022 0.1019233319494783
0.14633068091066162 -0.1471261409622369 0.1024244492553732
0.1470395316770496 -0.1466697426110394 0.10218498022125917
0.14671926113437692 -0.1463027734422582 0.10266724996448755
0.1471777099472227 -0.14612536105985952 0.1024167336822067
0.14749425829118454 -0.1456416831630135 0.10245372271324356
0.14830026872791435 -0.14494590624747145 0.10211370077657778
0.14787371536302796 -0.14482609944147712 0.10261276826793243
0.14846530854331227 -0.14436314604539977 0.10231236050803127
0.14824036106411284 -0.14395644753229006 0.10281289218933157
0.1486482666958488 -0.14374998773079706 0.10250318297910103
0.14899469877069527 -0.14311549685825375 0.10256568044665297
0.14912440708119315 -0.14239193653088045 0.10286359144591155
0.14986538007724642 -0.14172981111164534 0.10247324126562556
0.1494966136256144 -0.14157958706055399 0.10296903669046863
0.15006317748020032 -0.14110533261052183 0.10265237019997611
0.14989140031203102 -0.1407747476812965 0.10309000148515525
0.15034631505296428 -0.1403894325424902 0.10287857725523093
0.1500945589953891 -0.14004208897366383 0.1034379657713211
0.15057762523476814 -0.13978923555759365 0.10312620169263785
0.1509705581492972 -0.13920162126034533 0.10323976642105588
0.15188604744704468 -0.13844075702406974 0.10300702155725315
0.1514969297267357 -0.13829070003941613 0.10353693870002846
0.15217055836671584 -0.13787100545318207 0.10331060312686118
0.15201610333128546 -0.1375081412667766 0.10379141283123093
0.15251207055300836 -0.1371406271958946 0.10361400121646064
0.15230497980202473 -0.13675753225722892 0.104181584080553
0.1527926553391209 -0.1364829956186855 0.10387174240825815
0.15326739830627528 -0.13578902398064197 0.10399298191317224
0.1535387579079839 -0.13502811142339635 0.10441502037862586
0.15446779936651286 -0.13428948480140207 0.10409701402898548
0.15406569867149517 -0.13416461335161398 0.10465717599857936
0.15476876896684444 -0.13357337882364137 0.10438123341757065
0.1546030102332655 -0.13313484713495005 0.1048801206143637
0.1550843661435447 -0.13286284646763805 0.1046431616636912
0.15562400909090518 -0.13218825889026473 0.10473416979015765
0.15603217088587532 -0.13120284968583568 0.10507471431842372
0.15637492179264442 -0.13026677053539934 0.10536223399434715
0.15663678646565754 -0.12944587451089645 0.10560094543329522
0.15762071347148687 -0.12879432526995002 0.10519826885532607
0.15723708450712365 -0.1285090021800246 0.10562420273597892
0.15742119655507997 -0.12751946034070757 0.1058983920324558
0.1584336260864259 -0.12668028647346066 0.1054589355393026
0.1579522245860652 -0.12654133979472745 0.10585494825843346
0.15865142139964666 -0.1258970345090467 0.10550634668206206
0.15837061041715536 -0.12525301601955902 0.10586051829875921
0.1585177430057208 -0.12417218583489815 0.10590626109336827
0.15854198012591164 -0.12348573839987238 0.10593852234159229
0.1582943753538878 -0.12311331241435644 0.10620442594218711
0.15819703493729603 -0.12395230551749842 0.1062283313947877
0.15830434028291063 -0.1221173102316834 0.10630819004028742
0.15841856820624822 -0.12132999661777648 0.10630602668655793
0.1581985978169475 -0.12100629928695528 0.1066250534286887
0.1580636727144104 -0.1217888300126233 0.10661777139314195
0.1583005283523419 -0.12002337234697658 0.10678038511093595
0.1585109404517296 -0.11919608824304773 0.10677112920520469
0.15823615158619334 -0.11901582400992326 0.10711205064019574
0.15810257314730666 -0.1196629990982931 0.10706574356692318
0.15898550893376817 -0.11837302292170639 0.10669147396691091
0.1585775394482244 -0.11809670492568032 0.10720056010204786
0.15943008944073744 -0.11745787459161142 0.10688778673558971
0.16028486305250902 -0.11692522384451139 0.10669609103934524
0.15989105887411578 -0.11674523964072242 0.10707623579304162
0.16061601845530427 -0.11628942761389216 0.10698973155878728
0.16124110831121163 -0.11586540667700775 0.10699019047044266
0.16088624461952827 -0.11578514529600407 0.10724952869780316
0.16140072348257925 -0.11544048103895786 0.10724203857904702
0.1618649888173886 -0.11483110849508679 0.107446878615585
0.16313282203145502 -0.1140280741883216 0.10719643699737016
0.16265783519165697 -0.11380698116481101 0.10767224830010265
0.16294341842406385 -0.11283400223702528 0.10808857412835302
0.16397232507260778 -0.11195504092036107 0.1076158799447948
0.16352498595419473 -0.11184572664367248 0.10813011209448326
0.16424689978867832 -0.11106032291625553 0.10779695789702244
0.16396988795699788 -0.11062321572652735 0.10838854011932395
0.1646653144647906 -0.10992017651079546 0.10802420446076047
0.16443082675784326 -0.10946423154400879 0.10864997512762009
0.16509974216206125 -0.10878508121957096 0.10824686430596331
0.16486435255971768 -0.10824325735694475 0.10894284081942031
0.16554247967481983 -0.10767461020273178 0.10842588695319673
0.16543133397025964 -0.10722371653969767 0.10895658571242887
0.16600448742778723 -0.1066291253698482 0.1086362179056994
0.16575298062916383 -0.10634723039311621 0.10924973399585816
0.16642839810368065 -0.10561810654347172 0.10892012982980932
0.1661467207833401 -0.10530273646818064 0.10954942662267948
0.16688318954801756 -0.10456850485430959 0.10925091766062461
0.1666168438249183 -0.10423522653736897 0.10988958256580587
0.1673448385916618 -0.1035671454599665 0.10961741654889795
0.1671410325108575 -0.10314549205772176 0.11028610975869502
0.16778855118409522 -0.10276518829986626 0.10995090176175146
0.16852471251652784 -0.10194376415709626 0.11002063287891722
0.16918510730472666 -0.1009082553629153 0.11049644303397056
0.16948436658072635 -0.1001661952656638 0.11086094921199134
0.1692565942603624 -0.09992015627004447 0.1113440424711552
0.16898482129307832 -0.10069404821695718 0.11100127849324103
0.16993738701992017 -0.09929170772601639 0.11105006484599914
0.1696633272937116 -0.0988461119375114 0.11173109982887076
0.17033722655919462 -0.09833946376722467 0.11125393962769371
0.17000548118910863 -0.09802246725985267 0.1118094130044283
0.17048624713146496 -0.09787325823105304 0.11131095004681361
0.1419727123735061 -0.17021602910181155 0.10765261974335898
0.14153225451554485 -0.17001598194883663 0.10801543123342802
0.14150788880754497 -0.16963026141170653 0.10746925963145837
0.14137908994067788 -0.16896428795290042 0.1067449793027467
0.1410670790270877 -0.16881029136969095 0.1071123172979215
0.14111163967986676 -0.1680748212429164 0.10620406362445406
0.14075546703680378 -0.16794184340714097 0.1066655015999032
0.1407496606456803 -0.1672154542070808 0.10593200594165636
0.14077654862676625 -0.1665023383963727 0.10522149547402687
0.14040959261313135 -0.16648994972690248 0.10565500150294131
0.14038141311285002 -0.16573939291151837 0.10503003323998256
0.14038470666873568 -0.1649384206267997 0.10437942407893493
0.13995457245889162 -0.16492687603452544 0.10491715318672815
0.14001166670277754 -0.16418954894719404 0.10427337515885009
0.13965703398218932 -0.16417813492669237 0.10469676693396639
0.14035868547022431 -0.16420494038600392 0.10378104040556071
0.13970076312312005 -0.16360841436826892 0.10421963630754147
0.1400646054922073 -0.1633292833275574 0.10364866065296352
0.1396613987834958 -0.16299802521695506 0.10398582634330855
0.13985468990383287 -0.16247537269435866 0.10349420272823301
0.14005722631953593 -0.16191282171634316 0.10296055515440478
0.13969699952279815 -0.16181694290194937 0.10333557439759128
0.13987695102767603 -0.1612875593663089 0.10289077087667113
0.14005296738625705 -0.1607650194083019 0.10244051894689415
0.13967940106589133 -0.16075651910422464 0.10283037330568187
0.13980489431807502 -0.16025928574089282 0.10248759655196216
0.13995060507518667 -0.15978043638308417 0.10223339628444558
0.13963308003976754 -0.15971355618801897 0.10258740945914613
0.13993568791164918 -0.15923477876624043 0.10224959294001193
0.1396122677864935 -0.15925891124830457 0.10258247953208073
0.1396856878028845 -0.15867094704200857 0.102464610141213
0.14005842578593916 -0.15813079934002772 0.10203775565566903
0.13974899660857 -0.1580842044813757 0.10232121984302778
0.1398369761656301 -0.15749491148666078 0.1022354733709003
0.14029677639456528 -0.15691685487695467 0.1019091148661676
0.13988444877890582 -0.15673748545346172 0.10224542009974086
0.14019418703846076 -0.1563320046700241 0.10204281972366372
0.1398760493558424 -0.15633906717324336 0.10225547701126356
0.14068577413216188 -0.15640514701801997 0.10171771085247308
0.13990484099963457 -0.1559000132540604 0.102234055689208
0.1406287365096967 -0.15571649239550792 0.10185494721713294
0.14016642947705366 -0.15535535830399008 0.10210476372833184
0.14059655699246937 -0.15501483766515312 0.10192134392755264
0.14107798915376085 -0.1545654832199722 0.10175882676789044
0.14052858801490617 -0.15445374922625849 0.10202695938653676
0.14095738052746096 -0.15405583875375736 0.10189521567229387
0.14052805983417394 -0.15408494579962087 0.10207772358472264
0.1415315875368376 -0.15413780494207757 0.1016525445886272
0.1406439193350845 -0.15367134267537158 0.10213910092591445
0.14146649223382285 -0.15351028935235536 0.1018538746243169
0.14105568474171845 -0.15326840122459073 0.10209665614961921
0.1414691231890975 -0.15277728925239406 0.10210325700965248
0.14221491809081352 -0.15245950270168895 0.1018918366174924
0.14189664311746017 -0.15221557037214747 0.10212610973368333
0.14237983136422205 -0.15198445021318222 0.10203083909318035
0.1427884312341546 -0.15174827252408685 0.10197110252356795
0.1425143365621942 -0.15160183436297808 0.10214436014972732
0.14285795355882258 -0.15140366713517037 0.10207407688486204
0.1431182751938601 -0.15097260967451404 0.10211446639752274
0.1440234529977896 -0.15029067332174909 0.10193726409237851
0.14351335000772777 -0.1503978407906061 0.10218680670713058
0.14392879728338348 -0.1499652295126675 0.10217074514818485
0.14414080357019898 -0.14951119105497768 0.10231072576290134
0.14500374335465063 -0.1488471767775484 0.10221890844712997
0.14447415385614248 -0.14903051779344365 0.10241135301591776
0.14471070824464374 -0.14842936896823883 0.10264530498586137
0.145384002377098 -0.1480457112711292 0.10249332614567037
0.14512054723164522 -0.14778836648986268 0.10282653209305057
0.14562680873424017 -0.14755061761197363 0.10263527805404829
0.14533208552882135 -0.14742469808517084 0.10290423439924816
0.14556090957093082 -0.14703224301612597 0.1029649107296037
0.14610952143105685 -0.14644428379238242 0.10298790426924563
0.14704708546706566 -0.14580296366851064 0.10273994979699626
0.14653004292068153 -0.1456598732985098 0.10321493595541421
0.14723719448787612 -0.14525017671293233 0.10292932764287385
0.14697133725116288 -0.1448447898474224 0.10344265148061478
0.1474421914395821 -0.1446757678025809 0.10313223160209606
0.14777438246862742 -0.1441307443668233 0.1031955737371477
0.14854340969704716 -0.14337259175853878 0.10285897358543629
0.14816507145928398 -0.14324309122455026 0.10337199783666155
0.14871915360536755 -0.142785443440676 0.10307563892595473
0.1485391772711384 -0.14245065891671624 0.10350090645047551
0.1489413774395562 -0.1420570291539885 0.1032750118177494
0.1486943167901233 -0.14169132783669736 0.10381578536174452
0.1491287259421139 -0.14140781068553152 0.10348132959002405
0.14951938328189984 -0.1407452979302646 0.10354630926453852
0.14971881401886733 -0.14001805388612654 0.10388927130421304
0.15051788307579 -0.13940477486750202 0.10353315911361578
0.1501443411687933 -0.13922329678941545 0.10408908551851961
0.15080429966235862 -0.13876206095653498 0.10381489770760914
0.15062143508347325 -0.1383104381219372 0.10439137975005208
0.15110631695496937 -0.1380903396618705 0.10410098793356434
0.15160615905103847 -0.13742575443583657 0.10425723480057544
0.15193684705947416 -0.13659870914857128 0.10476534490177902
0.15277876434216003 -0.13611570318597077 0.10425576650101723
0.15250349890051162 -0.13603031193621745 0.10471047514530725
0.15303379626886604 -0.1354897767309581 0.10455937174322692
0.15278838301057343 -0.13523790918841186 0.10513584273794714
0.15338790601114233 -0.13472785893189393 0.1049260114047509
0.153165476000803 -0.1343822202534131 0.1055270176911547
0.15368106455377056 -0.13406661546805293 0.10520400740929274
0.15409988443608408 -0.13339580964649964 0.10526926138958145
0.15506235613054437 -0.13246409065975628 0.10499506132793443
0.15463373502204295 -0.13243635237919962 0.10543676537511347
0.15535674195467178 -0.13175360789066948 0.10527268835110411
0.15504461594061988 -0.13141439575689579 0.10578508369142907
0.15571805601764263 -0.1308498716677383 0.10556963466914415
0.15541125199329664 -0.13047943849678476 0.1060653672211521
0.15604420282229053 -0.12992700531510773 0.10581156952545925
0.15576296516722196 -0.12952160197749296 0.10627504267712469
0.15644009043238555 -0.1289868843666432 0.10599270381454635
0.1561346133530246 -0.12854655005604415 0.10645619924907565
0.1568232350000701 -0.1280206694020122 0.10616080914168545
0.15651604649314735 -0.12753974865655593 0.10661645009232436
0.15720059046537113 -0.12701240645108466 0.10627463922580609
0.1569053591534428 -0.12650950838141714 0.10672861591849105
0.15760067891640342 -0.12593213691607 0.10631467693563476
0.15725723383751972 -0.12540889501370056 0.10673171778804023
0.15793526309562392 -0.12481486023172897 0.10630617796376676
0.15765845447982796 -0.12417573589821503 0.10664064065414108
0.15778888767597515 -0.12311220779970666 0.10667369613182799
0.1578190398726079 -0.12242540856366664 0.10673307850146764
0.15757179895329704 -0.12213913741115104 0.10705558713865597
0.15745274498384468 -0.12299755912079319 0.10701625048526481
0.15762763662070128 -0.12112907799676578 0.10720329577427384
0.1578218302011489 -0.12028114922235777 0.1072086148341625
0.15763254704487942 -0.11994817647720774 0.10750261680974932
0.1574213002217549 -0.12078262400519281 0.1074928549293513
0.15777490957890264 -0.11892502887658522 0.10762935022273323
0.15813078748269946 -0.11790431925522175 0.10765565750511129
0.157647390757011 -0.11790425596170317 0.10805218568091239
0.1575910419875134 -0.11850582422430501 0.1079287507511511
0.15825604897995774 -0.11713191970395062 0.10785704278418384
0.15769453129412814 -0.11730536951312324 0.10818262734033175
0.1590370028982361 -0.11706618117020988 0.10740059429962068
0.1581314144217378 -0.11657102350431683 0.10818761457938197
0.15904031750274972 -0.11622429554579217 0.10789206864628867
0.1586327540762988 -0.11605200642521799 0.10817461323009407
0.16009189066204577 -0.11608120855606961 0.10745181322555768
0.1591040806436637 -0.11554055777975912 0.10832875840340732
0.16011614442469121 -0.1152753979182304 0.10803712589540648
0.15976698670327236 -0.11503276066755787 0.10840578387387166
0.1609776142577065 -0.11529475686973706 0.1075769747171169
0.16037108709908862 -0.11445745059167484 0.10861270563673125
0.1613964749859604 -0.11437568765252093 0.10806505382492244
0.1613530562161554 -0.11362178512986616 0.10872951073245872
0.16221474207811087 -0.11328857711979404 0.10835633262127248
0.16202219289827585 -0.11271346721471709 0.10894751697839385
0.16276176914270044 -0.11227380396687006 0.10858254817737976
0.16256144151964452 -0.11161903863751935 0.10921418567096962
0.1632800857195976 -0.11121488565320568 0.10875294097067888
0.1631792025488697 -0.11067894497966267 0.10925375798350977
0.16374525001763562 -0.1101442709052967 0.10897115033476258
0.16346907214474848 -0.10979142530552391 0.10954468251038885
0.1641419492755296 -0.10907892086591577 0.10925280784589438
0.16385198123156763 -0.10863943368374253 0.10989396246591686
0.16445320465971885 -0.10817048262428298 0.10950439384831441
0.16501035513918394 -0.10721422936239836 0.10952253493557229
0.16545064180682614 -0.10604560658923437 0.10987238437953678
0.16588192957711256 -0.10494995134853931 0.11017856030230777
0.16633738933232337 -0.10394284823919694 0.1105054950834915
0.16671099136047435 -0.10310158668566634 0.11081695807866962
0.1678800213430322 -0.10227714379605067 0.11039214814908903
0.1675030203151437 -0.10213651737779866 0.11094619764099703
0.1684364686223861 -0.10146619664951761 0.1107320873599636
0.16839485401265614 -0.1008439569024134 0.11140798779009277
0.16891511368001164 -0.09968945025582793 0.11187476244115617
0.16916324105345426 -0.0989332311960334 0.11219675927575401
0.168868675334062 -0.09876136620440794 0.11263181636123105
0.16865071729843994 -0.09944147044964834 0.1123278278297184
0.16948174677007005 -0.09827641668875513 0.11229579498063025
0.16909539353277786 -0.09811647560063573 0.11283058241783384
0.16962575891079013 -0.09785875119860696 0.11234723134897
0.1412551317693484 -0.16989694179316653 0.10831791830837612
0.14096498955932685 -0.16943973712014848 0.10843027196390922
0.1407364393555005 -0.16934895329032404 0.1088571291114339
0.1411929315677028 -0.16952922563418438 0.10794535562153336
0.140731707328791 -0.16906240022546729 0.10861824804477624
0.1407234127524007 -0.16856121383614048 0.10770911547130659
0.14038529406448144 -0.16845002054695243 0.10839025547730521
0.1401242186769474 -0.1675888206168615 0.10751284481489985
0.14002158997769754 -0.1678716833597893 0.10812619622734511
0.1403140983791262 -0.16713265024886304 0.10651104198454665
0.13973251575540194 -0.1670911024224195 0.10772034988634754
0.1397384549942351 -0.1662677886220413 0.10661457688642254
0.1394915214758383 -0.16623013672056347 0.10707189918783735
0.13999676532126806 -0.16587964125223115 0.1056769099424197
0.13928287789968083 -0.16544728020874108 0.10662862264270609
0.1394237583572468 -0.16477340272614027 0.10550297798251017
0.13894416191581782 -0.16437852624298027 0.1059017265240037
0.13896596385140128 -0.16369612447003745 0.1052667724028426
0.13877733573282958 -0.16376403893266353 0.1056315220722376
0.1393130165376147 -0.163443711674342 0.10459099784923369
0.1386611831274029 -0.16315889666415967 0.10540422691553436
0.1388589976094234 -0.16266544723370074 0.10471946368606784
0.1385643726209391 -0.16256894114463585 0.10500963683002568
0.13936301523567532 -0.1622839185819525 0.10395794036246854
0.138530183359708 -0.16196401709926678 0.10475789056784315
0.1388392658017593 -0.16153456555710133 0.10414867869431167
0.13857643725700947 -0.16140992178359506 0.10446463550128829
0.13940331291672906 -0.1611835336518884 0.10340583685791227
0.1385258748904767 -0.1608303755897396 0.10423974742268641
0.13890928526539736 -0.16044735560264786 0.10363401608272013
0.13856767545030477 -0.16026579573323807 0.10394953054474888
0.1394087589021312 -0.16029842675967695 0.10298661598421664
0.13865625462829168 -0.15966595686141294 0.10375974089470555
0.1392160927456211 -0.15943873876520293 0.1030424482918259
0.13883035814542347 -0.15896076270639273 0.103396580012092
0.13917025018936346 -0.1585387968157544 0.10298095012914611
0.1394731707260429 -0.15802799030767947 0.10260356600692985
0.1391193347471291 -0.15793016772151372 0.10295904821891516
0.1393357828900693 -0.15744677002608506 0.10270199235869125
0.13954220362043995 -0.15697986247802356 0.10250852879320972
0.13918653143319712 -0.15684505629482667 0.10281166329174035
0.13955184307818363 -0.156407715630381 0.1024966900773047
0.13912422256236684 -0.15628835774657748 0.10278606372196517
0.13937045326182504 -0.15583258411017095 0.10255893064884562
0.13970109818822155 -0.15533000448099518 0.10236858504199532
0.13923536333164943 -0.15528176433478086 0.10264772742850382
0.13954941008334168 -0.15482881570469492 0.10248033176224819
0.13919401471310452 -0.15489820133954407 0.1026799934441429
0.14006403411395524 -0.1548587634104425 0.10219636616204582
0.139278451909487 -0.15446501787793282 0.10270770013399447
0.13998997905403593 -0.15422857204840654 0.10234178123099874
0.13958258974021084 -0.15402007421135802 0.1026252483531231
0.13991845566619818 -0.1535171796137153 0.10258622031475381
0.14070325950297474 -0.15311557810801443 0.10231524686968088
0.14032896612779433 -0.15291592901739956 0.10258426738595991
0.14085593313732253 -0.15258267643077952 0.10245441514719934
0.14140397354551765 -0.1521788203046165 0.10237079123103376
0.14087348477250633 -0.15211504406467555 0.10264269899025674
0.14134519461624054 -0.15171713460357522 0.10260088000922048
0.14091739620761626 -0.1517962117056865 0.1027708789124293
0.14198834542466526 -0.15171191937761772 0.10231088244887242
0.14105928286643227 -0.15140280851812082 0.10289878153089654
0.14182267192416181 -0.1511412147221335 0.10264542423447871
0.1414285057684646 -0.15100159241746844 0.10289415030419184
0.14250455530759745 -0.15120172297160908 0.10230700462604721
0.1417501044836046 -0.15058328358412787 0.10297362477564027
0.14267928615280726 -0.1504725533093598 0.10256974033440426
0.14231080139267602 -0.1500104907532229 0.10300363691181907
0.14293695997542913 -0.14970541961841383 0.10284895830797833
0.14256552919560075 -0.14964037947967784 0.10307043349123526
0.14349160059980326 -0.14984559639164174 0.10249215140700955
0.14283887773228499 -0.14924819025203814 0.10316133103417276
0.14372429362545683 -0.1491108167308107 0.10278464006965635
0.14333876487821753 -0.1488337110279047 0.10313917611840837
0.1438143080688249 -0.14831984051229333 0.10319893162027342
0.14460014736437876 -0.14790887824131238 0.10302644019752495
0.1443276547384236 -0.14767629887137862 0.1033109101394968
0.14493887042960069 -0.14741436741338132 0.10312885468904823
0.14459579459492974 -0.14731899359638223 0.10336960889971805
0.14490048430047206 -0.14689920455102012 0.1034548719012273
0.14557054014791726 -0.14654485945159854 0.1032643964145182
0.14533082938062633 -0.1463158303856146 0.10356841272599827
0.1458338132713475 -0.14607071130220461 0.1033880841479487
0.14555019927600235 -0.14596660502906292 0.10362969985388173
0.14579738900257594 -0.14557116639166737 0.10373280664959968
0.1463758721459805 -0.14498018486643946 0.10379651571038612
0.14732855705564266 -0.1443086583822862 0.10350916720521781
0.1468585159113072 -0.1441707384571799 0.10403179874055556
0.14755485160031848 -0.14371182276237116 0.10371491868702468
0.14735346737069693 -0.14329560070560587 0.10421966098332607
0.14778981039261824 -0.14306763308500875 0.10390224281582763
0.14816629669638068 -0.1424147218525143 0.10394897641347171
0.14833968652804805 -0.14166842757213072 0.10428899025246463
0.1490666457015232 -0.14101251538589826 0.10385633895300858
0.14874546925393972 -0.14085464750271814 0.10440729902907925
0.14929223926094473 -0.140402843349368 0.10409279902229433
0.14913668758114274 -0.14006270038591187 0.10453161966399574
0.14955231471587438 -0.13968205947982282 0.10432607725711616
0.14931315102215142 -0.13936978123286084 0.10483848798870721
0.1497485361762 -0.1390885396432926 0.10456268268123949
0.15008558602978675 -0.1385072228409204 0.10470479423759609
0.15104292733762023 -0.1377006348373194 0.10453977338324467
0.1505576993206437 -0.13761275892875086 0.105099795974147
0.15132732561306772 -0.13707191798558369 0.10488047059827939
0.15117597270245675 -0.136687012223576 0.10543931840633534
0.15166201071134872 -0.13645829916924013 0.10520571891312265
0.15214980280954993 -0.13584712289037376 0.10530811368537243
0.15252449426610123 -0.13495085299975423 0.10578129986435272
0.15288239650382707 -0.1343388538452634 0.10595789238318044
0.15363426217927637 -0.13367884235423408 0.10558993683503734
0.15325870086025337 -0.13363618268426747 0.10609129356874049
0.15395309602261403 -0.1329383401317073 0.10585170978478947
0.15364359946133463 -0.13245920705641429 0.10655513790656324
0.1543699650495705 -0.13196597144966335 0.10607864767938789
0.15422317549255507 -0.13150814415355447 0.1065424642752782
0.15477783229348846 -0.13102019532149062 0.106297851823512
0.15447255933691859 -0.13069827489612987 0.10676065306870192
0.15510712543756097 -0.13009333634727782 0.10653009166558218
0.1547761177613577 -0.12975046887497688 0.10699656015589207
0.1554539026048339 -0.129127092336076 0.10675865640702811
0.15507262041755074 -0.12872759261575706 0.10730462940858788
0.1558128233477714 -0.12810848825033738 0.10695161704846724
0.15552523054795112 -0.12760629649106628 0.10746314877838001
0.15621763607652178 -0.12703949351348132 0.10710631430391229
0.15591654804057586 -0.12645444886733706 0.10762655794999663
0.1565964919989648 -0.12598869327561055 0.10716385464199985
0.15638655085296102 -0.12548525627134063 0.10750081154021691
0.15695198171854988 -0.12492743778065318 0.10713097495985219
0.1566331863705477 -0.1245740451909186 0.10756584529025869
0.15723939117618105 -0.12387630771373333 0.1071019032800647
0.15695175531967376 -0.12336517115474704 0.10752808681036569
0.15705854762884763 -0.12227548979220647 0.10768569680506329
0.15717764498037173 -0.12146560295110026 0.107657460415659
0.15700879661234388 -0.12109497756467838 0.10796144259903308
0.1568958100265549 -0.12194509992166329 0.10800488117440811
0.15712071098497404 -0.12000646385764704 0.10806658979839201
0.15730439956517983 -0.11914945090122427 0.10804076734207844
0.1571229626390252 -0.11883096619812873 0.10833533543082499
0.15696368219446125 -0.11959620845741359 0.108310103070977
0.1571422702612478 -0.11798883058165448 0.10851173593607687
0.15742154958584098 -0.11711394840147799 0.1085133697303839
0.15709129236245117 -0.11696740404597179 0.10900683792062749
0.15693988864904918 -0.11764180670479216 0.10883786032267447
0.15774454448638917 -0.11642191015769912 0.10858076558623997
0.15833056617278207 -0.11597322819764656 0.10842078338902397
0.15803291546457957 -0.11596513533772548 0.10866042128951663
0.1584788283081984 -0.11545960678534212 0.10884621532581715
0.15941508942266622 -0.11492619053471621 0.1087267884243786
0.15905847350338403 -0.1148679654439108 0.10903291885954837
0.15967406603134182 -0.11427222557395034 0.10926764993588245
0.16067258919176863 -0.11375200717266608 0.10910358753939985
0.160511556538032 -0.11333964677458183 0.10963863342543444
0.16129322919055136 -0.11306589109915315 0.10928236853433539
0.16120474333016277 -0.11262342788108372 0.1097453576088415
0.16181151403405727 -0.11224453942486375 0.1095026648226804
0.16156400518674544 -0.11181545923344759 0.11008572696205549
0.1621664718184304 -0.11146851398698482 0.1097328652225647
0.16275066577931233 -0.1106085317533126 0.10977894103106506
0.16312172474491912 -0.1095084071963085 0.11013007438510002
0.1634063664135652 -0.10861197049891293 0.11043381465210059
0.16441193248126987 -0.10768831409487573 0.10992206652583172
0.16398522504193797 -0.10761848051402155 0.11049429818109688
0.16473780248770278 -0.10678012326604834 0.11018760529141657
0.16443770250450726 -0.10637567457606162 0.1108255293544381
0.1651809292746911 -0.10564384358410155 0.11050014885913823
0.1649282959786969 -0.10521144822601154 0.11112711379270984
0.16565143562144713 -0.10456736608668121 0.11080836508892214
0.16544115693573228 -0.10415484255948795 0.11142252806011964
0.16611232951079102 -0.10359799362882019 0.11110062923646397
0.1659796658854743 -0.1031830203718572 0.11172619963438808
0.16668266042918553 -0.10262623976732567 0.11136954026656984
0.16655415786981645 -0.10217216785312752 0.11203559475642247
0.16739702607403817 -0.10153143930796132 0.1116974802873169
0.16726095737827013 -0.10103125921238981 0.11241621816177251
0.1681213391956682 -0.10036162141295639 0.11209064054893433
0.16800628563638603 -0.09971374750985125 0.11275181767863932
0.16843931564439776 -0.09861504541798587 0.11318893379926127
0.16856371880816026 -0.09803478538061847 0.11346064742802417
0.16820297120519948 -0.09790697015793541 0.11389847405637407
0.14001868070099757 -0.1688748651008833 0.10952153212041624
0.13979632683276996 -0.16877769909787546 0.10989573042558017
0.14041593873799793 -0.16896209362987039 0.10900300300440656
0.1397853110284781 -0.16852409993064196 0.10959019062769947
0.1399664905138727 -0.1681869432010482 0.10882137073571113
0.13966900954333045 -0.16783234989653847 0.1092159977923368
0.13961185375848098 -0.16714329082312707 0.10844518734420477
0.1393934506418072 -0.1662949668729115 0.10752565238740233
0.13931136504332736 -0.16633365930697938 0.1080868799564738
0.13911030903533986 -0.16553852596989319 0.10730534979182271
0.13893107115104042 -0.16478653029536408 0.10657146582553564
0.13874875079876317 -0.16465995569726688 0.10698724102457206
0.1386399190684033 -0.16391678859680336 0.10608081862756921
0.138420793052621 -0.16376070145412627 0.10652626095692629
0.1383744466528697 -0.1630833943667811 0.10585722754529382
0.13837759361356256 -0.16247991615298946 0.1052620724908634
0.13814851810700501 -0.16236569317607086 0.10559800006022015
0.13823692969047552 -0.1617960104798813 0.10513211527768494
0.1383953830569032 -0.16130448955989785 0.10471095104487131
0.13814649871804827 -0.1611733934145113 0.10500424825543407
0.13821524894792891 -0.1606825856391054 0.1046030194724845
0.13834936903016776 -0.1601748199051315 0.10420413086403046
0.13809958991693805 -0.16009966710633228 0.10451093488243572
0.1382470308821994 -0.15955206244814024 0.10419406124161551
0.13846913400767194 -0.15893893319138477 0.10381485141494778
0.13809058949526565 -0.15892864554882416 0.10421837206171998
0.13831144233743295 -0.1583326249268266 0.10391954462231116
0.13803267175616116 -0.15847470694631297 0.10422660825116292
0.1387406620960459 -0.15823385605642842 0.10340325719394174
0.1380435203734559 -0.1579582189463515 0.10416068271910654
0.13844357253068856 -0.1575388779348697 0.10365879077390487
0.1381439087453745 -0.15743141510736514 0.10394851260311268
0.1389273986502335 -0.15741638234815275 0.10313353872110544
0.13820392718934862 -0.15688466905031287 0.1038030941313979
0.13870704135888148 -0.15657731583052822 0.10322718374817837
0.13830359556387714 -0.1561613415895581 0.10357687443553645
0.13857791933241556 -0.1557510365771184 0.10325895420778851
0.13832038945864247 -0.15571536017952298 0.10351932024851121
0.13894837100656401 -0.15579480399148368 0.10288375615165646
0.1383719489019661 -0.15527752906270612 0.10342922587510948
0.1388328179058678 -0.15507717022513776 0.10296858948185414
0.13853953000736194 -0.15486160164788174 0.10322894210097472
0.13877671805400427 -0.15436428069611996 0.103129588619762
0.13926512352853643 -0.15392928963573557 0.10285741179920845
0.13897467165451874 -0.15387802887395274 0.10306707110314979
0.13921548444159917 -0.15343146853213657 0.10306132105358301
0.13983217051632985 -0.15293500124323428 0.10286421671387995
0.13944472780144723 -0.1528442283976872 0.10316262234959958
0.13985948099471857 -0.1524812518085268 0.10305896881276219
0.13953627844768543 -0.15253547660853067 0.10324332503929676
0.1403562748826629 -0.1524829675777675 0.1027631146329931
0.1396784148856491 -0.15220987741972253 0.10334615150167561
0.14038568895037906 -0.15196053294750533 0.10301001306587937
0.1400387489334206 -0.15182944712198168 0.10330668977565094
0.14040905777401713 -0.1513630116472583 0.10333842390268397
0.14109760977742444 -0.15094448592625068 0.10311424831301216
0.14078704011260162 -0.15090995982803918 0.10333723321428757
0.1411649591009126 -0.15046185954301106 0.10337143505601161
0.14178493987674182 -0.15010657186609902 0.10321985128853108
0.14157482192938256 -0.14988877198238698 0.10346195000672224
0.14214892784419766 -0.1496484278214567 0.10330068191288146
0.14181898250071442 -0.1495593373839276 0.10353518137126744
0.14216600395124007 -0.14913700313307424 0.10363664835493815
0.14296283954060368 -0.14871353902198878 0.10341763692056397
0.1425915046553692 -0.1486501585173653 0.10368305902389023
0.1430308279723381 -0.1482070252044371 0.10371325697528898
0.14377626547791322 -0.14784174890843185 0.10352565847230673
0.1435018647115462 -0.14767088902724163 0.1038320542381452
0.14415154080173642 -0.14736498676624682 0.10361807956040908
0.143767400109324 -0.1473325394403569 0.10390959730985354
0.14409682083588324 -0.1468609173238959 0.10399797655932322
0.144827467804302 -0.14645359939196398 0.10381524709068402
0.14457572731447016 -0.14624078959108133 0.10411766080902904
0.14517195100998462 -0.14596859982265445 0.1039012668100237
0.14485421472928114 -0.1458776749932127 0.10417145003570977
0.14519717074782665 -0.14544195028708418 0.10424284474978088
0.14585283250409078 -0.1450738885891259 0.10406740597774476
0.14567083273892117 -0.14486622530593682 0.10438031995757133
0.14616236850681627 -0.14461605866074825 0.10423085940208357
0.14591763179880207 -0.144536183865877 0.10448765328125129
0.14618805421035128 -0.14413195464147635 0.1046227765236247
0.14680070500914366 -0.14346430488741363 0.10464645126242751
0.147710979841008 -0.1426901526137876 0.10426254381949261
0.14731415371650716 -0.14260764303731202 0.10475975369180317
0.1479024081765941 -0.14205918896988884 0.10452790874711414
0.14764776854706044 -0.14163991562185788 0.10510541352371441
0.14819031415758172 -0.141287967775268 0.10475322632650212
0.14806863385967628 -0.1408462734855806 0.1052252902994901
0.14844558830931612 -0.14066522456069938 0.1049238645121928
0.14879437685579253 -0.14003267840117187 0.10495564689678287
0.14896490347799618 -0.1393415268689569 0.10526125893051634
0.1496481316148711 -0.13874595271406887 0.10491488414756861
0.14931385923802132 -0.13869046977499613 0.10532421889304164
0.14981370987443082 -0.1381904022769192 0.10520313762426527
0.14951751175836073 -0.13814521948141065 0.10551705448280632
0.14982884993786638 -0.13761194172097474 0.10572749107660076
0.15056083432515502 -0.13685503035686314 0.10583042692814551
0.15164834763159113 -0.1361120865416443 0.10557600096169498
0.1512457025388949 -0.13603344696878414 0.10602242349589763
0.1519066774970145 -0.13553403616369836 0.10587039847169552
0.1516774821086877 -0.1353218659532786 0.10629629308167847
0.15212892345972753 -0.13496136045793494 0.10620777465979317
0.15256526994493377 -0.13427514711149247 0.10636365302599594
0.15294445797157874 -0.13335018781722438 0.10669500871955466
0.15312215878806595 -0.13270996704363808 0.10696524514959213
0.15289342478421103 -0.13241900194691394 0.10738169104805907
0.15272830706487173 -0.13312185561691603 0.10712375910716933
0.1533718759630276 -0.13214752717974565 0.10706431452319316
0.153841161460562 -0.1314157631546095 0.10702486857173416
0.1541528686159556 -0.13039102890130458 0.10724131477514795
0.1544382536707398 -0.1294920282248834 0.10744635796742275
0.1545888591719421 -0.12884644473854923 0.10766928770408657
0.15434102239995595 -0.1286340297830578 0.10802118828059507
0.1542043547113486 -0.12927686813756364 0.10779966596296821
0.15489485898573643 -0.1281205390598115 0.10778091861230985
0.15464378246210586 -0.1277468004189835 0.10825854251001274
0.15525751180705072 -0.12718482224858174 0.10797787028215762
0.1549798221638899 -0.12673160369437023 0.108507688644935
0.15550535681819763 -0.12637480054264727 0.10812277949008471
0.15595980304243012 -0.1254454485436921 0.10797902153314701
0.1562925212245108 -0.1242691700405657 0.10805347928901318
0.1565365592160346 -0.12325665280712227 0.10809106487585086
0.15668170766229636 -0.12255790997326982 0.1081679599466374
0.15650219273683402 -0.12218280870645166 0.10848707976403452
0.15633115338498915 -0.12304962127375434 0.10846938888751756
0.1565540277495953 -0.12110843682343297 0.10859179843494375
0.15670843300812107 -0.12024256165906663 0.10849704609443804
0.15663857193328737 -0.11979850440574534 0.10869812390980352
0.15640196835147022 -0.12065066307636566 0.10891354461042561
0.15659484122463183 -0.1190732580605723 0.10891906606615277
0.15668395253621897 -0.11828617561635373 0.10895824035215243
0.15647658510496798 -0.11800647461797409 0.10936366748514667
0.1563567313699131 -0.11879412846944164 0.10929779867037677
0.15655159306613872 -0.1172080660841493 0.10964467704805729
0.15766369079701104 -0.11611846203848235 0.10897006755005782
0.1570920067523906 -0.11645471276582438 0.10940454887609016
0.15769570794555945 -0.11559555302494956 0.10955859047505967
0.1586596110512282 -0.11487842280251644 0.10936981365130127
0.15825314269806304 -0.11491624989715143 0.10972333831594214
0.15884703421338484 -0.1142835447052402 0.10997113269414766
0.15976073349541856 -0.11375330419711537 0.10982746149119683
0.15956506799168965 -0.11357552200647414 0.11020401195681183
0.16010940797459106 -0.11326250682581364 0.11007744755593964
0.16071374537154481 -0.11258213103209781 0.1102274725935429
0.16108826907402332 -0.11176977446550174 0.11061773067463697
0.16214220486344327 -0.11099012451362601 0.11013148604796325
0.16170355993935445 -0.11086520968459448 0.11068073800859435
0.16246214068556117 -0.11014730615178975 0.11040917849233318
0.1621876738771312 -0.10972599162250506 0.11102285049048906
0.16283525351802122 -0.10914382488184197 0.11070435845242443
0.16260361541241494 -0.10869585910669619 0.11129259950039382
0.16325982038966183 -0.10812708138564714 0.11094622330334973
0.16303642237380064 -0.10765384296301238 0.11155783177141361
0.16373112080480573 -0.10703939730848874 0.11120062031591432
0.16348157933140514 -0.10654895739871606 0.11185127646510683
0.1641942770431129 -0.10588212992932339 0.11148367272823397
0.16395881543216512 -0.10531972940524262 0.11219464504951035
0.16471499844561494 -0.10475326479614103 0.11174510660250585
0.1646121380905798 -0.1043017456267554 0.11228087089966383
0.16526276220284178 -0.10375290794301309 0.11203276142697816
0.16503258882459512 -0.1034450655912477 0.11264607854511846
0.16580579427419637 -0.10278873256137454 0.11237794923546178
