# .PCD v.7 - Point Cloud Data file format
VERSION .7
FIELDS x y z
SIZE 4 4 4
TYPE f f f
COUNT 1 1 1
WIDTH 793
HEIGHT 1
VIEWPOINT 0 0 0 1 0 0 0
POINTS 793
DATA ascii
0.17417011790210327 -0.10788072318826183 0.0983876173727354
0.17494013272766193 -0.10692912861773336 0.09822153406675933
0.17536340568867723 -0.10629788709280984 0.09859051751158454
0.17505900391260076 -0.10634125623517582 0.09924496385870195
0.17464593451498778 -0.10698182189801332 0.09885061140248805
0.17585392903397404 -0.10566875121556901 0.0987153720820634
0.17665560760145946 -0.1046212369318757 0.09856742853103763
0.17730614114316234 -0.10360570685634479 0.09886624308416078
0.17757809842407155 -0.10316680040208452 0.09900307079257625
0.15262674560304237 -0.17942334897609577 0.09962561314416381
0.15366603001541373 -0.17930411549001055 0.09853279942883053
0.1528663290696891 -0.17896152312869326 0.09913170160144225
0.1531745064288831 -0.1787254652424473 0.09863982705328012
0.15257961666614256 -0.17766276814561 0.09843459083518444
0.15182297710863302 -0.1765560924570291 0.09814810174180169
0.15190530322639736 -0.17586044154079553 0.09740147582631271
0.15102259542459961 -0.17542769802907623 0.09785694301405458
0.1512146701953664 -0.17502837824136405 0.09732941415889855
0.15051888076431785 -0.1740775305091183 0.09690833541759718
0.1491438976888904 -0.17267347481196402 0.09669888592552836
0.14958063386755857 -0.1722590045128748 0.0958263646836036
0.1485102336745359 -0.1716666406095792 0.09612577975978966
0.14869407473183183 -0.17140039557311978 0.09567730331162959
0.1480398163582575 -0.17048658640134515 0.09539393479379163
0.14653285563487214 -0.16910911709098603 0.09521279738086107
0.14721390129907258 -0.16880481595233002 0.09461623664477888
0.14606873503420809 -0.16829797596179888 0.09478300497617916
0.14628638599129706 -0.16804263644114767 0.09449094122699739
0.1455130985526075 -0.16714157241057562 0.09427788407547916
0.14595995544808937 -0.16650373718508282 0.093786209910977
0.1449168418024655 -0.16618122269933094 0.09394316695882718
0.14506825342233878 -0.1658598425035513 0.0937415528579906
0.14433667129602368 -0.165071894249921 0.09364534112828611
0.14485704318898976 -0.16467357643593944 0.09321739633759422
0.1438670096029295 -0.16428004388125547 0.09340444137519378
0.14417759422506252 -0.1641111980665556 0.09318989917820465
0.14364058370860056 -0.163380268595227 0.09313788484743993
0.14431240987033866 -0.16288979811034218 0.09286131333994846
0.14328825094985928 -0.1625621914317983 0.09300591724523552
0.14362795941370968 -0.16232483613865042 0.09285892810514805
0.14310958655897257 -0.16165918958685946 0.09279570332042693
0.14411883476094337 -0.16125493003755698 0.09257437511794142
0.14296953423604028 -0.16092112420126878 0.09276358707636337
0.14344515010509154 -0.16071381935387355 0.09266365045125384
0.14362121729235525 -0.16050212783339196 0.09262736634909462
0.14310971491773808 -0.16036484382531646 0.09268365241461105
0.14300417522949777 -0.16003991796435474 0.09273656292921884
0.14307702916321222 -0.1595096329685253 0.09279411366292781
0.14484241331353404 -0.15916221497590313 0.09273769705388454
0.14354377740180171 -0.15890053193226306 0.09287136425437673
0.14424707413174315 -0.1586128047107738 0.09290218454010124
0.14444419449368284 -0.158312513597282 0.09293034635684434
0.1439724887177866 -0.15828190064061093 0.0930162414768577
0.1438243730624011 -0.1579220915708682 0.09306779017610226
0.14426220568802275 -0.1575120683162313 0.09310144764490107
0.14519170660700995 -0.15712878859060292 0.09301262716368068
0.14459045236654738 -0.15716737999946406 0.09313760894550291
0.14445672775993543 -0.15667736817178285 0.09319931132150104
0.14459941933485465 -0.15608846909800564 0.09331099541900786
0.14601228109604922 -0.1556835675527835 0.09314335621784238
0.1449997625461565 -0.15544965027508886 0.09338339602603997
0.14569990480462738 -0.15526006665077569 0.09331534619953917
0.1457528297467863 -0.15474357761900837 0.09345753775885501
0.147082137770373 -0.15443750961044408 0.09324376608720963
0.14620018131939522 -0.15414261119006173 0.09353580364035904
0.14695781807547217 -0.15406536809384322 0.09338570548830713
0.14731583713318544 -0.15382470502886628 0.09339864106960415
0.1473545029163408 -0.15324557489412655 0.09357746908087444
0.14750893787821484 -0.15251533750060536 0.09388314724058906
0.14738063467203388 -0.15183499174187665 0.09420859789946517
0.14887454719467744 -0.15165564109650473 0.09397696950242564
0.14805905669458594 -0.15136457273005574 0.09430771013159535
0.1487853208848633 -0.15119401050455694 0.09423689165120892
0.14906698492700235 -0.1506629454895558 0.09438320858177492
0.1504217495873084 -0.15026547319043668 0.0942044545373462
0.1496940655634998 -0.15007301307043383 0.09445620928141041
0.15038315755973292 -0.1496468228672617 0.09438520488853565
0.14939823272772645 -0.14922219378832927 0.09466025389977048
0.1503158823422281 -0.14901088007465585 0.09453286046936997
0.1505906019759295 -0.14841165416153793 0.09460942339015743
0.15216063533123408 -0.1479278147011445 0.09443061420747965
0.1512935069530731 -0.14782239605793632 0.09463752537548054
0.1521164984117358 -0.14741779843222974 0.09463747637068495
0.15108903968106502 -0.14711864515035458 0.09500209803203767
0.15204770311032725 -0.1468606413567721 0.09488479166399055
0.1524502031990772 -0.14621933904946643 0.09498004403872178
0.15287305863007702 -0.1455689927680725 0.09506610254004014
0.15299874460045668 -0.14499828053658867 0.09534666912171817
0.1540589249955752 -0.14458208457958938 0.09495408589440425
0.15433164476308803 -0.14386273149569667 0.09518688449683627
0.15487228548643303 -0.14316953637990612 0.09515781753730056
0.1550654581075113 -0.1425410565958638 0.09528011772438477
0.1553827322339314 -0.14171274089532723 0.09528335717603884
0.15565643647364102 -0.14082520529885095 0.09521754548005869
0.15595557328613976 -0.1399354738644996 0.09513643442369005
0.15633824428920418 -0.13902868799406398 0.09504255225057018
0.15677975428477062 -0.13817130789115697 0.09501853093777841
0.15717709268135682 -0.13735494555653033 0.0950765439214528
0.15757206955449193 -0.13660276702297966 0.09524947469551127
0.15800712491185798 -0.13586849071354418 0.09542461267829519
0.15831493624307086 -0.13524614546726618 0.09565883502951761
0.15974085649186945 -0.13410880776797107 0.09502232369851396
0.15891298151668745 -0.13432915420053862 0.09573214038202771
0.15991689388211056 -0.13355043249034962 0.09529138038394475
0.16057049296575956 -0.1325723581757369 0.0952998856166076
0.16118843141634084 -0.13150670685271176 0.09536949435934675
0.16130978396246562 -0.1307123504856299 0.09575114265462922
0.16215512459108183 -0.12955202470329333 0.09560057873870964
0.16243402429258372 -0.12881323431891165 0.0958099158283398
0.1626872470711975 -0.12799974065220104 0.09611487917654439
0.16294497842254865 -0.1273031822883017 0.09630734836111689
0.16259259046087987 -0.12722800341728205 0.09675501108752872
0.1624328566772243 -0.12781356255980986 0.09657032269861549
0.16337166624210606 -0.12653289828609798 0.09638839337529485
0.16291278541287463 -0.1263571686319829 0.09694301463095423
0.16374813652477727 -0.12561539272744135 0.09663211985089483
0.16326059563518477 -0.12535332694073084 0.09724608106848844
0.16401224037780154 -0.1248408573594543 0.09689785215521655
0.16458918671260725 -0.12401136483098621 0.09706225471067682
0.16602937021035485 -0.12316148491264442 0.09661187079307428
0.16549954456258928 -0.12304153201838927 0.09719996110864444
0.1661904910008332 -0.12261954852585907 0.0969862376708214
0.1666958762317484 -0.12189115642393995 0.09729590411472525
0.16797165848254297 -0.12101216510545201 0.09692762073538966
0.1674556140477795 -0.1210514368298401 0.09743101930656885
0.16820462037220357 -0.12033501110972245 0.09732587472891906
0.16771857316948155 -0.12012731750017087 0.0980444534606386
0.16848162490691113 -0.11963313499293837 0.09769415520542321
0.16904976402380018 -0.1187396379964886 0.09767048021304749
0.16942915123646446 -0.11765173050916283 0.09793314265907105
0.16985507412519776 -0.11652015287043288 0.09817268394640258
0.1704995475722317 -0.11543123047870167 0.09803756985868299
0.1708216797703779 -0.11462610588608699 0.09826528449220859
0.17132535655869666 -0.11360659821337821 0.09841955512531592
0.17175873659731655 -0.11263093490787549 0.09856166780556326
0.17210065585911927 -0.11168059363637758 0.09871959962029694
0.17239922465017724 -0.11069783610377813 0.09887794779392069
0.17277092758106918 -0.10985445676703992 0.09889614847573289
0.17267360433523396 -0.10962823045141222 0.09933755341506606
0.17228265393230835 -0.11042241759426251 0.09927858848790223
0.17296818949202988 -0.10890029314549446 0.09961222054080565
0.17417705812897574 -0.10761509427156317 0.09876867214941785
0.17382340524465845 -0.10771534113338367 0.0994946081864514
0.17436467177600054 -0.10678352092564002 0.09992746437612181
0.17588471789905133 -0.10535893181615136 0.09918692714111571
0.17533676381621946 -0.10562510020621334 0.09993586100820531
0.17641291454475033 -0.10450914432377757 0.09942321650315522
0.1761199658592584 -0.10451810165944471 0.10029572220917345
0.17692727935688898 -0.10375134715356898 0.09967033096594408
0.17646619973141145 -0.1039232397488137 0.10065835604596407
0.1522073083760601 -0.17965308017395445 0.10015682217690147
0.1522832545531689 -0.1789534037653579 0.0997266228531828
0.15256540855802356 -0.17823923186760493 0.09896550082196892
0.15222746924025374 -0.17831138619755132 0.09937562567081792
0.15154645375223688 -0.1772989971173542 0.09910291400164457
0.15101138779684686 -0.176142028737855 0.0985487701043517
0.14972282140887777 -0.174752374817071 0.09832091200491268
0.15030019687146845 -0.17432452579165733 0.0974160907929538
0.14942592298938445 -0.1739059797415703 0.09774214062512927
0.1493288960682206 -0.1732938768058245 0.09721672905420047
0.1480263315868965 -0.17257060640408328 0.09743728728748147
0.14836325163855887 -0.17232406698508226 0.09700647583044389
0.14772697795581272 -0.1714713113262914 0.09662252465476642
0.14767406169741976 -0.17065484635016948 0.09577431024559223
0.1465306954025982 -0.17012827368741873 0.09613388757607676
0.14660970906304033 -0.16963920134746918 0.09560326793613791
0.14530108195607164 -0.16877936638916594 0.09571530887378563
0.14560116030938686 -0.16866886247372534 0.09541206946997655
0.1448946356817285 -0.16786281581518686 0.09512211414885192
0.1452739155540136 -0.1674530372000486 0.09450954266059942
0.14427124192981558 -0.1669863761240362 0.09471492536277795
0.14443791452003696 -0.16672309636809698 0.09443780657718844
0.14377553423606357 -0.16590686505560126 0.09426009348125422
0.1441906870837258 -0.1653932442459747 0.09380254015614081
0.14321154150448576 -0.16500815806970645 0.09397161522443889
0.14340397890120263 -0.16474077478429217 0.09378040681180495
0.14278989494145014 -0.16399624293447138 0.09365927235752768
0.14332674957817285 -0.16360491245536876 0.09331765370697279
0.1423944150239461 -0.1632040250123119 0.09351767755585919
0.14267471929555992 -0.16299002521292988 0.09337609740690118
0.14212905408455642 -0.16230137730369643 0.09326224541598645
0.14271843965197825 -0.1618661453023602 0.09293309964718659
0.14170957494573957 -0.16151985693893062 0.09311344624312343
0.14204800357192243 -0.1612938384394179 0.09296733310475679
0.14163781972962633 -0.160687034894603 0.09292140000262075
0.14265783172683716 -0.16027832320462645 0.09278967086707557
0.14155936075562248 -0.15997488987773809 0.09290883665447086
0.1421169762440001 -0.15976803907186354 0.09284560954698781
0.14234847921014704 -0.15957788933693606 0.09281862694557944
0.14183685747056748 -0.1594624309697406 0.09282699435544658
0.14173990390025942 -0.15915373335374755 0.09285569082016011
0.14218778262247275 -0.15875036030779272 0.09291081233381218
0.1434124090861783 -0.15829153240878818 0.09301851787444641
0.14254113573616717 -0.158334084245447 0.09296587236806918
0.14241781974110707 -0.15770770985970645 0.09313662881509904
0.1432676534610781 -0.15739332983363086 0.09315621424089886
0.14223463863078986 -0.15697980495507063 0.09328378879383666
0.14356150975912246 -0.15693654872554189 0.09324825310296198
0.142492330310583 -0.15644041143234827 0.09341046023438974
0.1433870184473723 -0.15640844550985566 0.09332610665465968
0.1438187082448082 -0.15622075599390442 0.09331671399345784
0.14328795529576105 -0.15612240945926403 0.09336303624492978
0.14333622878386493 -0.1558266810409429 0.09345813677895316
0.14356344482485012 -0.1552981419673471 0.0936113205606009
0.14502529056905436 -0.15491579328023844 0.0934959548642597
0.14403139032849238 -0.15466113727152858 0.09372757687257088
0.14474907503011522 -0.15447639816260839 0.09366101897901306
0.144878717150043 -0.15395943364995351 0.09384944309631502
0.14653496393901752 -0.15357909629846575 0.09364388928398687
0.14540184850644458 -0.15329389845835395 0.09405148902156397
0.14618748312731775 -0.15295248030056585 0.09398210338689815
0.1467052433056995 -0.15262792241040088 0.0940130875561485
0.14583540752374455 -0.15230921711044962 0.09435404442098838
0.1466629322117512 -0.1521142987314259 0.09424628728392509
0.14597859248900452 -0.15174593693771665 0.09459890839624839
0.14660031467900875 -0.15165972312116843 0.09448311438407449
0.1468674286132337 -0.15118276297363503 0.09461762769345083
0.1483295053242124 -0.15084127143242193 0.09447439900948672
0.1474928360438611 -0.15060798583710988 0.09470206211564693
0.148202531214371 -0.15039752202294115 0.09461935651669479
0.14855344894226377 -0.1498339419647014 0.09470487601844176
0.14825603531293385 -0.149052448010754 0.09492677038473532
0.14972388539142203 -0.14863497021880356 0.09469702343935098
0.14883235135611858 -0.1484658975914552 0.09498325988044312
0.14958145926502128 -0.1482110821924082 0.09482913069979806
0.15003716713729567 -0.14767531428059605 0.09494192013961088
0.14988469622462916 -0.14697520638790154 0.09535942448156055
0.15156944615853038 -0.14656347549255114 0.0951551571834118
0.15068135810598624 -0.1464182841262183 0.095524081405933
0.15154202712170528 -0.14613667229524413 0.0953891623837548
0.15199787249063768 -0.14553777008325394 0.09557938124332942
0.1523290896873728 -0.14501695129233308 0.09579466025104955
0.15348174065483408 -0.14440352087829988 0.09542109871957856
0.15270863339480423 -0.14448203690333436 0.09589759439754196
0.15350722660730579 -0.14398816484075266 0.09569999035278746
0.1540919518106302 -0.14331422256521045 0.09573742345879425
0.15436981106495395 -0.142489559333374 0.09588570140414328
0.15464935376525646 -0.14168230312765123 0.09589928513509645
0.15491997159298643 -0.14084684892353685 0.09586597265332569
0.155176276071662 -0.1399772481117259 0.09585164504843965
0.1557250756874593 -0.1389822304704725 0.09564313824223836
0.15617809643557426 -0.13814080602163756 0.09562136063704438
0.15660179929800785 -0.1373216543811647 0.09571087991786387
0.15704017582491053 -0.13649210890845814 0.09592262453902577
0.15765610450830725 -0.13574072388948538 0.09592369225559896
0.1579145374585753 -0.13513750985495337 0.09618079609563693
0.1581800335290601 -0.13447665963906164 0.09647356940767926
0.15958495094464614 -0.13337963234876174 0.09575801974486632
0.15888364438007463 -0.1335254253869772 0.09647477389610122
0.1597538502897786 -0.13285203573587698 0.0959956951161318
0.16032475702094562 -0.13200005213866767 0.09597550263532027
0.1603666102456829 -0.13146366863617107 0.0963590057257227
0.15994316281970464 -0.13148502730410694 0.09695386198352536
0.1597984836708448 -0.13208214928680184 0.09659467895043287
0.1606643117687773 -0.1308713107637007 0.09644791599136214
0.16141069997982627 -0.12991952122496117 0.09626998374658177
0.16180751653808262 -0.12898346469822117 0.09643987031106903
0.1620284735902863 -0.12837804572782205 0.09660903137835122
0.16178430721791648 -0.12815743999109275 0.09705122186671077
0.16145240233144592 -0.12893706430450577 0.09691832700793566
0.16205449126646054 -0.12723127626855663 0.09729365557119371
0.16237208766490585 -0.126298437093542 0.09749942608314963
0.16263457984636825 -0.12551440768860903 0.0977720409316362
0.1638331225589017 -0.1245047910916009 0.09731422086645816
0.16323764572594265 -0.1245040324683034 0.09791159125669453
0.16405229573894342 -0.12392168467150107 0.09761896747286444
0.1646531228307036 -0.12312562890841332 0.09785034988188421
0.16599994180898117 -0.12229623962406268 0.0974776652366058
0.1655126075405596 -0.12215180407117499 0.09804610290255454
0.16621656872395835 -0.12174822006349924 0.09786721554698857
0.16681361943335135 -0.12101924758600043 0.09808096347758262
0.16708623758132182 -0.12018725134009564 0.09859148375424322
0.16834344543870647 -0.11927376064887879 0.09818138673138978
0.16772472438885444 -0.11919923591861364 0.09882725241898516
0.16865324720340694 -0.11847182539112096 0.09842459930087528
0.168354666532156 -0.11818860316763272 0.09902014435250174
0.16901672981698262 -0.1175365738308481 0.09868009746339243
0.16863345675937247 -0.11731272346370396 0.09942811015630951
0.16929232190015814 -0.11676912355342574 0.098922766962894
0.16991480607534126 -0.11575947323323048 0.09880699232069895
0.1704084449671725 -0.1146230958959501 0.09914822881118135
0.1710495999458929 -0.11354653354149523 0.09907345065246999
0.17125878582544063 -0.11279757357910171 0.09937840334258508
0.17166893519400553 -0.11177152227806206 0.09938286966717443
0.17189472323471644 -0.11108484189251196 0.09944571976882052
0.1717797589124171 -0.11079780627953215 0.09985496915403752
0.17142699506073358 -0.11166199240145595 0.09982463658942693
0.1721637569766952 -0.10983405677912575 0.10007603703711772
0.17269729560745703 -0.10881458897973885 0.10022178532556132
0.17345336452856452 -0.10769856593433337 0.10040245784170013
0.17426520274352975 -0.10662279974457006 0.1006333160323894
0.1750657732220103 -0.1055033360627909 0.10086093651936354
0.1757967649226293 -0.1044414559788217 0.10115291419111622
0.17613659127686668 -0.10382673884227188 0.10148501389740223
0.15205082135735495 -0.18020046893953917 0.10057617939848036
0.1517825914645572 -0.18037948095466666 0.10091881910105475
0.15152772464962302 -0.17971708964417052 0.10077152342723042
0.1517374743965388 -0.17898289620481167 0.10022302650500242
0.15076902207323226 -0.17834434496050333 0.10053605837273895
0.15137890126372863 -0.1779508075568224 0.0998148282130717
0.14998002190535753 -0.17699260598269947 0.09998062684497953
0.15040194016110564 -0.17666381106054874 0.09944932957200556
0.15049333980623897 -0.17619368824887596 0.0990450510420109
0.1496842283775355 -0.17570432792748225 0.09919463387749503
0.14986026837694078 -0.17537085408503889 0.09883925445492592
0.1492630728775029 -0.17511504075758935 0.09900996567323568
0.14872800169933992 -0.17443163238545073 0.09870189281130012
0.14822236433905203 -0.17341997423274583 0.09811925773925358
0.1468574600150041 -0.17213386532924974 0.09781313213336151
0.1474143787013105 -0.17163851581506145 0.09699995774698547
0.14648546953787375 -0.17125471772602965 0.0972320812422511
0.1464117896347752 -0.17060299147456884 0.096730089939642
0.1451051112856409 -0.16986094865840243 0.0969793354089269
0.14546506931211206 -0.16961505686560596 0.09652146282594916
0.14465040472386104 -0.1686766622434269 0.09614402271350538
0.14473332690231333 -0.168021153876019 0.0954700986826758
0.1439669097610989 -0.16765811543832887 0.09571855661762782
0.14404005066591688 -0.16740624427134368 0.09537750562342917
0.143308813709022 -0.16669212945246842 0.09509354128794001
0.1435728123594562 -0.16613143591318733 0.09454708785048335
0.14274091247615311 -0.165770041386959 0.09480776583302093
0.14288253066912632 -0.16547906276218832 0.09454198331999734
0.1421600211626858 -0.1647362705348009 0.0943257846210016
0.14253479134372593 -0.16421020297911854 0.09384961342206442
0.14165530047971212 -0.16381335437711514 0.09412301229617577
0.14188301822811578 -0.1635766571554424 0.09388281561826747
0.14135995397743553 -0.16290461024131894 0.0937841197023361
0.14187085807597194 -0.16249557753058194 0.09344959617032678
0.140940674168274 -0.16213335949652835 0.0935764965277916
0.14115692492556045 -0.1619204853608477 0.09339017789339481
0.14057371359046364 -0.16130075282213083 0.09330063871448839
0.14122834005536586 -0.16086074722019167 0.09305093230878712
0.14018734192147347 -0.1605532234714049 0.09312680536140293
0.140538130723251 -0.16035850191623208 0.09299099952312638
0.14019355680486115 -0.1597716518132255 0.0930085881076682
0.1413097060468368 -0.15936718692124488 0.09287229357637705
0.1401849218300938 -0.15908140694717532 0.0930100834868522
0.14071982861124627 -0.15880360598265267 0.09296646664766381
0.14123417853741344 -0.15858663317704455 0.09300121217283902
0.14028617185923736 -0.15815354935196044 0.09309755657891619
0.14145763650281842 -0.15806985130482004 0.09308029823852625
0.14039483345284334 -0.15755253630575844 0.09320401317130293
0.14128589361349458 -0.1574692398199144 0.09323482637985164
0.1416333257202257 -0.15723116388383518 0.0932793416232559
0.14114203308316667 -0.1571668878136853 0.0932937481915996
0.14099978348052272 -0.1568620835022707 0.09332786126950768
0.1412197165784594 -0.156354355334806 0.09347581032648099
0.14278765585508055 -0.15604791366656032 0.09348247115529162
0.14179623342234865 -0.15583658523794222 0.09364333411256431
0.14256109638850228 -0.1556333708140119 0.09363492473001062
0.14287364479964074 -0.15543164516672947 0.09362920939700303
0.1424760625066969 -0.15536554642271294 0.09370698903499967
0.1424302475243195 -0.15506169686236354 0.09379546538760014
0.14273386373201621 -0.1545013451306848 0.09397483382186354
0.14412392098366508 -0.15414339800108606 0.0938586213367572
0.14320419480842325 -0.15391002567410786 0.09409939794664707
0.14388018420733079 -0.15371006091806258 0.09404043712745902
0.14406510576008116 -0.15316787109554902 0.0942497348821363
0.1453735156518486 -0.1526906746788449 0.09434047447536158
0.14453083392067087 -0.15255759374266933 0.09457356396791755
0.1450706238196503 -0.1522762441936428 0.09459969043367775
0.14509196897661852 -0.15176756442860675 0.0947669158661561
0.14622090334106289 -0.15136323502404472 0.0947454157657271
0.14551113170216134 -0.1511811692890291 0.09495108581900903
0.14614566758082015 -0.1509816750612609 0.09489448433001203
0.14639188061322034 -0.15048453224730388 0.09498844574620861
0.1477473750575162 -0.1500399309274165 0.09483563416864679
0.14699790198921356 -0.14990696645327126 0.09504466146987438
0.14760118323692892 -0.14946948883092112 0.09498387623471377
0.14675824492032732 -0.14915558860620776 0.09530602053706262
0.14746429353301027 -0.148940151708273 0.09512682827427106
0.1478468085078748 -0.14847987564750098 0.09523152081522641
0.14908413450131314 -0.147888517954354 0.09510796917663611
0.14820732633592026 -0.1477608592919323 0.09545827679860493
0.14907000302606957 -0.14735845279766396 0.09532796660259359
0.14843838430357012 -0.14708846475873907 0.09566935770057071
0.149063082332942 -0.14687423409949407 0.09558538642047877
0.14942282094713852 -0.14637822600702768 0.0958702126593742
0.15109985786888708 -0.14586966182936265 0.09573522285037536
0.150304963656874 -0.1457430282799861 0.09612315711941694
0.1511523885202064 -0.14547050131648565 0.09601413183933892
0.15162070888276116 -0.14490155512009575 0.09620711801020097
0.15214180048243348 -0.1441155011563884 0.09645195873577816
0.15305507897474258 -0.14378944036766805 0.09615026139611002
0.15339725776640242 -0.14310355124411667 0.09630827819487704
0.15369986025379376 -0.14236606128394677 0.09641777167268155
0.1539991868534405 -0.14160289229783854 0.09644487631830444
0.15425168548299162 -0.14086716311276773 0.09640591198475801
0.154344115081591 -0.14035683572906488 0.09642636640945705
0.15381964628036604 -0.14028711838749897 0.0967449962841763
0.1537143310234138 -0.1408329959015011 0.09674525688001234
0.15473413166275624 -0.1396716625510035 0.09624470037036761
0.15419666715259073 -0.13948825037660936 0.09662725284604484
0.1551883197671812 -0.13884208030767872 0.09613138247700664
0.15462720334948704 -0.13870578474237363 0.09656666581722416
0.15562616017426115 -0.13803933982663644 0.09616690246605149
0.15501573281395467 -0.13793694505893134 0.09666254463566919
0.15603643986604057 -0.1372583325486933 0.09628467881131486
0.15546743400068053 -0.13711411498193996 0.0968596181355501
0.15637592704427145 -0.13662848961617766 0.09646831379779021
0.15701229534462222 -0.13589158684933678 0.09645687160697682
0.15738237138915642 -0.13506526166127722 0.0967839688265496
0.1578432110101799 -0.13417579115480732 0.09707932303281454
0.15842305855554004 -0.13345930194964542 0.097085887985629
0.15951850519078534 -0.13265690916268175 0.09644958070383125
0.15900773939345128 -0.13263727323753774 0.09710036815718216
0.15923713042856918 -0.1317805107629733 0.09750551491786853
0.160574702300386 -0.130579844956856 0.09683614564362211
0.1599742529728235 -0.1307059671160021 0.09743688900247202
0.16100665163646447 -0.12976186478147056 0.09693542623970934
0.16070359642609056 -0.12934799626874924 0.09749700863340413
0.1610826530184028 -0.12822565444515954 0.09770440932866964
0.1614894878687034 -0.1272048637959508 0.09788534554273419
0.16187267626469698 -0.12623516531798867 0.09805885506712853
0.16231300239752314 -0.12529826094992577 0.09825457531658348
0.16261967622940712 -0.12451068969327876 0.09850751860970305
0.16388056957451383 -0.12357899221914671 0.09806083767047072
0.16327985291919123 -0.12350764381932706 0.09868049011795453
0.16412178992852877 -0.12299855932107619 0.09839469629381144
0.16470797207813934 -0.12230478579454104 0.0985665516461819
0.16607886233727984 -0.12135663586266811 0.09835367973594264
0.16544675257319424 -0.12121275421623284 0.09895099224709793
0.1664050270446911 -0.12065410450930167 0.09876010886163092
0.16613741799422982 -0.1202607755447926 0.09929778434357361
0.1668262769585239 -0.11982087622906594 0.09915252101597566
0.16646380266483504 -0.1193735833472023 0.09977072425236896
0.1671538588293319 -0.1190649682922848 0.09946309635747658
0.16775740208555706 -0.11822250024132654 0.09958099150267719
0.1680722209119518 -0.11719284018449778 0.10008199310518298
0.16920986746335193 -0.11642671151816886 0.09937829395792708
0.1688239964904133 -0.11637834158293385 0.09994199418474992
0.16958393453410955 -0.11560813697264352 0.09962860887570946
0.16926012235127996 -0.1152822454860924 0.10035470929338092
0.16991068696779163 -0.11484326336823712 0.09989455771747235
0.1704702102621765 -0.11394471911225311 0.09976483649215527
0.17069551938970223 -0.11326574924361796 0.10001659255365423
0.17044446981308486 -0.11309630447945838 0.10046097923652983
0.1702070951420716 -0.11378109399705522 0.10031768968997759
0.17105490647920754 -0.11249050154336118 0.09995699601375321
0.17091281879508857 -0.11199148582624556 0.10042081759401866
0.17125148681584848 -0.11089794185871334 0.10062010210281203
0.17174933211041168 -0.1098306749831573 0.10082106260300143
0.17240580682775047 -0.10870592351285187 0.10097541018824521
0.17322626177755282 -0.1075837074437011 0.10118966564590116
0.1740391576388562 -0.10649476500054925 0.10144883155559195
0.17479198634212334 -0.10534237224316867 0.10169804973641894
0.17552001773258022 -0.10427624468930499 0.10194343670109128
0.1758726189344551 -0.10369685369593196 0.1022576334519951
0.15054523260727012 -0.18065545251081863 0.10211325505840113
0.1511904618091481 -0.18034718271575445 0.10143552289387307
0.15050992250903114 -0.18011126433575483 0.10185686477267017
0.15083157630686556 -0.17966726053979512 0.1013452741908861
0.1507560117709789 -0.1790334084881291 0.1010342546511841
0.15047590235254846 -0.17908495682449202 0.10130167868520745
0.15006082097053472 -0.17840309610004468 0.1011879196310942
0.14950483805106438 -0.177289300680448 0.10060768104786452
0.1493820669707368 -0.17598133033856206 0.09954470108610436
0.1484195292644538 -0.17576928757953106 0.09998116239611235
0.148675275238614 -0.17501035298102394 0.09924961252468631
0.1475076010420142 -0.17435324974111568 0.09940758412303079
0.1477619224406932 -0.1739657194865631 0.0989366536223445
0.1477266110352819 -0.17349936682954967 0.09854256874227392
0.147062369008259 -0.17313115688520805 0.09871844570078991
0.14710063342752816 -0.1727555354004559 0.09835097444400591
0.14662918442565617 -0.1726121670922856 0.09855825553079463
0.14599556807050945 -0.17198002802808984 0.09824341375512365
0.1453257063916353 -0.17084143264990492 0.09761263185359913
0.1439231711058001 -0.16944986394785133 0.09733346590052161
0.14450443194689552 -0.168993399121335 0.09653855757540082
0.14347697081806216 -0.16853796892442038 0.09672962945843684
0.1436814915271322 -0.16824871813882825 0.0963306867884212
0.14306585918377715 -0.1674032425524184 0.09605246941071158
0.1432583594098274 -0.16693284102723938 0.09541230349854365
0.1425678390789683 -0.16662146290514523 0.09565568744537316
0.14250330259531413 -0.16634540189708122 0.0953054495292773
0.14179253942954453 -0.1655648676795617 0.09513432487136407
0.14206376187221553 -0.16501336784431686 0.09460384293534718
0.14127946084110848 -0.16472125988557906 0.09481314363424703
0.14126076916628294 -0.16440135790515523 0.0945233808519014
0.14056829134304846 -0.16358957508868874 0.09443357661721552
0.1410995013866009 -0.16308794648001596 0.09401212251079989
0.1401449864992438 -0.1627128679986035 0.09419208905082682
0.1404362756488357 -0.1625180274739279 0.09400057434559131
0.1399893249340114 -0.16190265267525147 0.09385565744326883
0.14036317335053228 -0.16150239508396785 0.09345149960150777
0.1395622474062852 -0.16128058925023328 0.0935864813998636
0.13963596848829027 -0.1610130103209459 0.09343964813947943
0.13907680220301602 -0.1603635412895751 0.09340271567121107
0.13971472013799952 -0.1599513746721715 0.09303833276232068
0.1387546392155969 -0.15964573022114112 0.09319508853447579
0.13911578026969934 -0.15946522969499047 0.09305001104730569
0.13892709879118714 -0.1589291187346875 0.09312237915783055
0.13985097739961075 -0.15848346186145032 0.09305171616301977
0.13900853429329524 -0.15833386069305805 0.09319726831285233
0.13941543083869923 -0.1580662702463832 0.0932058158427969
0.13934141097114205 -0.15755309987141045 0.09334672211690012
0.140552843491762 -0.15712508711597928 0.09327306639631647
0.13963291294565516 -0.1570580331781827 0.09339248280976609
0.14004025360045666 -0.15672840923251077 0.09345653608082036
0.14039984658086757 -0.15647306990535761 0.0934972944970797
0.13967454193561057 -0.1562485051265154 0.09370618647514534
0.140319674226242 -0.15613135387386556 0.09363957224102964
0.14051794574909332 -0.1557227355559684 0.09378219495187978
0.1419613203858451 -0.15534571647362355 0.09377225731758179
0.1410274473473574 -0.1552557066768574 0.09393353827937202
0.14151223827744897 -0.15487514913982606 0.0940013512725666
0.1419453049820286 -0.15458935324323825 0.09403219104656833
0.1412376714593504 -0.15429193893989349 0.09428900057191411
0.14189717619471334 -0.15420864331387366 0.09419414441525396
0.14209199709611603 -0.1537645620580676 0.0943663765201937
0.14333534290335692 -0.1533648014548517 0.09424871940471995
0.1425079433584183 -0.15315520007392952 0.09446907738683841
0.14314804323439964 -0.15293579615327657 0.09439892860349328
0.1433441656026257 -0.1524493565160882 0.09463439264709227
0.14455227219742203 -0.15204000832097123 0.09477184559936769
0.14379868899976436 -0.15190372477200825 0.09494321304978363
0.14432916476774954 -0.1516633776122526 0.09497213188179016
0.1444629714996652 -0.15114040623384195 0.09515885371954375
0.1457184616471003 -0.15070380175681378 0.09508688375998148
0.14497872222108688 -0.15052742723539497 0.0953365460824856
0.14563525235990024 -0.15028857605410337 0.09525957049749884
0.14598239368220217 -0.14973491074623418 0.09534164643518535
0.14583966450710772 -0.14897043311622496 0.09562060793562079
0.14713600800258717 -0.14860845841527237 0.09535201104827842
0.14650254007822203 -0.14845357602600923 0.09560140183355882
0.14726234735677227 -0.14808234662335573 0.09553912245035633
0.1465557237685453 -0.14771685256836944 0.09588004819518271
0.14741170429067005 -0.14759801920407575 0.09579211628111223
0.14779771791266466 -0.14719419422992297 0.09590434087939431
0.14864687449580555 -0.1466555829623376 0.09583876621565085
0.14811953299564656 -0.1467625075813436 0.09597509212501001
0.14835485351372485 -0.14628375219144596 0.09615286139494178
0.1490265980751044 -0.14568636654795894 0.09640587641251473
0.15075531657086771 -0.14523800015658772 0.09635517728563694
0.14997515792538157 -0.14508412527372955 0.09668776617163498
0.15077387607686438 -0.1448441477845207 0.09663008422920388
0.15120349598250707 -0.14431883649217836 0.0967542498910015
0.15260983035565637 -0.14353070904470383 0.09658786232543319
0.1517473185028877 -0.14353456550626428 0.09695974823298195
0.1527486113898017 -0.14291293979441846 0.09678593559374762
0.15202301233196092 -0.14261308780616402 0.09721206673483593
0.15309782861142957 -0.14217501263272508 0.09687405176600429
0.1526274115527295 -0.14188813262629446 0.09716011164373163
0.15341176397900408 -0.14143825755340028 0.09684835289017146
0.15283118949268878 -0.14108811887169723 0.09717751064968722
0.15321056760447171 -0.14006876005118982 0.09715054614549756
0.15382180306702137 -0.13926903800986182 0.09694207581575803
0.15406850141427553 -0.1386362198720916 0.09704472186762499
0.1544315623438754 -0.13786387480211137 0.0971934190247766
0.1547866289740022 -0.13724165315459674 0.09737036568374598
0.1561960477325566 -0.13638203084930708 0.09684995768282885
0.15548072010608183 -0.13649272144751845 0.09736377153280847
0.15649258361999943 -0.1357396697369772 0.09710264323998931
0.15594329930101178 -0.13562152901162133 0.09769728993467228
0.15687694806073438 -0.13492258160231413 0.09738813554006555
0.15639122250639123 -0.13473666816028038 0.09803819662194625
0.1572452368717864 -0.1342548159784977 0.09765483663669583
0.15791785479342285 -0.13346246874388623 0.09759885189950492
0.1584085048039274 -0.13249603739341256 0.09785147606946211
0.1588965080799705 -0.1314965121464843 0.09800582389872672
0.15947921228082332 -0.13039983225094845 0.09809337448588701
0.1600410568727356 -0.129252216576754 0.09820646538544871
0.16049465573601446 -0.1281665831460282 0.0983332808068142
0.16097014953295616 -0.1271079714662027 0.09846254631765437
0.16141662535522822 -0.12609437075368746 0.09860124009856358
0.16187547058684698 -0.12513058278526654 0.0987852168919964
0.16233430158367657 -0.12422559819371363 0.09902764855997803
0.16267651791695828 -0.12341426497841275 0.09931542658652107
0.1640045103319485 -0.1225795038306035 0.09887560650333425
0.1633861557613019 -0.12240458688247198 0.0995252139874972
0.16445196095272788 -0.12178368048290167 0.0992389189536525
0.16419122913435816 -0.12126459081687929 0.09986703652515312
0.16488111976512365 -0.12099286490151974 0.09956757420610136
0.1655135727759466 -0.12019174710854875 0.09975772179121604
0.16586100335090462 -0.11917624474740324 0.10033579770814091
0.16705838741686402 -0.11859971392780237 0.09988501493492857
0.16661132151615707 -0.1184536975380569 0.10035072880598347
0.16731885678776667 -0.11783699236210438 0.10022297371320212
0.16691846388566167 -0.11739445352662585 0.10084655820660178
0.1676153884959885 -0.1170462443409956 0.10055080474002936
0.168279392967703 -0.11621317143796145 0.10058748047206875
0.16869053406297135 -0.11523184778012634 0.10090701850710329
0.16987388329273675 -0.11441780872803445 0.1002895566696939
0.1695317640918248 -0.11404142098403064 0.10088995123679576
0.17016826711143324 -0.1128159994767677 0.10090032002914019
0.17040870405878908 -0.11192460329688533 0.10111725807832397
0.1707316397782569 -0.11087273206590792 0.10142655749898759
0.1714218793762583 -0.10964069541518846 0.10152675755626574
0.17216898495204216 -0.10852417041112604 0.10170737569968694
0.17293446386856406 -0.10743060896293667 0.10194517779573257
0.1737546018803561 -0.10630529880939485 0.10223734571861971
0.17454738147202953 -0.10508573150940807 0.10255517538072957
0.17540038360538923 -0.10406912090620411 0.1026014768415043
0.17566314324798452 -0.10351757887567616 0.10305517154301694
0.1758428867923992 -0.10314229431030762 0.10325726890193063
0.1756067713278191 -0.10328649299891446 0.10346759986729163
0.15008086087437114 -0.18071530048152773 0.10253681375600857
0.15003162809608 -0.18032326124206288 0.10240633696961675
0.15018860063511807 -0.17924113193680968 0.10161071232535253
0.14984693811872113 -0.17956759215926588 0.10207974664670676
0.1492240219014207 -0.17841642573058036 0.10184765119570238
0.14918100756324854 -0.1775853691124953 0.10116228900472912
0.14841949518302625 -0.17720208612840108 0.10131777225673527
0.14840885196380724 -0.17665046503611542 0.10072757386045335
0.14785180431118042 -0.1764983012112913 0.10094642886194956
0.1473238693951128 -0.17568722419231203 0.10058770721289963
0.14691893660817537 -0.17457371061103444 0.09989856758931157
0.146963746561292 -0.17349321132218934 0.09903882656973219
0.14623857844115523 -0.17338231915426433 0.09929860967712291
0.14619934719619113 -0.1726783076937695 0.09877634436219203
0.14553606459909002 -0.17251253648121825 0.09896920465141419
0.1448629094714513 -0.171682837165479 0.09858844148900596
0.14484937660530514 -0.17106834799614684 0.09803688758068532
0.144035120214423 -0.1706128475394176 0.09812133708959515
0.1440975440444546 -0.17017053868842083 0.09777542357774592
0.143576636760992 -0.16999535357975912 0.09792043794283536
0.14309486428780274 -0.16936061129685023 0.09770067912493371
0.14242103040264703 -0.16831282782372142 0.09716933318807595
0.1428161747358501 -0.16765646506751833 0.096355900599943
0.1419080661194386 -0.16727913081695042 0.09654977192788697
0.14219579010390948 -0.1669879546950465 0.09624991014857358
0.14191732138378432 -0.16645258432650406 0.09599246243403009
0.14179878926069522 -0.16591169740838918 0.09543744665666903
0.14153802409582716 -0.16593244389652367 0.09570117660617775
0.14077135060854784 -0.1651873893201751 0.09548119203910718
0.1405253355305569 -0.164518451607442 0.09515945664077963
0.140525471545236 -0.1639725134342918 0.09466441093899713
0.14021230020686884 -0.16399101074715594 0.09490566162788487
0.1395167356680324 -0.16324247519121762 0.09477975966931974
0.13903668559656107 -0.16243268285500329 0.0945285868276323
0.13964784196285085 -0.16204546272246598 0.09405345853290237
0.13868184112389972 -0.1616639586860293 0.09419710281295945
0.13904939469774621 -0.16151992681495947 0.09396304341928656
0.138813658908438 -0.16112583119127374 0.09376491658231234
0.13891542615050664 -0.160688350895411 0.09353369929703291
0.13853315213308695 -0.1607247748121728 0.09360675040948968
0.13796511024648814 -0.1601154088600919 0.09359324861302988
0.13763622816248686 -0.15942682615777293 0.09352235053420178
0.13842563442552736 -0.15908066823469788 0.0932025056209482
0.13765793851597094 -0.1588143162354477 0.09348010473449533
0.13809857922438362 -0.15865213352183558 0.0933602233369045
0.13806776243226754 -0.158247596710953 0.09341954175551268
0.1388548625748509 -0.1578183814240894 0.093336175509264
0.13822512018944413 -0.15779359120212977 0.09347754308855566
0.13844880262670037 -0.15744388364599524 0.09348778777274246
0.13844152245961946 -0.15691103489175393 0.0936323351317149
0.1391472906372364 -0.15656690415634042 0.09361502895033189
0.13876063065955513 -0.1561067054276809 0.09384539948932102
0.1398703758945491 -0.1558865456174118 0.0937971742442699
0.13916911378633637 -0.15579494212956838 0.09395572737987092
0.13966070481748952 -0.15554844978783372 0.09396891968346574
0.1398669513388867 -0.1549978159246756 0.09422566715239941
0.14067135477402717 -0.15467269976571657 0.09427367200856157
0.14038128011481402 -0.15413285017585854 0.09453111402058595
0.14148488574311643 -0.15390170790335753 0.09440344850997154
0.14080340402627317 -0.15369875073159736 0.0946201312688019
0.14136082590770713 -0.15355714186844405 0.09460748040669073
0.1414793837919525 -0.15308933596814261 0.09479369315321703
0.14265174553493515 -0.15262180619698032 0.09460550276393782
0.1418998477649106 -0.1524407895080156 0.09489032674447052
0.14253864741007946 -0.15223197202835864 0.09482041782409203
0.14275727588216047 -0.15180878217041158 0.09503464636459341
0.14390059382896217 -0.15140895150171324 0.09518355116042279
0.1431916718174667 -0.15130287918841423 0.09528049551550227
0.14371489460318776 -0.15102047991697332 0.0953347610747097
0.14382839337638956 -0.15047071874683257 0.09551805528094962
0.14523926943756724 -0.14995633826210247 0.09547736034679181
0.14446996631910283 -0.1498413447965927 0.09564103962624164
0.14513786437204762 -0.14939353083102813 0.09562870717370762
0.14433782896890407 -0.14903451326810344 0.09592188391818976
0.1451092200438186 -0.14881481475316405 0.09580415349847837
0.14558990673495542 -0.14825558060324762 0.09589220716762793
0.145622824509252 -0.14747618682095473 0.09611189067125384
0.14716255495058045 -0.14723653425657018 0.09603344035089978
0.1464773813063545 -0.14700697545245286 0.09615587788855588
0.1474634161655109 -0.1466760383191836 0.09618388778942345
0.14661453059337015 -0.14625568073864537 0.09645479739630375
0.14761561325189074 -0.14609431857910452 0.09639603078303488
0.14814607529817425 -0.14585545634814398 0.09641064776350997
0.1477570821593052 -0.145792823794207 0.09653234186203392
0.14802950501277826 -0.14547137437960875 0.09667356516450926
0.14882781807306505 -0.14501837374241167 0.09683761362196174
0.15042923327129964 -0.14452144920047286 0.09693033348198554
0.1495256590219576 -0.14436197436912027 0.09712355826664619
0.15060605384036352 -0.1439207511032526 0.09717726258293992
0.14973584441572266 -0.1434686384987173 0.09751513076099108
0.15094051577255624 -0.14315101552696619 0.09740835577609024
0.15045780760244157 -0.14267527957981385 0.09764790783561873
0.1512662554370346 -0.1425337752631837 0.09753683700160783
0.15187245073521888 -0.14194587252837362 0.09748557705083835
0.1519196152569618 -0.14134943955812931 0.09753500531483869
0.15132399339324898 -0.14118543449118837 0.09766578510299805
0.15132511770225446 -0.14173009625592645 0.09766785058416508
0.15224204598354676 -0.14070821641537645 0.09746878106495074
0.15162485223680192 -0.14039199453828224 0.09771355988511174
0.15249428874538576 -0.14006880825655282 0.09745853791854373
0.15311122942574928 -0.1393656373005247 0.09734497430696777
0.15348145297971555 -0.13852411497312467 0.09751427476990154
0.1539060591920104 -0.1376984031156853 0.09772455603105892
0.15462837232305876 -0.13697103539529068 0.09773343609044634
0.15496705671967387 -0.13632051929824046 0.09797219780501605
0.1554067927965948 -0.13552867511658945 0.09830566131651326
0.15576227825313055 -0.13485061642460333 0.0985652871594783
0.1571178736010703 -0.13394335057762966 0.09804648109578616
0.15649257159008367 -0.13403393752431486 0.09856561912546229
0.15746582097495865 -0.1332198458592308 0.09823765578119724
0.1569838888794655 -0.13306904519882934 0.09882464660597068
0.15794057159118882 -0.13227933723843038 0.0984360657214343
0.15749892693712159 -0.13210937216937876 0.09900895148096707
0.15843795486039886 -0.13128009240804184 0.09858095085048035
0.1579606126082073 -0.13112251075149844 0.09914268562104427
0.15895008891572637 -0.13022639453272303 0.09869632249176734
0.15844440122177383 -0.1300968804265104 0.09926747132688832
0.1594541065146768 -0.1291391635669189 0.09879463781520938
0.15891345853768177 -0.12901188307338385 0.09935528975886473
0.15994144937087085 -0.12805385705002667 0.0988976120242665
0.15943238995714118 -0.12790398775010267 0.09947078874931191
0.1604685112083756 -0.1269636410251285 0.09901372566009149
0.16000488977585664 -0.1267636794818499 0.09956745321336696
0.16096128186502395 -0.12591352284405863 0.09914554047555449
0.1605581684187283 -0.1256692010137441 0.09968041487128942
0.16147981007660892 -0.12490316426885373 0.09932498527408071
0.16106062326015252 -0.12466264670135886 0.09984828556402048
0.1619233971107415 -0.12397229333685693 0.09955193762848961
0.1615153113456243 -0.12369993625242237 0.100065345715994
0.1623982224524915 -0.12307341848448974 0.09982523190941384
0.1619700714225694 -0.12275935792432228 0.10036631775089982
0.16273037792147999 -0.12232361201627644 0.10012829561796688
0.16330754605735986 -0.12144184718303282 0.10035696334376938
0.1647751720395084 -0.12055131625912062 0.10001230388367202
0.1642465000953132 -0.12047456688662282 0.10045513163882748
0.16504702726123935 -0.11981018996389231 0.10038314622574679
0.16457948131755748 -0.11943060321983402 0.10097461138155639
0.16536374746984484 -0.11903560939277022 0.10075658515135018
0.16601484409978903 -0.11823821601711525 0.10091730783332681
0.16635789670400694 -0.11727666873127955 0.10132123878259335
0.16756471089672376 -0.116543584512972 0.10095485222259454
0.16706377262694078 -0.11627688358747572 0.10150983550205953
0.1679685199907059 -0.11574607716527378 0.10120039515336232
0.16777197380780373 -0.11528075551643267 0.10168058046060924
0.16848619604993154 -0.11477649854799624 0.10139869509559155
0.16817728785855807 -0.11429182470167427 0.10198119994279907
0.16894311693429345 -0.11390480831198706 0.10158504481543794
0.16956554684418892 -0.11295120562136222 0.1015001864402618
0.16991907496737454 -0.11189693618408467 0.10175161760212621
0.17009936985010207 -0.1112181702040444 0.10199332446337378
0.1697783676443318 -0.11104539018802757 0.1024039643995719
0.16957089828234548 -0.11173913157702056 0.10220134333097887
0.17053882887389088 -0.11040546090573032 0.10203456224774599
0.17025977672039888 -0.1100993780040115 0.10258485998335706
0.17117746648533314 -0.10935636668474544 0.10217971489452209
0.1708726466195715 -0.1090675349571724 0.10280121940660598
0.17190890454737082 -0.10828764590008494 0.10241263184788867
0.17160719357523016 -0.10799457674260574 0.1030811067695994
0.1726553469293826 -0.10720303056945771 0.10268614763288547
0.17237465377468741 -0.10690095896046306 0.10339837312060936
0.17347994282031542 -0.106105519507561 0.10300757941160751
0.17330176662945967 -0.10568963998949228 0.10375263092878073
0.1740601000421674 -0.10522354136830142 0.10323711418256103
0.174868738459402 -0.10430152074572255 0.10318530349560143
0.17527512088403477 -0.10365293591205564 0.10349918006903541
0.17497882109868582 -0.10361663135351144 0.10400606278384163
0.17470712935661614 -0.10411612235972223 0.10371148110019539
0.17492750593674425 -0.1033820823525915 0.10435657357017908
0.14956216742513112 -0.1803089912076498 0.10277787201179883
0.14883545408538043 -0.17988657927756443 0.10318909077637609
0.1492221916605268 -0.1795486448707014 0.10261298073470487
0.14868244919910822 -0.17942013425511327 0.10304813242216454
0.14825491143453023 -0.17847329769601605 0.10266866984677205
0.1482683749229573 -0.1775624162235231 0.10189435781885048
0.14756186644059383 -0.17720736642366192 0.10208325919631751
0.14751530764817924 -0.1765735694210601 0.10135622506790187
0.14704768726625284 -0.17647674556377818 0.10168311779546323
0.14632897487007052 -0.17550437370980354 0.10116394745443605
0.14637712056530242 -0.1746945864536274 0.10039470183086915
0.14547495145678455 -0.17415025836497774 0.10046265356126649
0.1457738590622118 -0.1737158997068735 0.09985862912805596
0.14467588631297704 -0.17304269210908807 0.09985297787538687
0.14494140075155953 -0.17252075805353745 0.09927602810731018
0.144149910038791 -0.17227086525201146 0.09944573295316726
0.14364334128113082 -0.17141976384896804 0.09901545438478979
0.14371712592105235 -0.17079026622920346 0.09843420049724379
0.14294375116647684 -0.1703177028793591 0.09851412331095225
0.1431679400956346 -0.16998821673730144 0.09810247961888365
0.14263421416148733 -0.16975584399536203 0.098270696779408
0.14224384639502102 -0.16917686726968312 0.09796148889317062
0.1421619773277632 -0.16867998774804294 0.09756050129647555
0.14178659744022143 -0.16858676748018883 0.09766468545357193
0.1413606503090438 -0.16798916264557462 0.09744822596056653
0.14106153723126444 -0.16713180842372777 0.09697318115127025
0.14137828487909232 -0.16646029161053172 0.09620675357482922
0.14027780239820634 -0.16602575687970356 0.09639713944687608
0.1406651393595152 -0.1656435807451419 0.09588559020943235
