# .PCD v.7 - Point Cloud Data file format
VERSION .7
FIELDS x y z
SIZE 4 4 4
TYPE f f f
COUNT 1 1 1
WIDTH 790
HEIGHT 1
VIEWPOINT 0 0 0 1 0 0 0
POINTS 790
DATA ascii
0.0584816613921064 -0.11797801979384605 0.09096523078204452
0.058367747629034426 -0.1171878618775123 0.09123088700333824
0.058326196976337535 -0.11667725243422633 0.09154001556182892
0.06472081383856376 -0.1478897752266558 0.09104948604926459
0.06465622127284186 -0.14744994258711344 0.09083256160145596
0.06462402323600171 -0.1466226471128844 0.09079122237646749
0.06466313585365217 -0.14589173033124228 0.09108105421875173
0.06471192420815355 -0.14500878237110823 0.09131923625235995
0.06474796399721612 -0.1440860583701925 0.09153183607302418
0.06475970198678538 -0.14314014794408675 0.09169755047864711
0.06459360796608818 -0.14237305871016706 0.09094198982765007
0.06452856451508639 -0.14151050197853526 0.09110671773390214
0.06444295694722066 -0.1406680816456823 0.09126398335243777
0.06435296056243478 -0.13967527365637925 0.0915953312760367
0.0641717698377951 -0.13876520675334245 0.0915920122465359
0.06387357413840192 -0.1380542230855973 0.09115500804790541
0.06370404941513778 -0.13734017046977665 0.09124130687784046
0.06317259898860786 -0.13599818138505182 0.09086230070577095
0.06349509579872298 -0.1366579638403715 0.09127868924123192
0.06328390129914782 -0.13578155982401016 0.09158734045976144
0.0629154451848554 -0.13518270141365063 0.09085767888183412
0.06271094831786692 -0.1342952922952772 0.09119027604618705
0.06252625156744634 -0.13350344805063452 0.09145322585809541
0.062361054519519454 -0.1327152059387918 0.0917494770310618
0.062072309376238234 -0.13191938036988038 0.09105728682707567
0.06193720857377118 -0.13107129040854074 0.09129484597258473
0.061815581367395636 -0.13022237302459028 0.09148778754630509
0.061701879056094394 -0.1293877947713678 0.09164036177901116
0.06157677460236357 -0.12852457502835068 0.09171235091758202
0.06142229607863811 -0.12760104141571024 0.09179962848098382
0.06125828236647214 -0.12667169289491192 0.091976341330734
0.06092786644402156 -0.12584191929369234 0.091167104988878
0.060744443692104556 -0.124936700675983 0.09144565816206196
0.06055810986040412 -0.12408292359617655 0.09175802225089796
0.060425307968294734 -0.12339756234825394 0.09211786456435224
0.05968188184456952 -0.12158155874098828 0.0914220743361668
0.06011899781240326 -0.12241171754131215 0.09211466018784535
0.0597949149369205 -0.1214279897815356 0.09206551074980934
0.05933913764207879 -0.12057016306278884 0.09134518678242042
0.05898892887396672 -0.11951782603197594 0.09127725847915666
0.05887684550202605 -0.11878034650247064 0.09159669863569381
0.05872401560047794 -0.11789721435179543 0.09185759456958593
0.05858849222214091 -0.11706457812343835 0.0920846133329453
0.05851309399090882 -0.11638564564409035 0.09245320141532826
0.05848063696261356 -0.11582979691453155 0.09295186836487769
0.06473350321331059 -0.14752526824582937 0.09134692352784107
0.06472355095473598 -0.14669232558527898 0.09159592112097376
0.06476974831500554 -0.1457741042873965 0.09204558328920794
0.06481850623635951 -0.14490144289167323 0.09227309916162403
0.06488125772897428 -0.14391851973090505 0.0925969912720059
0.06486682530480026 -0.14296367999057064 0.09249276439904495
0.06474310615535062 -0.14216085489274077 0.09192329260638657
0.06464036345274062 -0.14127287992111262 0.09181423366912556
0.06462172883410684 -0.14054645560401818 0.09214953533403927
0.06459968265209702 -0.13979299669746284 0.09247824818682251
0.06414698950829333 -0.1381786458843685 0.09197107585075018
0.06444990434592639 -0.1388401713884546 0.09250796619610599
0.06426836946181953 -0.13793368138406217 0.09258069496861561
0.06392602555344154 -0.13730192586367537 0.09206033106207503
0.0636268132539745 -0.13627932923620475 0.09222180160441101
0.06338974566369772 -0.13557822370546918 0.092301943676253
0.06307007449286776 -0.13492955025097716 0.09194378526991438
0.06280282332000034 -0.13412439877441468 0.09197647334679741
0.06267225173482842 -0.13348226790159723 0.09236344004550646
0.06249936836910788 -0.132674594395176 0.09270812322768639
0.062203606292640955 -0.1318831997146769 0.09201797758707089
0.062065745213206125 -0.13102892095858282 0.09223901005052755
0.06193996260851818 -0.13016752216368374 0.09240680031474002
0.061821491959227697 -0.12929668866672606 0.09253153689667251
0.06169568019762824 -0.1284060675052702 0.0926418791250605
0.06155183548519041 -0.12749480492980667 0.09278769173354705
0.06139398938870897 -0.1265860377744036 0.0929718344364827
0.06108488161272713 -0.12576919566573785 0.09219373005562423
0.06090666961776589 -0.12490097179001432 0.0924376680223551
0.06073773246617154 -0.12408803913406764 0.09269533181600978
0.06055787253086258 -0.12329197271014755 0.09290639587197345
0.06041094157061656 -0.12260204082710714 0.09315594139074325
0.05971451363929721 -0.12083570358048647 0.09239981579345
0.060115928913125304 -0.12168083086741066 0.09301097125686884
0.05987987989298877 -0.1206327956377416 0.09325419200576066
0.0593896170636124 -0.11981829680870248 0.09227166004238219
0.059174670049843656 -0.11874848499065245 0.09257653841869361
0.058991159302083845 -0.11780754290078908 0.09277604038933088
0.0588364867068011 -0.11694106083169085 0.09297754217227748
0.058668483288006126 -0.11614911364489562 0.09323791567668036
0.058531015599914624 -0.11548098777722567 0.09358581970525393
0.058454153838669164 -0.11494621952030566 0.09399461844223163
0.06485282185919573 -0.14615697759910348 0.09289682949389978
0.06485652640404838 -0.14555471747546916 0.09288691319555238
0.06491567968970031 -0.14488629765108751 0.09319488563632058
0.06496836880656033 -0.1442043325387194 0.0935021089259082
0.06488738763862112 -0.1423856759149195 0.09279157147310052
0.06497644884613724 -0.14319259707311677 0.09348713739763438
0.06495998114296826 -0.14215183330081732 0.09339892506681038
0.06481996316457461 -0.14146602141008804 0.09269138830269667
0.06482101635090921 -0.14040330423915465 0.09313748783653414
0.06471412537957708 -0.13950696608329477 0.09307665451494575
0.0647067259896792 -0.13891585655401584 0.09341178127628466
0.06422554357174681 -0.13738264681750612 0.0929450003286209
0.06453212527974415 -0.13799375812641096 0.09347177169758013
0.06431982480922056 -0.13714085293179423 0.093555441214951
0.06399417152204068 -0.13659522202780794 0.09309989836050472
0.06332198162210005 -0.13512766578935467 0.09272771853795145
0.06362496896496238 -0.13573288809009249 0.09298157514809477
0.06346645631646167 -0.13500406353118696 0.09351694013317145
0.06305357555079473 -0.13433974302798163 0.09284671210750721
0.06283471959477908 -0.1334454837170376 0.09334158467326623
0.0626274892631484 -0.13259190473964938 0.09369280355169654
0.06233018773637559 -0.13182847765202732 0.09298012238801258
0.06217886446186139 -0.13096108159833067 0.0931812206256075
0.062048729019664 -0.13008901366908998 0.09332129171054596
0.06192833154181758 -0.12921274010321374 0.09344609666531854
0.06180826131312019 -0.12832082487237728 0.09358900065518728
0.06167293889647134 -0.12740809905473544 0.09376405755249238
0.06152015241083799 -0.1264853976944178 0.09396049146571998
0.061221847348787294 -0.1256912754723513 0.09318196267860389
0.06105006341096631 -0.12482637767395081 0.09339335942785854
0.06087705293231097 -0.12400088449460016 0.0935912036285523
0.06070383811005917 -0.12320528042317297 0.0937835106294595
0.0605077230452591 -0.12236473246125773 0.0939368571415966
0.060294717413883175 -0.12140812314374419 0.09409806608094998
0.06007220001388636 -0.12039135876102773 0.09425758218375413
0.05964692781262636 -0.11959863864373513 0.09340223207041852
0.05942192257292113 -0.11859678666318056 0.09352980506213657
0.05923045739632371 -0.11769547915300645 0.09366053611205083
0.059052940154925314 -0.11683286479592983 0.0938576457781785
0.0588169816593908 -0.1159795732851629 0.09405823699302093
0.05860548172014011 -0.11522057673941313 0.09427637606114674
0.05850268358490042 -0.1147445644426653 0.09454758728418651
0.06495360906135149 -0.14622232909010957 0.0937579883423776
0.06501094859187805 -0.14611128924422803 0.09423356683525222
0.06497295170553126 -0.14569129401661304 0.09386704312526553
0.06499936458833738 -0.14482638857136199 0.09394864742839895
0.06503615184744752 -0.14413225303158034 0.09425183539010785
0.0650923822019992 -0.14337023391378173 0.09451346912893804
0.06498733012465747 -0.14136094727426743 0.09370237495974355
0.06509189555895285 -0.14235414513742284 0.09435282447279197
0.06501403255017289 -0.1405731692172841 0.0940303274765328
0.06514710716248534 -0.1412522949083833 0.09465760278407566
0.06513951457646214 -0.1402640714675612 0.09478641923119546
0.06491825845839404 -0.13964090176159205 0.0939214517576355
0.06484443073743144 -0.13867575489687742 0.09414829151578906
0.06476490442691027 -0.13797230699171556 0.09437205858078378
0.0642305722009515 -0.13659352744567138 0.09394720865970996
0.06454602389216764 -0.1372035215321106 0.0943579756433245
0.06433697324990757 -0.1362902309088395 0.09475618381801099
0.06391690470924066 -0.13577984000749793 0.09400031191116147
0.06364070219743051 -0.13482103527547523 0.09454955909450848
0.06321813068133866 -0.13416057066099393 0.09395739872201146
0.06297317651141504 -0.1332955059593711 0.09438088661583452
0.06274261751089011 -0.1324320825236964 0.09468324797437758
0.06244345690294808 -0.13172222463549213 0.09395279819191973
0.062282835005630685 -0.13084217694091768 0.09409583533045719
0.06215470916973602 -0.12999012341307284 0.09420037686240704
0.062044207449558554 -0.129135626789928 0.09435455254392623
0.06193198526349289 -0.12823671576701795 0.09453841042939591
0.06180062040378167 -0.12729446043271395 0.0947590345433182
0.061644840055634816 -0.1263299195509614 0.09495388257357808
0.06135477067728491 -0.1255658741670611 0.09416761068811602
0.06117213649466431 -0.12468190550835657 0.09431517544061398
0.06099383334548821 -0.1238626390126723 0.09445802169669856
0.06083379551019602 -0.1230527967955112 0.09465316199597179
0.06066205713097215 -0.12217192062648134 0.0948764632993528
0.060482566823559555 -0.12114274927878976 0.09519219256259646
0.06021206750129823 -0.12016564797868101 0.09507683281481047
0.05986048658286837 -0.1193420442538017 0.09445261095588653
0.05956907762356941 -0.11838145561247233 0.09427842670781719
0.05943674467749461 -0.1176358112602211 0.09453925602171268
0.05920451411404297 -0.11670394771962037 0.09476214115662245
0.0589117282898608 -0.11579095960073238 0.0948986305473145
0.058678233652438204 -0.11503011678249858 0.09502690649017251
0.05856795251864094 -0.11459768078975827 0.09525972832672513
0.06508076811258715 -0.14574930937902655 0.09474821924850439
0.06524348403389542 -0.1455033834980512 0.09579277855036182
0.06509892350924439 -0.14503256347829283 0.09483802609401772
0.06514916373783433 -0.14405860089984776 0.09516089646537935
0.06519795664045894 -0.14309215021054048 0.0952900842124656
0.06524479397205833 -0.14207289935102613 0.0954242905556407
0.06531896764465141 -0.1409594249969499 0.09567884894721482
0.06528043301750912 -0.13998525438864032 0.0955257378158834
0.06510489981236828 -0.13923818596708873 0.09495471301314291
0.06496285860321248 -0.1383906013135129 0.09484397159024632
0.06487314164934879 -0.1376973080479557 0.09509886754387531
0.06470673771239493 -0.1368294011378064 0.09537835664219275
0.06449821638974583 -0.1359571762506938 0.09574361216882467
0.06408305190655814 -0.13541082196389925 0.09516343209034894
0.06380444646394443 -0.13453848318560963 0.09560862418683748
0.0633704583366285 -0.13394243229608593 0.09502659322773832
0.06310198623637786 -0.1330237084318065 0.09549080867640075
0.06283327826301895 -0.13223618334092008 0.09549199461234884
0.06255731147652989 -0.1315118900067868 0.09497931636572027
0.0623592249870233 -0.13063429001271015 0.09484731994300963
0.062274164891747856 -0.1299147125756993 0.09506095233224543
0.062169715834778906 -0.12904932531011346 0.0952456180151154
0.06206748387636977 -0.12813458758903584 0.09550287453941032
0.061946269883211946 -0.12709303602352529 0.0958523935614195
0.06174888990307132 -0.126136520081701 0.09578461623727616
0.06147594614316521 -0.12533422057942895 0.09521859668899647
0.061249340647798176 -0.1244444686074621 0.09508293762578598
0.06113096806882021 -0.12373974575482945 0.09532395206612705
0.060979635243001616 -0.12291347995241352 0.09552560307172522
0.06083419270408879 -0.12207962747864978 0.09579431246162232
0.06073323325857819 -0.12135987337788809 0.0961083760208143
0.060127672838274145 -0.11956341339319297 0.095354374780459
0.06048064263612369 -0.12033683033559082 0.09605498736086428
0.06019744589723737 -0.1192977585920814 0.095932051511576
0.05984932757831835 -0.11861729181801 0.09518289741948356
0.05962399863419426 -0.11756893967871716 0.09548928091944518
0.059303744462488345 -0.11648004256382964 0.0957798147088967
0.05894512305869736 -0.11554491467344813 0.09559415957172028
0.05875243623338417 -0.1149249825153923 0.09574714942038147
0.05863035720597853 -0.11456461372228306 0.09578159527769947
0.0654437890510516 -0.14578180420823836 0.09668808066541337
0.06542134016517791 -0.1453673635884768 0.09674683066942891
0.06525561149213537 -0.14477252003692354 0.09593584798571676
0.06529038404231409 -0.14380923109133797 0.09606484595069516
0.06533075996842241 -0.14285268923263547 0.0961786166388567
0.06541178272478346 -0.14191108241421413 0.09636237498539739
0.06550103454997841 -0.14111329699124195 0.09658909687355433
0.06530802223682748 -0.13936803938686607 0.09582794686320446
0.06546927770649939 -0.14014800730810106 0.09641373946107365
0.06545938585472912 -0.13907733130805122 0.09656810850889193
0.06517173430688425 -0.13845003694460337 0.09571074728070288
0.06504793759427804 -0.13742818612806573 0.09599789515281913
0.06490323266629312 -0.13646906202502826 0.09637924890447512
0.06466108244457876 -0.13570024791914265 0.09649871828310286
0.06430269963582584 -0.13503940561556374 0.09634923276721277
0.06392892582628097 -0.13423646220631186 0.09645200269461456
0.06353232644492565 -0.13366164588341786 0.0961078203626575
0.06329034607508754 -0.13302196736519156 0.0962586819333844
0.06276452252519404 -0.1316971560573284 0.09583732429417875
0.06307559747522334 -0.13230443589139784 0.09638123446532847
0.0628489502870416 -0.13146177709108955 0.09642394526528189
0.06256797569090128 -0.13076203727521873 0.0958123735183297
0.062387230135892424 -0.1297602289934912 0.09580564583172957
0.062333141353496525 -0.12897647635414383 0.09615573161777237
0.06223013903803723 -0.1280390017615662 0.0964456158208739
0.06215423309784339 -0.12729510400298583 0.09674488937117272
0.061685337826813784 -0.12554257044775333 0.09613004062146244
0.06196553246646171 -0.12630200250486906 0.09677463606261753
0.06175718812859602 -0.1253105832238172 0.09677134728693146
0.06146256230197974 -0.12454660688182027 0.09610292681816217
0.06123835599854901 -0.1235496435554288 0.09608994541512234
0.06113213994432738 -0.12282265851240774 0.09637728282503423
0.06099709013103204 -0.12200964897911057 0.0966171777826284
0.060849019706415076 -0.12118450006000453 0.09682000598716813
0.06071861721987783 -0.12043639447061895 0.097018838366211
0.06002715768349452 -0.11846706353918769 0.09618376228942839
0.060441088547887864 -0.11946585810874524 0.09684606821284504
0.05976913878058479 -0.11746760079825659 0.09647287898368909
0.060190326132991454 -0.11835606167514683 0.09715294354607566
0.05952004544138367 -0.11665880635749246 0.09671482996365814
0.0598834731623116 -0.11732183159181467 0.09745600342227252
0.059538770779498894 -0.1164584418123894 0.09725635250673151
0.0591602136557728 -0.11578028348931915 0.09643862362114
0.05880260016533063 -0.11490237525997671 0.09610926771039373
0.06571128374062524 -0.14577079394198092 0.09764937159636425
0.06561538104197696 -0.14514346274407622 0.09750339703161932
0.06545545581794684 -0.14444282960821733 0.09694255937128743
0.0654285971891482 -0.1435017124258428 0.09679774418775322
0.06551630010146325 -0.142692345807536 0.09704948760078023
0.06561264450434423 -0.14174536173603852 0.09719613422047828
0.06566650178527654 -0.1408187480429561 0.09726536729450479
0.06572889307776911 -0.13974760143304735 0.0974373499597545
0.06564062248824452 -0.13876112623086176 0.09729345331876389
0.06539090975732313 -0.13803016811013422 0.09675434429795723
0.06521275585641204 -0.13714940981342555 0.09673573739610195
0.06521070979367714 -0.13657079775957798 0.09712787649617799
0.06463243563058026 -0.13534047947880667 0.09682437668458022
0.06497509928671978 -0.13567737102079133 0.09726508790222385
0.06380726254982227 -0.13370056101105177 0.09686821406434301
0.06424358197853729 -0.13412140901082578 0.09733233121806761
0.06461435912335 -0.13491026746202955 0.09723805151748664
0.06388330925250002 -0.13339001605804865 0.09744082072899063
0.06350451784650192 -0.1329437078030593 0.0969953498001521
0.06328335697128443 -0.13224006993719167 0.09714791495464159
0.06279374316136993 -0.13087482762849031 0.09671954412719969
0.06309590177563221 -0.13146639698483942 0.09726764924049548
0.06289049018483135 -0.1305456570726725 0.097309558946834
0.06261472337808692 -0.12994602728649135 0.09668391394771743
0.06253011791991854 -0.1287678080115534 0.0972000448675097
0.062353216198601805 -0.1278310050977378 0.09719339419190812
0.062273156283696694 -0.12710848727612412 0.09744704784490021
0.06218183639237591 -0.12638585438545175 0.09770348843709652
0.06168972010560063 -0.12468009396631116 0.09709185718248037
0.06198072803357929 -0.12540255955642923 0.09773373373675305
0.061764973069167665 -0.12440538341225892 0.0977322163219675
0.06146770397201101 -0.12366686850938625 0.0970709873371788
0.061248946660273175 -0.12265554564939696 0.09710544912318056
0.06115346484443931 -0.12190329914485457 0.09743077412763611
0.06099345925035375 -0.12101923914673375 0.09761596598381593
0.060800758184051465 -0.12013708112523358 0.09769374949289349
0.060575993204462365 -0.1191933008309621 0.09784601762301023
0.06032377688567545 -0.11824050628454238 0.09807867967933523
0.060097123380710056 -0.11754913135754808 0.09828960908848608
0.05945390051058384 -0.1161926935165449 0.09733427132591133
0.05979597419110911 -0.11686421937391105 0.09794144612300372
0.06606052361613866 -0.14623280931910157 0.0984169776512892
0.06595886942805096 -0.14591810066634964 0.09831901264859462
0.06568068042536111 -0.14455679804895294 0.09777464160258367
0.06593128695005525 -0.14516770504182425 0.09836129102399073
0.06585353306289896 -0.1442076895455549 0.0983005430553519
0.0656459828682679 -0.14362073085142416 0.09765743903384816
0.06579605458254788 -0.14244550948814874 0.0979846939128798
0.06580650174881929 -0.14146493179102596 0.09783967796935318
0.06590292283177644 -0.14069316652216296 0.09805040978003088
0.06600429771568717 -0.13990867253690822 0.09827128958099139
0.06566436427393402 -0.13813613411201045 0.09754743813663726
0.06595527793913096 -0.13883139786504398 0.0981683452809741
0.06583727826511131 -0.1377997300638757 0.0980662282330034
0.06551740022000747 -0.13727056586542316 0.09747713857270508
0.06546080040705975 -0.13629441101372097 0.09785099610900647
0.06540241740083388 -0.13535568010479282 0.098308841383525
0.06462079515924918 -0.1344439623111951 0.09773116957302368
0.06495242805262778 -0.13477530013662176 0.09799922149424187
0.0637686283729059 -0.13285140539457702 0.09778161663322714
0.0641563859428318 -0.13318274590253848 0.09821234928626324
0.06470172656086176 -0.133922145916429 0.09839879861351632
0.06385642695569753 -0.13250005521198985 0.09833392786314762
0.06350631465341519 -0.13208581220587973 0.09788850993268286
0.06331433490790017 -0.13134487555006677 0.09802491069312662
0.0628347148216418 -0.12970672438126887 0.09768321866711713
0.06314962499259497 -0.1305630446196342 0.09810887591541864
0.06277871188971179 -0.1288578183707594 0.09807187620730683
0.06306734882948188 -0.1293915467734383 0.09864819950408292
0.0628829660657466 -0.12847683477990715 0.0986815976228641
0.06258273039055452 -0.1278390801497648 0.09810259083525937
0.06239123514646312 -0.12688070451691075 0.09814179283069607
0.06229866661499404 -0.1261504136281169 0.09839916489689741
0.06220097884109095 -0.12542338289794167 0.09865514982885303
0.06169413578269852 -0.12376654499341716 0.0980294484400248
0.06198864761800401 -0.12445283577117797 0.09866931531922699
0.06176454785382646 -0.12343910633285105 0.09864728120198323
0.06147637109149617 -0.12282257307739612 0.09796169404851368
0.06132022369118548 -0.12167874467886634 0.09838985375512178
0.06108268866534251 -0.12073349800876547 0.09827500208476674
0.06093064724932323 -0.11995251214739573 0.098523352552611
0.060698949477361284 -0.11900616629479285 0.09874991311024954
0.06043523582423751 -0.11814341247730532 0.09887734375143611
0.060181378872290255 -0.11753843606428221 0.09874975566592623
0.06639522316762504 -0.14649981125825856 0.09902028880493244
0.06676288628494283 -0.14673380379353443 0.09961563933532142
0.0665823320624993 -0.1463620644739227 0.09941846758104862
0.0662584607310782 -0.14595568510839574 0.09891985117152104
0.06637338108975 -0.14504976861407476 0.09933035529083582
0.06596088497875627 -0.14336551208410978 0.09856120387590728
0.06616588975692589 -0.14418174401486056 0.09900809868417754
0.06609022371013219 -0.14253291377117125 0.09880228627017026
0.06636248267410856 -0.14307852154059197 0.09943008522403045
0.06633031484868535 -0.14210962570926555 0.09928552233202564
0.06607323087361078 -0.14159121022451504 0.0986121260531081
0.06619424312292395 -0.14057971164458355 0.09878632989455213
0.06626012851683125 -0.13965201237444733 0.09887476443302909
0.0663306656055585 -0.13882507391882132 0.09900140759035087
0.06585301717706286 -0.13695256262895378 0.09833049998845744
0.0662232969233921 -0.13781658951663264 0.09884260601372624
0.06584040492581553 -0.13595678707345188 0.09868147175646397
0.0662699920232714 -0.13660507308204548 0.09913909290285834
0.06577651002170093 -0.13514684114896797 0.09901359868808211
0.0662886924198842 -0.13544408068777072 0.09955429358667058
0.06592668753450873 -0.1347249540526546 0.09947867073567003
0.06542576097790875 -0.1343212061370472 0.09913840657010359
0.06499287822747933 -0.13350849861030983 0.09931100769843912
0.0645718893119441 -0.13304044817950958 0.09912179954331353
0.06377653330650454 -0.1319432041048576 0.09867103289099838
0.06413501049368059 -0.13229956491278916 0.09907807180302583
0.06388436344664003 -0.13157635808053292 0.09922719674137342
0.06354855140036908 -0.13112962824565186 0.09877710987929847
0.06334591855088068 -0.1301591464872705 0.09893942478158205
0.06334702554582718 -0.1294402754755299 0.09942300862375407
0.06283566190058852 -0.12781228212925186 0.09899725190030027
0.06314702180093144 -0.12840271481486282 0.09955188792460223
0.06293706785574811 -0.12744611117715932 0.0995917771016474
0.0626241927842483 -0.12684053503612286 0.09902607558852904
0.06241558776391123 -0.1258918462705247 0.09908279941990951
0.06231117209799873 -0.12516368737047145 0.09933520199046958
0.062204396534061776 -0.12443700939647064 0.09957978805107305
0.06165841426839303 -0.12259993011298548 0.09897099718800949
0.0619903760353037 -0.12351453012834959 0.0995306063742391
0.06154676572949731 -0.12178023065523234 0.09926260035029898
0.06183191352664667 -0.12234197214040474 0.09995009127170007
0.06159791824878484 -0.1214120779670409 0.0998231968280596
0.061294321699342354 -0.12085052522077987 0.0991181456376451
0.061071208582539685 -0.11979980737550318 0.09942500186806134
0.06081365629175117 -0.11881075802398446 0.09969303935955297
0.06053021458659571 -0.11811718366662742 0.09945981860380874
0.06737714657314375 -0.14741249726226785 0.1004341326486016
0.06751425567345934 -0.1473568652156692 0.1007376554741869
0.06724271262961017 -0.14699781014070648 0.10036588543350182
0.06663663343401262 -0.14571388459420898 0.09970740918363509
0.06693004336004443 -0.14631624156138393 0.10005129519107651
0.06669765344065277 -0.14496043640321807 0.09999944735065058
0.0670379916533781 -0.1453297625294754 0.10051243590584442
0.06691660474730184 -0.14449341851563693 0.10043512901881009
0.0666022079987977 -0.14409742278222773 0.09988545139465632
0.06676110450452562 -0.14312796444790823 0.10018114879898259
0.066423947758218 -0.14126841469898652 0.09937828607497884
0.06673833563473436 -0.14201670121231613 0.10008067781791288
0.06650696929315247 -0.1403257602491035 0.09944601317741003
0.06672005601822552 -0.14094031969867843 0.09993844006872211
0.0665902260082227 -0.1394031927377997 0.09953406041790114
0.06684870412448687 -0.14009695362329577 0.10008508286478235
0.06665403223593462 -0.13840381450538547 0.09958748444494815
0.06696551569036979 -0.1391021481195247 0.10017706379693592
0.06669146624689594 -0.1372982215657178 0.09967185417859792
0.06711917938957906 -0.13799559708503703 0.10033486201248103
0.06671980188313321 -0.13621486920606446 0.09986747942606818
0.06712847966810295 -0.13681409618609988 0.1003629506931809
0.06673211851476156 -0.13556889219482468 0.10004461446425832
0.06714321663041001 -0.13570713539420284 0.10057321001697518
0.06586361851531684 -0.13433818683765988 0.09967365439420273
0.06627122609239522 -0.1344628898537248 0.10011299388823815
0.06672183873348592 -0.1350410364296828 0.10028509277669849
0.06490532333286465 -0.13295844630014658 0.09977284030191116
0.06540180310338438 -0.13328539377569995 0.10015933568861536
0.06582830166016121 -0.13392045311649353 0.10003012026289287
0.06500866922649826 -0.13263786207718317 0.10031598371854307
0.06460161782358967 -0.13229896267209854 0.0999669729766616
0.06383209327640822 -0.13099354697295906 0.0995799414114825
0.0641733902494792 -0.13141455799349003 0.09997991845774977
0.06395430846249853 -0.13058598037828717 0.10018039745831694
0.06363492781032995 -0.13016980131837977 0.09968943819939899
0.0635410811504192 -0.1290074725249506 0.1002476888997022
0.06336956300913428 -0.12821005625631665 0.10032970194483319
0.06287552149226427 -0.12678485071781892 0.0999050583443913
0.0631905014880997 -0.1273598308790125 0.10043842236709857
0.06296434506303096 -0.1264182383497922 0.10049142560027607
0.06264478380404509 -0.12583868498754852 0.09993570647054392
0.06242374104302923 -0.1248981049459177 0.09999712456586833
0.06231966111442821 -0.12412109067345276 0.10028410647131542
0.06215644123026847 -0.12317395112748832 0.10050861442268812
0.06204499403101132 -0.12240382011739397 0.10076734088889325
0.061443091180045054 -0.12059093328841947 0.10006855916532965
0.061811423825106356 -0.12148569216169401 0.10067759106535264
0.061217012113088554 -0.11963007490100475 0.10034425440522399
0.06159788312061864 -0.12039598688573727 0.10098362127632304
0.06102318545161203 -0.11894328772241117 0.1005567075903873
0.0613378721650123 -0.11942729200543759 0.10129009574561426
0.06106978005734324 -0.1188221455931048 0.10107249887010111
0.060810307008062496 -0.11850708756210847 0.10025272818922841
0.06801776779802646 -0.14773089517150462 0.10164392268907385
0.06754249154067195 -0.14699372023576096 0.10094834819392337
0.06789272540962944 -0.14728427858446774 0.10153011840037218
0.06771299116705953 -0.1466024691965035 0.10141980568706596
0.06737883366012706 -0.14621477108133377 0.10090065602744835
0.06751754700453655 -0.14510455403999462 0.10135297687901179
0.06700866813881591 -0.1436857517067348 0.1006221267160712
0.06727217602471271 -0.14432638481630683 0.10103762143710865
0.06708930034139693 -0.1427193233526331 0.1007705258877374
0.06738229856925847 -0.14332526729376197 0.10129770809717999
0.06716081230436981 -0.14187178571030154 0.10085655165068588
0.06747299997851007 -0.14226869163235592 0.10146054813212751
0.06739604481705314 -0.14139270246471322 0.10125793582101687
0.06708840673010329 -0.14095669522414642 0.10062363389729718
0.06722637293207162 -0.13984336466306493 0.10072987465160298
0.06735030972692127 -0.1388775241978012 0.10079382013192903
0.06749395301989759 -0.1381762651366157 0.10093470317248035
0.06750029024723879 -0.13738665628389085 0.10090030800855133
0.06779969312026864 -0.13799268044644167 0.10143185161106869
0.06752232289701716 -0.13642790279386258 0.10095644263948841
0.06787269807445834 -0.13702613293955557 0.10149068086637231
0.06753235458701476 -0.13582933689051147 0.1010378721717192
0.06785051191458927 -0.13599571657908643 0.1015193154415678
0.06669815065365504 -0.1345527463574625 0.10054395351406119
0.06712219917579088 -0.1347092124304011 0.10102311685608707
0.06752891821421578 -0.13533924813877843 0.10120787077848725
0.06583994057540674 -0.13347775339811144 0.10051587535504672
0.06617290530888029 -0.1337454016592422 0.10065416472848979
0.06663177877758421 -0.1341332759418608 0.10083811145872512
0.06489251270302883 -0.13214514211189213 0.10069448031721269
0.0653042123019331 -0.1324743970097615 0.10099007259933815
0.06596843192431955 -0.13302588497087317 0.10125049885604841
0.06502338474593938 -0.13173635789413232 0.10140079001022156
0.06460156904623258 -0.13152000856338739 0.10078963308586533
0.06388399261692054 -0.12977181882736324 0.10062250012575889
0.06427096953729507 -0.13051287430081596 0.10099684062871407
0.06380448853595228 -0.12895104062841353 0.10101943212930982
0.064109147911929 -0.12934389420166958 0.1015691006828796
0.06389273009094001 -0.12855238484695108 0.10157386711005148
0.06358608969620207 -0.12805279645526205 0.10106446226949825
0.06340594393905999 -0.12722128687667972 0.1011780958622934
0.06289030767523439 -0.12577498130264186 0.1007862227231292
0.06321671292845424 -0.12633142842371334 0.1013317911481207
0.06296103050367002 -0.125369860538692 0.10134414457031994
0.06265512315513257 -0.12490627894882295 0.10076460745420351
0.06249197073583116 -0.12376380081664813 0.10121914914850987
0.06226456801685145 -0.12287993556306785 0.10119320161697244
0.06215057423525282 -0.12211616937523123 0.10143018748336313
0.06195640180658542 -0.12113212602070988 0.1016437630412974
0.06172131306627701 -0.12016964162906829 0.10185877543695337
0.06151932156422327 -0.11949882882279698 0.10210642352097996
0.06131539398254355 -0.11901943613060788 0.10205641152553263
0.06817261078598681 -0.14763809305748093 0.10198938154050809
0.06827735472651346 -0.14712245571492005 0.10235163845091183
0.06777785174623005 -0.14578963529010677 0.1017146877334841
0.06804298177722155 -0.14644485127326864 0.10207129247917263
0.0678608724158229 -0.14493099860165182 0.10199717660965969
0.0681696030758554 -0.1453286328234211 0.1025263813507002
0.06805825238333064 -0.14445383146168028 0.10244328042328801
0.06774504626589001 -0.1439824321821242 0.10190654378739795
0.06768775447329256 -0.14296530583941983 0.10187649629712929
0.06780544641716629 -0.1422889189817428 0.1021113854100729
0.06749125039311041 -0.14053273120003915 0.10132528927482344
0.06775496131486544 -0.14134673119431213 0.10194159504522471
0.06760337504989747 -0.13950337338007723 0.10134145441110828
0.06788012059014618 -0.14016500100608553 0.10198456766063715
0.06765788592546719 -0.13868740229730278 0.10127713634377951
0.06798745426100267 -0.13895210342888145 0.1019249445849628
0.06822358911673021 -0.1378146092814682 0.10214509721730271
0.068251875577231 -0.13667524293625546 0.10211416565157454
0.06824633360104258 -0.13573534223628955 0.10222300325589793
0.06754360888038734 -0.13486846036797986 0.10145690941152487
0.06784979588646142 -0.13516669925152716 0.10178437699408742
0.06649265736957873 -0.13358346134843074 0.10124504030750857
0.06698796091353014 -0.13391617314104903 0.10154973337509222
0.06758442398126298 -0.1344241644481069 0.10189788768352276
0.06628274255196287 -0.1325276299964645 0.10236320195154941
0.06561825741218887 -0.13198330137198672 0.10211492877818279
0.06668854244605651 -0.1332122518046729 0.10197618761470738
0.06511002087153499 -0.13127690525405344 0.10212250751328139
0.06472226570763097 -0.13093659719103642 0.10166927881394462
0.06450189766047776 -0.12992851883843537 0.10213582932933023
0.0643038430737788 -0.12919279971341363 0.102261396404758
0.06382971235794167 -0.12795414749667847 0.10185045169011586
0.06412538864426928 -0.12843613640218937 0.10235552483212047
0.06391266126492941 -0.12757429643316195 0.10239241798534925
0.06361664958392173 -0.12714556970889002 0.10185514275219983
0.0635064827040233 -0.12609653861052111 0.10238793506926104
0.06284600335094395 -0.12455637638667966 0.1016848582907754
0.06317632384325637 -0.12527647485616608 0.10208809594008839
0.06273443377185856 -0.12377765761670526 0.10201327809483661
0.06304834581902391 -0.12425108641200833 0.10257990680188515
0.06279464611823597 -0.1233988516402001 0.1025477405498007
0.062485655741519194 -0.1229173295208388 0.10194732061190197
0.062303014198512634 -0.12186105861838385 0.10227784150781177
0.06207514806240136 -0.12077894635102182 0.10259799060460847
0.061770435343360686 -0.11991162684250357 0.10252833721705218
0.06156771426848556 -0.11929057733206143 0.102773422901205
0.061416138164372185 -0.11882184618209995 0.10298125687511071
0.06849153496313339 -0.14740387330260152 0.10270870227382574
0.06858764727112925 -0.14697991492808288 0.1030138504102747
0.06889383391484771 -0.14703198206714038 0.10358400004611434
0.0688086924101553 -0.1465350727096588 0.10352614342911823
0.0684729626025715 -0.14622787139725563 0.10294446656375673
0.06858455483683767 -0.14515019262980952 0.10336867782991388
0.06810395100102115 -0.1437959377470478 0.1026268395390214
0.06837684337404444 -0.14424466426162105 0.10311379896957419
0.06830170151047715 -0.14336567901028732 0.10308596280974439
0.06801446698935655 -0.14297392841294002 0.10252400824923019
0.0680938337386626 -0.14191760179165872 0.10266399568792405
0.06817135195238104 -0.14087024252346886 0.10267192090722849
0.06828452260726128 -0.13978636650355095 0.1026555382605082
0.06841895596994546 -0.13877917389547265 0.10266033862658178
0.06857768208021797 -0.13807434034407043 0.10277693971163214
0.06859670934222181 -0.13728557470061936 0.10270140643523441
0.06888553234855334 -0.13790845533739424 0.10325949380408297
0.06861826626111546 -0.13633603840189792 0.10272721850837035
0.06896573279733527 -0.13696409619562172 0.10328269726356552
0.06856948106808408 -0.1355556883779444 0.10278733380305051
0.06898373313831557 -0.13589777096527444 0.1033731400600399
0.06869379435472604 -0.1350599789699714 0.10317260783026959
0.06820852222167884 -0.1348559167336594 0.10253758566477386
0.06790343182640148 -0.1340757414249872 0.10266265776124271
0.06734908793076752 -0.1336085625458737 0.10238490594235547
0.06604967576690196 -0.13207531005343146 0.1026871001455429
0.06640115039299817 -0.13215584830398777 0.10303816503776453
0.06704683827899226 -0.13272231714155822 0.10306905686355367
0.06491576488565852 -0.1305566464062116 0.1025324803994634
0.06538134761098532 -0.13108055073978783 0.10286228197950582
0.06598299120015864 -0.1315970961421206 0.10318748027863943
0.06475911696017844 -0.12984210090410878 0.10291700042217249
0.06514176566852237 -0.13016262637337442 0.10343705716634796
0.0648224827396233 -0.12945030577807143 0.10346200403706479
0.06449980528708407 -0.1290204010537595 0.10297356858525435
0.06431694827193161 -0.12827084749496134 0.10306879844630217
0.06382507763039624 -0.12679267821226037 0.1027568872912057
0.06414506565085111 -0.12753072989876602 0.103134021000443
0.06372139619225026 -0.125987477768104 0.10311980873336729
0.06401442040165861 -0.12642005306047072 0.10362831324588523
0.06378729680795467 -0.1255775718323272 0.10365297382318607
0.06345720745486887 -0.12506554276714218 0.10311546875293962
0.06325155970170462 -0.12422958928683214 0.10322243847759388
0.06265221345943647 -0.12260231087618542 0.10283089936944845
0.06303392928458813 -0.12344328092555075 0.10329045825373723
0.06245631658776564 -0.12161414495630893 0.10315250597909083
0.06282196945811938 -0.12235685839787068 0.1036969282540406
0.06226131230869505 -0.12080477810687978 0.10341614853832812
0.06255392896502077 -0.12126333490843465 0.10407354038019255
0.06222590528432407 -0.12041694397612167 0.10393850260895006
0.06194049480810563 -0.11997020237464157 0.10330021249547078
0.0616627091211466 -0.11914402926363533 0.10356987745125575
0.0614496736825923 -0.11871896347974066 0.10336507283115408
0.06934862474432407 -0.14704624079256 0.10441897459359196
0.06885495358832412 -0.14575950869266366 0.10376638315865189
0.06923797991439748 -0.14631178659392496 0.10435520825764323
0.068873922486703 -0.14499515844399627 0.10397234841211822
0.06914759010013123 -0.14521799423042972 0.10444814776091409
0.06903379817932535 -0.144512087990831 0.10439169145613088
0.06875736407255541 -0.1443242702564256 0.10386675233885974
0.06837982551090743 -0.1425279615509658 0.10327380753696398
0.0686561772641554 -0.14330591405069965 0.10381077262481393
0.06846119381502723 -0.14150514767632574 0.10335022026936039
0.06879114483473436 -0.14209826067231582 0.10408902448648101
0.06857045371179443 -0.14049168447023594 0.10335864183294124
0.06879478735874356 -0.14112241802058703 0.10394057465564589
0.06869275706938567 -0.13945299590932736 0.10331082560349703
0.06905069701879521 -0.14019311346812632 0.10415047483157315
0.06873940129388532 -0.13860936485200673 0.10316713901982455
0.06911628001893541 -0.1388270696692765 0.10384693892540471
0.06928396228777414 -0.1376958998249466 0.10385466897537371
0.06936659818873231 -0.1366879252224193 0.1038805504758774
0.06941410031671802 -0.13584480292217044 0.10399849521394988
0.06846268331538327 -0.13417974621888804 0.10335487144618168
0.06914652129231448 -0.13490679921336696 0.10389233239478453
0.06783082678057044 -0.13344235971512622 0.10318579869929484
0.06833050627938722 -0.13339805253309978 0.10379049460711223
0.0690011601989257 -0.13366553751436372 0.10431447177941944
0.06728937707069198 -0.1322887775425916 0.10386239788890818
0.06673890740566352 -0.13182235644073784 0.10382329321906011
0.06783610438891642 -0.13276941021239191 0.10386183848964133
0.06845755129148479 -0.13299449971218577 0.10424755340988831
0.06618821727400917 -0.13117714711050626 0.10396990530723407
0.06568270248629371 -0.13078502831674862 0.10371981820688127
0.06554273391779768 -0.13000949747096954 0.10430270301654557
0.06473048188381407 -0.12887661069220113 0.10374570338940663
0.0650812166738741 -0.12925188942238547 0.10418140832350195
0.064821364009776 -0.12851391365539794 0.10425919033176405
0.06450913588393085 -0.1280630512924124 0.10379143196122384
0.06429883608127603 -0.1271283411201637 0.10390725088107865
0.06427227303710921 -0.126456062715797 0.10433355626442284
0.06369328860995079 -0.12496209308961079 0.10390725942686427
0.06403177556622117 -0.12545747878785332 0.1044463229115891
0.06374141193376195 -0.12455344837741116 0.10441383316431967
0.06342784757748147 -0.1241584559535762 0.10385144783934501
0.06320165309652702 -0.12310212782248046 0.10421337362800613
0.0629665268632126 -0.12209483190338537 0.10459469697846874
0.06276029332273791 -0.12117453936254764 0.10500930062155941
0.06203093750407315 -0.11972900696820654 0.1041856327056176
0.06238369807996401 -0.12040265401970897 0.10464679561330302
0.061927584205443253 -0.11925892509836505 0.10445093647239592
0.062224958841375536 -0.11965234344097186 0.10497936249762857
0.062016195296076486 -0.11921569363481453 0.1048072826005208
0.0696504257589542 -0.14722268856491727 0.10491173807810762
0.06966057274962016 -0.14681006905485108 0.10499624260299317
0.06997186942987554 -0.14698215414461566 0.10546304720524126
0.06968347159725807 -0.14612014492157877 0.10515174596158784
0.07010090653111592 -0.1462982498570105 0.10580710814694062
0.06986943064469545 -0.14559459770684066 0.10559906948184367
0.06952940361711318 -0.14539352089927268 0.10506811215313079
0.06901612253571891 -0.14375601579571692 0.10450236750459874
0.06940358144090686 -0.14426945195117977 0.10513083107751443
0.06903227095079116 -0.1428306712350028 0.10462935077496373
0.06928472732425406 -0.1433004435516662 0.10509386343293521
0.06912797746511955 -0.14208133634502715 0.10480108748671846
0.0693978656813231 -0.14243493779077224 0.10533019562075224
0.06934841219548325 -0.14173000964680374 0.10516232577721912
0.06914201132313365 -0.14130840861945854 0.10466285955479965
0.06955290135541081 -0.1406074332843445 0.10514144081596775
0.06953962564644697 -0.139478295205309 0.10470075889651201
0.06990066834865111 -0.139827839794705 0.10538897459974295
0.06962312625578115 -0.13839377196618 0.10450067852034663
0.06997932268012941 -0.13896428597479552 0.10518332012400763
0.06971850043591638 -0.13735624050409617 0.10443433579241969
0.07007520938379071 -0.13797619990742324 0.1050433381012815
0.06977294997356874 -0.13636195122704853 0.10444661800198239
0.07014969893212096 -0.13695943689510817 0.10498857040174589
0.06973082853591994 -0.13537887269144672 0.10449732980514118
0.0701781088345296 -0.13592361554158008 0.10501013833470203
0.06962479995289812 -0.13437784606942568 0.10464983915198622
0.07014291974494083 -0.13488137945748988 0.10511306548300518
0.06955518329976307 -0.13371732486158977 0.10483159062914146
0.07005735290123451 -0.13375999824511323 0.10535840243869114
0.06723042065004817 -0.131961107736524 0.10416907228323527
0.06764418655840877 -0.13214686161416508 0.10432250075543834
0.06823116868708702 -0.1324341313156356 0.1045119292567205
0.06883552120749135 -0.132732993287858 0.10476260730188763
0.06945495400740448 -0.1330949897515843 0.10507227689044882
0.06605302826107572 -0.13054162904496597 0.10446841122776374
0.06663522189408687 -0.13103395434732507 0.10456111270818777
0.06730192350346004 -0.13155453362581984 0.10460525357356233
0.0680106330587507 -0.13183704082275743 0.10485520688780312
0.06857015616082389 -0.13212870885046316 0.1049976390875183
0.06592186928884498 -0.12992412292643987 0.10489988257565025
0.06655000022588213 -0.13017516634068452 0.10524511953489582
0.06606562505857123 -0.12952940609251337 0.10537068146488744
0.06557513322933632 -0.12923961262581843 0.10501293256050169
0.064766704775749 -0.12793549807225346 0.10455383881178731
0.06512191098228312 -0.12835478347770923 0.10494843082132735
0.0648985996981532 -0.12753024193975906 0.10508824548638608
0.06456640481122694 -0.12714158970549874 0.10460754804603237
0.06444728039477941 -0.12610836987642224 0.10503198731462628
0.06431367238836912 -0.12514233829167132 0.10543314086931077
0.06358382233425801 -0.12375273110749604 0.10470655768979187
0.06395167002644885 -0.12442801396441508 0.10510125256348883
0.06335364218576238 -0.12279670462534394 0.10508270761315557
0.06377275424224656 -0.12346120984615669 0.10554468401014597
0.06312337586898249 -0.12186307102477593 0.10543357795289177
0.06352148535467286 -0.12247252758330758 0.10592975135830249
0.06294128245643299 -0.12110730312325295 0.10568989335798794
0.06326331444184086 -0.12147051948415619 0.10625044352063526
0.06295270817117089 -0.12071725996308942 0.10615714242359875
0.06264169986620557 -0.120360469209921 0.10555544334830187
0.06255964810246785 -0.11979447097150109 0.10588296351673795
0.07041022121452802 -0.14673280643368228 0.10620354199636634
0.0707062457628756 -0.14674647329768778 0.10668870497113364
0.07043900314085931 -0.1464017021314745 0.10632295047144784
0.07066174262284775 -0.14641136914351072 0.10670775761580333
0.06983833115182313 -0.14479515574534532 0.10576726918513953
0.0701876892625887 -0.14530590858620904 0.10622390853969654
0.07048765021386524 -0.1458694635447287 0.10655789209611087
0.06981996573647394 -0.14399200381772 0.10594176360949918
0.07022754927655989 -0.1442366829395914 0.10662710739235816
0.06999786205384004 -0.14347302294789904 0.1063566474592613
0.06965083944455812 -0.14321979631926568 0.10576933367531087
0.06973859279820019 -0.1423665061098405 0.10595456237278614
0.06942513113153242 -0.1412975660547819 0.10519233592740623
0.0697082458665685 -0.14153206863037152 0.10571061782001626
0.07014691361564789 -0.1405526708207267 0.10606087083942978
0.07029052908941354 -0.1394791903270527 0.10583117729234007
0.07055477175325571 -0.13984005606577674 0.10639053672188803
0.07041450670615144 -0.13854517641856123 0.10567299806521888
0.0707014330955498 -0.13907039046311173 0.10629634192506723
0.07051609119513473 -0.13755350962583504 0.10557556133503565
0.0708384665464874 -0.13813886748337664 0.1061976365560144
0.07057705708518444 -0.13651592336675064 0.10555251658699547
0.07093673330117937 -0.13712246464164127 0.10614081221991456
0.070595833835869 -0.13544232822151014 0.10560774299185995
0.0709935877135243 -0.13604720478378476 0.10615661077062036
0.07054593640936306 -0.13442892865745357 0.10570739959207492
0.07101835670156541 -0.134876020730329 0.10628886651287668
0.07050407018298084 -0.13380537963740327 0.1058146968539111
0.0708253493146736 -0.13386525879277922 0.10623239419214779
0.06920098130487946 -0.13211021265853537 0.10547153268627231
0.06995162828253561 -0.13263821443397647 0.1057964144510186
0.07049548877329474 -0.1331987330059703 0.10607382758912366
0.06714325065680546 -0.13081587339434605 0.10514955987180268
0.06781054294373437 -0.13117785212052377 0.10525981828672248
0.06851120174133626 -0.131536707676761 0.1053988872145703
0.06906406364680066 -0.13119726771714615 0.10596799122917888
0.06987914101247812 -0.13147009288957576 0.10640030756442971
0.06709544785037382 -0.13035469644139522 0.10549939778781663
0.06757872036961105 -0.1305095396171133 0.10564824225629763
0.0683528174897611 -0.13074691454268406 0.10586672052179816
0.06892778522527869 -0.13057470509736058 0.10628762897730197
0.06939923700496059 -0.13073618284176763 0.10648162983158921
0.06592717875636013 -0.12901090944138718 0.10562227582189034
0.06652693521473524 -0.12918236073145867 0.10596865346348022
0.06718685340665055 -0.12985457814003626 0.10590602853369534
0.06795779572413421 -0.13002897715758813 0.10617270469336977
0.06857704407671993 -0.13017307120852015 0.10637586760480384
0.06603693487203381 -0.12856336536010968 0.10602030525242395
0.06560272007539855 -0.1284311266981409 0.10563113444862401
0.06482890228290429 -0.12670538289474645 0.10546513318780572
0.06528725746642934 -0.12744719994553355 0.10578693449299054
0.06468790632631982 -0.12572401272362757 0.10583583703950926
0.06516574732789895 -0.12623223522989138 0.10634720792523873
0.06453487460880848 -0.12494785847386965 0.10609864463584837
0.06486921352419811 -0.12519786223870694 0.10655299887083142
0.0646041959632876 -0.12448573662546636 0.10657122504011149
0.06422811578393697 -0.1241893767456154 0.10600588932498563
0.06397015601869323 -0.12312944753788461 0.10639141820776193
0.0637133179740479 -0.1220954991262048 0.10679128067172634
0.06344483830060486 -0.12138428365484868 0.10683792488171827
0.06281496371841162 -0.12011336659423168 0.10634280944040626
0.06320147198631901 -0.12074952769128423 0.10680261020251466
0.06274415562438318 -0.11975464524497176 0.10644369998870987
0.06301954966843763 -0.12011803840144772 0.10684846607755294
0.0708183085114956 -0.14641353569612497 0.10698069997653963
0.07054828998867244 -0.14499125486778397 0.10696975875351246
0.07080275549670885 -0.14559871707118494 0.10722608556382182
0.07056750783425249 -0.1443721464569309 0.10722982506400314
0.07088135986122948 -0.14447930113252974 0.1077438037086255
0.07000742850866584 -0.14274115662276432 0.10641875847113018
0.07030481575300186 -0.14321409389212605 0.10692298425538493
0.07059691653989711 -0.14375767038330933 0.1074102652832931
0.07004112062394575 -0.141931078882076 0.10638377000695867
0.07035816555006405 -0.1423048650559061 0.10697606164942502
0.07007406381784342 -0.14133549444275734 0.10626399526271076
0.07040629506823072 -0.14133668409074404 0.10680644412798847
0.07065415843972679 -0.14043969822574986 0.1068561065371116
0.07091471898828142 -0.1396244664854141 0.10689726315467267
0.0710401175612114 -0.14028311276973315 0.10750891712739757
0.07110113013264135 -0.13872806791268052 0.10684159305518495
0.07127671552719014 -0.13936365437794035 0.10750955069425694
0.07123851663541543 -0.13774418737086416 0.10677542112766385
0.07145602291510397 -0.13838713602766642 0.10746061316132373
0.07132621151665577 -0.13669873351162876 0.10675513591485555
0.07158422248565344 -0.13736068102003685 0.10741803694548129
0.07137503312031195 -0.1356309473578902 0.10681271195521228
0.07165448033684872 -0.1362965631166955 0.10743388472051989
