# .PCD v.7 - Point Cloud Data file format
VERSION .7
FIELDS x y z
SIZE 4 4 4
TYPE f f f
COUNT 1 1 1
WIDTH 787
HEIGHT 1
VIEWPOINT 0 0 0 1 0 0 0
POINTS 787
DATA ascii
0.05649785696176375 -0.1311234973261484 0.09295496983322647
0.05627429198896859 -0.1304013109209829 0.09331737255204164
0.056053981473690555 -0.129668957789203 0.0925786114105622
0.055861212971063265 -0.12888226679583842 0.09281515566330523
0.05571431196080387 -0.12808314558919212 0.0929707897157957
0.05559066789128728 -0.12722283564092526 0.0930931688749066
0.05548820028204606 -0.12637125483321798 0.09318866157897555
0.05533811553454388 -0.125423567105362 0.09325804685934114
0.05518385123304321 -0.12457245620979256 0.09335273346707951
0.05497933542489556 -0.12371574863214327 0.09251845161021326
0.05485536328065949 -0.1229124158650091 0.09271658031015238
0.05473514546842097 -0.12208653354890982 0.09300104035680976
0.05461710923603337 -0.12132507535020391 0.09321377558604155
0.05449326720534768 -0.12062012334134847 0.09343644854567705
0.0541844446189424 -0.11889156439798339 0.09253759970824366
0.05434750407031518 -0.1197379431169293 0.09323106256729505
0.05420956599150607 -0.11869295176248255 0.09340711706963009
0.05407484950604064 -0.11794234406206042 0.09233534906567406
0.05400967985057981 -0.11687455286593329 0.0925917694649116
0.053943918599585694 -0.11590480939114157 0.09280231935279533
0.05389100018052414 -0.11503060384912617 0.09303167813751567
0.05383225426428341 -0.11423052081143384 0.09325249593995993
0.0537660814904579 -0.11354757935704889 0.09356127013574433
0.05373433422292416 -0.113047619831643 0.09392850114485012
0.060035639276839595 -0.1430648439587992 0.09351732268789233
0.05987224478589527 -0.14251542138810308 0.09352545674286004
0.059781514585829025 -0.1418715490345875 0.09383151279197949
0.059663395775949826 -0.14122481860754982 0.09414481825723307
0.059196560629564104 -0.13958667454186624 0.09345925021602007
0.05945678238784645 -0.14035287047848868 0.09415438642776662
0.05922851957124341 -0.1394120207712544 0.0940566970438888
0.059026138630375743 -0.1387519209360378 0.09335350877998827
0.058883313460738676 -0.13779331803945144 0.09379878751656774
0.05870756469262576 -0.13692296286861277 0.09379854124776084
0.05859885186082646 -0.13632515522174563 0.0941448773021704
0.05803962261768093 -0.13482826256646221 0.09382200773441629
0.058341430600307165 -0.13542933241689695 0.09429513680305328
0.058036702501246325 -0.13461693436134484 0.0944107731264927
0.05773967889274925 -0.1341085517395394 0.0939537854887288
0.05713301642809494 -0.13270053217815572 0.0934666421013271
0.057411658071217765 -0.13329979468302622 0.09380169286122234
0.05717831981941204 -0.1325945742127743 0.0943239643736845
0.05682678649795767 -0.13195509420809667 0.09353485303874975
0.056552791523998114 -0.13114777950273532 0.09401071683698442
0.05633378787817638 -0.13036226603568063 0.09432364045112893
0.05608280827176143 -0.12966143229237012 0.0935752289249232
0.05588557746837514 -0.12883271303711827 0.09373564693434079
0.055737102758360524 -0.12798396124702613 0.0938668218873322
0.0556224871235207 -0.12711769606295517 0.09395763068430099
0.05552047582109525 -0.12629030907819258 0.09407985187409026
0.05539705109420644 -0.12541084579153547 0.09421088288756636
0.05524816169776801 -0.12447310788833008 0.09438315255586302
0.05502567005718916 -0.12366296470666151 0.09349932983754299
0.054877095228083664 -0.12278265239820924 0.09371861217980025
0.05473801345672837 -0.12197431061128004 0.0939090295028526
0.054639167255270696 -0.12122248171897322 0.09407918027060953
0.054509273784923915 -0.12037835609420235 0.09420930202254708
0.05438648483676854 -0.11944514207492324 0.09436361020620511
0.054275198250462384 -0.11846040854106851 0.09448672039528427
0.05412015519672544 -0.11772244976303915 0.09352446139862547
0.05407749542909184 -0.11666695405780074 0.09366611180497342
0.05398074124297149 -0.11573678491378929 0.0937720641150458
0.05389678436726463 -0.11492536608893142 0.09392816442251774
0.05384878869063936 -0.11405914853200923 0.0940950787716212
0.05375988574990435 -0.11331762835031395 0.09424860817750413
0.05374904690695975 -0.11288546381567821 0.09444284334958457
0.06012592817808912 -0.14312857784213018 0.09435881426989985
0.06016109038194287 -0.1430070836840604 0.09481815252210535
0.06002442588407374 -0.14258494747490214 0.09446178912012197
0.059846111655221676 -0.1417457993398628 0.09457352335665188
0.05972740843278458 -0.14114665787744177 0.09490286987922454
0.0595931827784571 -0.14046351901266338 0.0951855043869306
0.059122187804210496 -0.13866653636136975 0.09436972174198426
0.05937194219128484 -0.13960072144126756 0.09505812056985938
0.05902459089160544 -0.13792928778602595 0.09472068974002121
0.05920651958477844 -0.13854625875375393 0.09538293849971782
0.059076084562852245 -0.13760379007758441 0.09551783109381214
0.058847432042077485 -0.13700543362058115 0.09460994514697209
0.05865337989054678 -0.13605201893780805 0.09488156712239057
0.05845538512231775 -0.13538730061731682 0.09511784258802423
0.057891375943322006 -0.13411932618295658 0.09475936005011247
0.05819249057389555 -0.13470358803149055 0.09512885924302539
0.05792394778727493 -0.13382370267999158 0.09555221975620407
0.0575756863272704 -0.1333493725361105 0.09483128993573316
0.05724707026838523 -0.13246592968539742 0.09532668477482314
0.05686337627950833 -0.131816588594022 0.09467531906738803
0.0566239704372538 -0.13103793506459457 0.09507800088453394
0.056416392642515745 -0.1302470708745342 0.09533919070330246
0.05614252818520825 -0.12958726209431187 0.0945622295811162
0.055955799299518556 -0.12872011265248992 0.0946859861286311
0.05578626683220307 -0.12786591034737022 0.0947818895254664
0.0556795592258877 -0.12704549336906532 0.09489210608823392
0.055575295754154506 -0.1262032715158904 0.09507013868033805
0.055470906291371344 -0.12529907269836263 0.09526717792173649
0.055299846932423034 -0.1242602661975526 0.09547679525472245
0.05505243882268435 -0.12349479922189156 0.09458258766969194
0.05490685758493802 -0.12264100350126417 0.09468298981402161
0.05479113820920458 -0.12180530230347242 0.09478567999267548
0.05467881449749115 -0.12103027585090763 0.09500707961997827
0.0545507939306762 -0.12015222845179296 0.0952456496602208
0.05445246486040511 -0.1191913754070109 0.09552359680109197
0.05431965246651351 -0.11822728045499313 0.0953252258876986
0.05417753878094575 -0.11742990746638118 0.09466634971683462
0.05411263836190004 -0.11643078234814634 0.09443609660654352
0.054049001161589574 -0.11568432325152446 0.09465849921085989
0.05399150912846495 -0.1147833617241179 0.09481178760603087
0.053888206491080864 -0.11386797540116482 0.09483967354854386
0.05379759580379042 -0.1131504304562318 0.09488061470174454
0.05379584052374785 -0.11272423564090303 0.0950575703103527
0.06017355942392037 -0.14260392621231827 0.09531370255370165
0.0603030579598848 -0.14229669466376463 0.09641293680891008
0.06001621578756435 -0.14190185709773762 0.09542743664115466
0.059842786353292834 -0.1410400149777335 0.09579535849915191
0.059643093900161585 -0.1402036035562113 0.09599785156765905
0.05947114933221359 -0.1393265189544795 0.09615431647591131
0.059323681381521165 -0.13823545823215236 0.09643496078038628
0.0591425598242738 -0.1372398443440041 0.09629701744372775
0.05890396672943295 -0.13654098288354188 0.095712824007994
0.05867603313977041 -0.1357710704472518 0.09558910881303818
0.058491415389808635 -0.1351369378345766 0.09582900640524111
0.05823882194670469 -0.13431785214339895 0.09613698511327533
0.05800899011664241 -0.13350999948888623 0.09649146865382952
0.057637820445265435 -0.13299809287022987 0.09593506362355135
0.057328732583146975 -0.13219527958169852 0.09637967279466761
0.05693734615146701 -0.13162643860597034 0.09575851534536493
0.056703700174421605 -0.13082958285886595 0.09619754772643642
0.05649162064142017 -0.1300808732437876 0.09620210200309924
0.05621836881079461 -0.1293915842175324 0.09563043312416389
0.05598354782983047 -0.1285098497024042 0.09547079137894866
0.055855623046822914 -0.1278005394265461 0.09564748674424144
0.055768505009094825 -0.12699504669447317 0.09581732728557248
0.0556798110201946 -0.12609988561244537 0.09607779271134007
0.05554131912836779 -0.12502761982450386 0.0964687176495338
0.055325983655784644 -0.12408851115033098 0.09638369160537426
0.05510914323764077 -0.1232797216678718 0.09568384388001795
0.05493684179338578 -0.12237665675892617 0.09549423720732596
0.05481663551913676 -0.12165545444076716 0.09575000041609226
0.05471911951770942 -0.12088277016732504 0.09595192037498294
0.054646706480813344 -0.12005088213473843 0.09617751119770998
0.054605091071147666 -0.1193646546632686 0.09644362373693603
0.054286343285691506 -0.1176489617826551 0.09554607782178774
0.05448961776256452 -0.11839602951075576 0.09632807071064323
0.05439164883158747 -0.11740791040769927 0.09612482263932734
0.05420567859063421 -0.11670380969887784 0.09534286004468057
0.05413094143783333 -0.11564623726195761 0.09557639647780117
0.05407620406304192 -0.11456145733234005 0.0957254013983603
0.05392854534002058 -0.1136431423029654 0.0954813623243671
0.053885215164500976 -0.11302213595321534 0.09555042579153364
0.05384569913331181 -0.11265483689379811 0.09554552735267735
0.06051811687842987 -0.1425055514619901 0.09727688903241696
0.06042943839337955 -0.14214774323153045 0.09734124620361459
0.06015858610728088 -0.141631995647458 0.09657841787137009
0.05992999257580474 -0.14078928258822968 0.09673402789404725
0.05970370032674396 -0.14000857075902476 0.09688973688413981
0.059570639440434885 -0.13915824834652776 0.09710167058948423
0.059461361591448735 -0.1383756648096365 0.09738367955736746
0.05906917452440562 -0.13661203391262103 0.09659675301878796
0.05930753543555216 -0.1374213030816263 0.09721168089481882
0.059162120078138876 -0.13634351187561555 0.09737818379586048
0.058840536791819865 -0.1357963694380017 0.09647660995547766
0.058593335030511215 -0.1348869095943967 0.09680092865646432
0.05837462229573179 -0.13397140176809985 0.09716069180737764
0.05811215383222777 -0.13326346042912957 0.09725920132163017
0.05777513797225926 -0.13264554665869818 0.0970884790962151
0.05740308615239353 -0.1318886003031041 0.09719755486844128
0.05703949281023391 -0.13137036213361195 0.09684137357056782
0.056797252121543094 -0.1308090960355532 0.09699144915909738
0.056376703075437996 -0.1295368004472515 0.0965915206347384
0.056636193626819376 -0.13014307304888234 0.09712009884583131
0.056391852202463365 -0.12927701115153745 0.09718294750801279
0.05614632201952253 -0.12863673596917868 0.09654621664424061
0.0559546541961969 -0.12767035586672393 0.09648028944219739
0.055885354134262516 -0.1269267159667307 0.09684344798805432
0.055780969974584704 -0.12598641876325914 0.09711754581178941
0.055671341303400346 -0.1252368550810717 0.09742650278933705
0.055246945876233564 -0.12352136146038625 0.09669044605774027
0.05546194483345128 -0.12426761072033261 0.09737084400618855
0.0552684907216317 -0.12325798840419643 0.09732053368988922
0.05504864465470643 -0.12246591968852255 0.09658056375398187
0.05485493790460917 -0.12148678738306992 0.09651923080363167
0.05481074303217243 -0.1207793447089651 0.09680464334635146
0.05475311185984545 -0.11998450768367071 0.09699142121850853
0.05469550527645919 -0.11918120945486159 0.09710778909844774
0.05463683519797855 -0.11847044503433296 0.09722158972389869
0.054358890946321695 -0.1165708961105743 0.0963099561177421
0.05455762443141637 -0.11756200523297407 0.0970203428173868
0.05429099437606716 -0.11557263501189459 0.09645341615609625
0.054516062548989504 -0.11649362957534688 0.09724054316134766
0.054248834979556675 -0.11475663396932001 0.0966039954929124
0.054470607671441185 -0.1154442586063213 0.09743548652415904
0.054324496515731326 -0.11458478441873443 0.09716140147030136
0.054067812649328036 -0.11388742818235689 0.09629036640991862
0.053933106999654125 -0.1130091091918024 0.09587941992634433
0.06070563156928645 -0.14247891143797412 0.09821576862680445
0.06053522555682735 -0.1419151712860508 0.09809647808749708
0.06024466642764802 -0.14131953506262535 0.09759292702477419
0.05995855144224615 -0.14053347336135671 0.09746463468410879
0.059821772393768936 -0.1398644562613283 0.09774214622307728
0.05966739801018013 -0.13897940260350827 0.0979506140017285
0.05954325713374851 -0.1381171794849297 0.09803284463095707
0.05948689441631552 -0.13704045738902373 0.09821648552558462
0.059279781213931286 -0.13610837374962748 0.09807840360105027
0.0589562666608519 -0.1353994529271154 0.09753221853275909
0.058714418480204394 -0.13463256801990878 0.09752572408876803
0.05866530561480921 -0.13409045403163328 0.09788635636181471
0.05806535026480617 -0.13293929987348857 0.09754966831466638
0.058360332910284786 -0.13322211413649476 0.097974965167378
0.05726146437911161 -0.1313858602497016 0.09760337820906477
0.057632287313737526 -0.13174309729546732 0.09805921455684984
0.058010330370573 -0.1324975807525119 0.09796525311076293
0.057309651657480386 -0.1310899080869986 0.09814724887740887
0.05696998192264006 -0.13070555570339165 0.09770611952999252
0.056767767037748364 -0.13006659705191756 0.09789202308913664
0.056298015748041275 -0.1287299996576829 0.09744426392030626
0.056585690445924125 -0.12930512139533704 0.09798071534169693
0.05635611670963566 -0.12839597080126336 0.09803577083602967
0.05613199284116035 -0.12783502423453477 0.09741494906766719
0.05600712523434688 -0.12671122808802351 0.0978934058774329
0.055830863304995974 -0.12575865313977969 0.09788744491767039
0.05570898212791739 -0.12508231258993954 0.09812941739434082
0.055611536231950406 -0.1243663268284863 0.09833911604313793
0.055177155944279806 -0.12259627037237666 0.09762842414183036
0.05541928486070895 -0.12331686768871053 0.09832019024080162
0.05523287988478467 -0.12232536659524981 0.09824226538817277
0.05503571674333038 -0.12161696047980054 0.0975471614785802
0.05488560355608506 -0.12059997976119269 0.09750436471744028
0.05485631737622115 -0.11989092992566545 0.09774961827205528
0.054795657918832064 -0.11902389563950479 0.09787817975024454
0.05475446251473355 -0.11819784749493144 0.09789210647119329
0.054703406324367286 -0.11726983497653912 0.0979747780288596
0.05467069120722594 -0.1163722534324694 0.09813667080519134
0.05462268441074311 -0.11564046719623972 0.09829807674960694
0.05429330920264266 -0.11432159492593978 0.09722129362684957
0.05448348132746795 -0.11499184377583667 0.09789336544431672
0.061017021003004046 -0.14283783186957238 0.09893259193948147
0.060901075097679946 -0.1425893247923745 0.0988342628295628
0.06043120413150588 -0.14139645004651855 0.09839765447532789
0.06074069404694954 -0.14192268225649254 0.09894450483841906
0.060445803381320155 -0.14112754779053543 0.09893026658726628
0.06014599252647913 -0.14063755638186734 0.09832781780606561
0.05998565977935082 -0.13964739962069808 0.09870223628547567
0.05977443078919118 -0.1387408948426294 0.09862379547673954
0.05976725200574404 -0.13801387086900224 0.09883263722261224
0.059801772734071945 -0.1372195425176625 0.09905728546859453
0.059255671842738854 -0.13552348719731858 0.09826502722882453
0.05964047953872278 -0.13619910227793716 0.09887145810687588
0.059441620522846614 -0.13519450230820923 0.0987146966824223
0.059020849273317584 -0.13470492788416225 0.09820444131206155
0.05888706858235389 -0.1338070896018758 0.09852524107093209
0.058739036420109546 -0.1328255349088104 0.099021974032819
0.05797317608196704 -0.1320257973343646 0.09847265566823404
0.058276002299498496 -0.13232662945473983 0.09875896973293351
0.05717552390215521 -0.1305728340266778 0.09846269274055174
0.05752019718232655 -0.13085833450834877 0.09893721198846883
0.05800696074618858 -0.13149842483043125 0.0991451796365091
0.05722718391033887 -0.13024296908402674 0.098999253458071
0.05690926317342125 -0.1299053191203074 0.09856722128413058
0.05674489406117324 -0.12920774133087665 0.09870819013811619
0.0562705083147667 -0.12760524308981194 0.09840311951195327
0.056548992959577986 -0.12840558301770466 0.09879592131899088
0.05619206109477227 -0.1267718335165337 0.09879383207506509
0.05644271330441054 -0.12726633527211823 0.09934630635115206
0.056256159245859555 -0.12641010497068686 0.09937917370068515
0.05598573800592536 -0.1257654174662222 0.09878170819110837
0.05578469304299591 -0.12485024777970888 0.09878202503502491
0.05567601445378427 -0.12406846048038588 0.09902393829483194
0.05556870078109139 -0.12332818078356515 0.09924802812270266
0.055208038743847956 -0.12168954290773971 0.0985214862598735
0.05543953643265109 -0.12234127963818872 0.0992119662787753
0.0552744759133562 -0.12135997878041778 0.099103462125752
0.05508031980805739 -0.12076961441877916 0.09837660231834094
0.05500329063290258 -0.11963251904092027 0.0987057204654713
0.05489308038485532 -0.11876839091507596 0.09854731932379407
0.05490287702547265 -0.11799186182438941 0.0987348674719696
0.054873204025825094 -0.11708885616474278 0.09888574088767207
0.054833917900411304 -0.11627619056542143 0.09893973227208333
0.05471649641974834 -0.11564787874071371 0.09874733820159973
0.061297085954558406 -0.14304006084741236 0.09953636570690864
0.061573049880484884 -0.1432007311831398 0.10015687238310983
0.06139670601323235 -0.14288070783834525 0.09996955952263371
0.061120256642728105 -0.14257925087967457 0.09946523056628388
0.0609934466148564 -0.14180984795475735 0.09997982270198759
0.060329560638118306 -0.14045845114754738 0.09924497421925985
0.06064481092341456 -0.14111813791880892 0.09969872488278154
0.060245467913985884 -0.13973646371137505 0.09954258022629281
0.060586182028995704 -0.1402303961067398 0.1001942451275917
0.060373913925587705 -0.13935077270641083 0.10009108574208435
0.06003297680559874 -0.13884464778041258 0.0993684029577402
0.06002400427688506 -0.13785050707003843 0.099577375127728
0.06002131581003124 -0.13698871675301927 0.09965113731980374
0.06007490730211388 -0.13618508791110465 0.09971192402387204
0.05938592875370783 -0.13439259846528592 0.09895631033696368
0.05990327853212402 -0.13519351211297434 0.09950106173020294
0.059273883741968715 -0.13338456291836565 0.09937562739716535
0.05983059873660221 -0.13399802422637652 0.09985356081183996
0.05910955187296298 -0.13255643445213747 0.09977735152417935
0.0596802709755941 -0.1328431858455489 0.10041805219820527
0.05923251255578449 -0.1321399613681046 0.10034507177870611
0.058679970268932076 -0.13179459416220132 0.09997314383112617
0.058251908125829574 -0.13110466180263508 0.10010421377819077
0.05786437434815657 -0.1306987433893973 0.09984224099321472
0.05711535808306308 -0.12972412681887283 0.0993437983108765
0.05747070073676857 -0.1300373203669271 0.0997439456532788
0.05719211170684011 -0.12938821975240325 0.09987558249653547
0.056902802409544116 -0.12899596554551626 0.09948374966794805
0.056718591069916585 -0.12801035892838902 0.09966732876037324
0.056696716212686044 -0.1273260552366313 0.10014971646932036
0.05621066635378657 -0.12572923787521126 0.09968506507703666
0.05650623148798471 -0.12632534458429825 0.10020667895557223
0.05628760715029314 -0.12533703592424283 0.10024461624633346
0.05600537917136834 -0.12476637494217488 0.09968824192651751
0.05577168262542751 -0.12377670816537602 0.09966855643542712
0.05569963726842212 -0.1230344238350538 0.09986836024589152
0.05563471994240597 -0.1222949409635971 0.10008829456307758
0.05524808702173204 -0.12053566040845655 0.09935217759744767
0.05549867194288655 -0.12142740913380665 0.09997904826365196
0.0551921649347072 -0.11972584018057257 0.09959981672227111
0.05540855260377868 -0.12025285959505275 0.10029601479557751
0.05527204563028026 -0.11939123097271127 0.1001171095481218
0.05507915974921863 -0.1188394408490864 0.09938357062321357
0.05504248188254614 -0.11779965973244123 0.09960993020174844
0.055040331292586314 -0.11688187884721805 0.0998115916520433
0.054926102618900303 -0.11624106430819883 0.09952914358537981
0.062177430799783176 -0.14369459130766946 0.10106935122942602
0.06225685228730881 -0.1436577595830525 0.10140165629450514
0.0619691767103465 -0.14337024255070097 0.10100915137109115
0.061296642280973014 -0.1423515553478634 0.10032913923333446
0.06159661517816033 -0.14282949056846422 0.10066940495470988
0.06117920494377967 -0.14179207273385944 0.10068532412696232
0.06146985060141595 -0.1420819196878292 0.10118621479284294
0.06123887249072118 -0.1414147186021599 0.10115774187639819
0.060940859324175804 -0.14106771398658285 0.10060923486365644
0.06089343718187872 -0.14023676186067977 0.1009848977337683
0.060322144294142406 -0.138519605238008 0.10017361595738664
0.06071563789171991 -0.1392606817276412 0.10092247462348738
0.06028590096613443 -0.13758736762870621 0.1002130742276392
0.06057998363601187 -0.1382057930366704 0.10076797344387674
0.06034950590270804 -0.13671959483899276 0.10026569705644432
0.06064214829929646 -0.13736419673901987 0.10087172765548516
0.06038686064563195 -0.13570033724671082 0.10030155176998332
0.06074105094501874 -0.13635196961874888 0.10093723308578348
0.06031532524811804 -0.13463526726704073 0.10042963421699358
0.060781598979292285 -0.13524969794885547 0.10111303059667048
0.06019351492901152 -0.1335476705117402 0.1007145905939829
0.06066444753802245 -0.13408170830260963 0.10119574666942054
0.06008004802417339 -0.1329417097722154 0.10095083165228212
0.06052417594620886 -0.13300702406729578 0.10151447371801477
0.05910188434497256 -0.13177475373585956 0.1005578377512891
0.05956371350596914 -0.13190268942080297 0.10107303320514226
0.060029375275099224 -0.13244973799473603 0.10124020404269206
0.05816899450331721 -0.130589391359666 0.10054694966828585
0.05864954586599468 -0.1308718071385009 0.10104321999753806
0.059040218171474326 -0.1313942884271881 0.10095899934216426
0.05832030890198238 -0.1303347922033931 0.10110689647847561
0.05791249952960974 -0.13002178940818399 0.1006726445575382
0.05714855503917622 -0.1288413536262258 0.10024258826978621
0.057514330506981376 -0.12921396259535986 0.10062541230483119
0.05728469359181779 -0.12840382418185978 0.100851802039528
0.05695497123315213 -0.12801870484211153 0.10041957273558004
0.05688260883791537 -0.12691786335050273 0.10095404499053949
0.0567367931837387 -0.12616679360444108 0.10098719216133156
0.05623888103298561 -0.12470586176993664 0.10050181815246892
0.05657720163495844 -0.1252729157442484 0.10103151229448452
0.05636841202178507 -0.1242895876536955 0.10103128779791447
0.056051880849786136 -0.12372885778780048 0.10049158131291817
0.05583817811469462 -0.12275541466640562 0.10048516839306523
0.05576699779018971 -0.1220095759386622 0.10070753293329697
0.055683034459254876 -0.1210753895262721 0.10089576627378703
0.05561226768271867 -0.12031907749075252 0.10112186138439844
0.0552695319807948 -0.11856095965009457 0.10029329774434595
0.05548764794046031 -0.11941906794102394 0.10093608491429573
0.055259140897049135 -0.11762762348933264 0.10047555105613061
0.055464662076758896 -0.1183532822292149 0.1011528487795334
0.05524652972028354 -0.11696122503337154 0.10062353174215662
0.055476718023096123 -0.11738746547879611 0.10136641195616464
0.05533883853061458 -0.11679941180858229 0.10111718458486059
0.055105717489410615 -0.11657389567626242 0.10031905506017592
0.06280275827044011 -0.14410800914268052 0.10231297694972591
0.06215303310319603 -0.14338453678507057 0.10163922983773364
0.06255379748863625 -0.14367534887961597 0.10223208058873355
0.062201815358227525 -0.14312989013038604 0.10210870806227246
0.06188175243714919 -0.14281390409201083 0.10159962524997487
0.06180078987206166 -0.14190665947237247 0.10211181439413226
0.061168820642131416 -0.14072240411647777 0.10141331770095634
0.06148822371266394 -0.1412514029869921 0.10179623628821445
0.061098988353727304 -0.13986927775511152 0.10159680437124909
0.061437059769981706 -0.14039103370767922 0.10209146080914173
0.061055210312574146 -0.1390981946642566 0.10173007258287942
0.06138836545089037 -0.13944366000658123 0.10229339058805212
0.06122588932325769 -0.13865660182250486 0.10209757601628225
0.06091064318182295 -0.13822559351929256 0.10149814997644803
0.06100773267397823 -0.13709780368901905 0.101550567456202
0.0610601279860598 -0.13610841667260382 0.10163257770690258
0.061129912913342646 -0.13543550791471054 0.1018037821807126
0.061094212420740014 -0.1346300732836331 0.10176760973601381
0.0613996722809868 -0.13521383855901062 0.10233022261816294
0.06100068885256572 -0.13364915883890846 0.10189958660292617
0.061424806225891124 -0.13420793689763624 0.10247498667497588
0.06092921299800325 -0.13306411316122074 0.10203622220953379
0.0612577817655396 -0.13323191474721224 0.10258413490979598
0.0599833809250688 -0.13199053037674027 0.10156573582574667
0.060392906615764595 -0.13211664526865077 0.10206973532415128
0.06085735266588236 -0.13262867473702636 0.1022460116970872
0.05904520860895437 -0.13098861893733416 0.1014820661840698
0.0594112938771298 -0.1312425663544845 0.10166186383374776
0.05991466849561215 -0.13162145773822617 0.1018995278608214
0.05827511110418037 -0.12991915156861006 0.10143690813936723
0.05864675167744498 -0.13022208426406687 0.10180782395854529
0.059213900155760474 -0.1306470955626867 0.10218584342832716
0.05843936135645727 -0.12955000844422393 0.10216420679253795
0.0579683169407596 -0.12929184397806304 0.10146714121679955
0.05722494225266078 -0.1276326579821575 0.10129575071133358
0.05763935265917433 -0.1283356093640391 0.1016557686382367
0.05714745411432822 -0.1268539206576788 0.10170360126916209
0.057503695276178525 -0.1272042682361325 0.10226921962716357
0.05728517290937769 -0.12648618045826998 0.10227412910605488
0.05696250239293818 -0.12603268522087183 0.10172866907797058
0.056851379201275365 -0.12516564847769726 0.10178126072942252
0.056309294597457885 -0.12365409223835323 0.10131808887490075
0.05668209337232825 -0.12422980174964392 0.1018686493612187
0.05642318709151522 -0.12329670489513975 0.10181020429957596
0.05611247550772402 -0.12282259483217992 0.10123333258639608
0.05602339121170932 -0.12164574226886078 0.10160063340659833
0.055800528127022554 -0.12076012674797076 0.10155658653772466
0.05577340567902015 -0.12003376467443498 0.10172668426328688
0.055744371078347045 -0.1190548068255322 0.10187565031781584
0.05571959282417704 -0.11811675952701156 0.10202183108945274
0.055702873508294955 -0.11739988944534674 0.10219659001911975
0.05559029097670065 -0.11689907683535106 0.10210794986114566
0.06290284960122332 -0.1440234342277095 0.10266594441151232
0.06283583418620695 -0.14358215320370782 0.1030468069456649
0.06212027409415994 -0.14248575506912828 0.10242308031682872
0.0624934305279946 -0.143024110503618 0.10277701001180709
0.06204729638873228 -0.14176948249006108 0.10273098032365659
0.06242556176752167 -0.14209998315879727 0.10323482539506992
0.062185810620340246 -0.14132100091136768 0.1031809705397774
0.06185006245310774 -0.1409253387429367 0.10269565369441534
0.0616857522702292 -0.14004504052129754 0.10265937552731068
0.06173777443823802 -0.13944048724853159 0.102858617613459
0.06128743434949994 -0.13781771704003232 0.10213263216449346
0.061637023463171695 -0.13859024231589304 0.10272307053579982
0.061327222183222424 -0.13672486462431843 0.10215231685303508
0.06169824297460146 -0.1374047823420669 0.10280007766786822
0.061282198229264936 -0.13590220092780345 0.10215144935956876
0.06167164097005215 -0.1361194849337835 0.10278158440942002
0.061858134933775066 -0.13491231258892902 0.10313082165986737
0.06172772654627977 -0.13382387077369928 0.10317582137041956
0.06156940828698707 -0.13302239551360984 0.10330987554534814
0.0608002402985968 -0.13223065810206938 0.10252148797169279
0.06113423668253922 -0.13250996681557736 0.10288120507751099
0.0597363584753676 -0.13112522122596218 0.10228816394043236
0.06022889405113915 -0.13143533177070013 0.10259552536374213
0.06082199508143236 -0.13188238914387115 0.10297268085277526
0.059561463761530584 -0.1302188821727709 0.10326049310702547
0.05896862918939724 -0.12978004119190958 0.10295720762457142
0.05990336435402699 -0.1308099098694985 0.10294456378034766
0.05856265106577019 -0.12912323576146748 0.10290433907522929
0.05812993774130182 -0.12873594846930228 0.10236035319254456
0.05790099507691342 -0.12772984740783214 0.1028392932099429
0.05772436288906013 -0.1270090263763336 0.10299085058412132
0.057255231688770794 -0.12588341613840484 0.10258890694246085
0.057556625176847835 -0.12629787586202484 0.10311719753458631
0.05733562344502072 -0.12548598127477653 0.10316811882662871
0.05708523475378847 -0.12510122247772698 0.10253575990438701
0.05704988343987337 -0.12401625435165155 0.10299759444167578
0.056398157995928476 -0.12247699631467723 0.10211775745972723
0.05671419365170451 -0.12318296173952996 0.1025901120317661
0.05633810684482286 -0.12168425748130898 0.10240794815142411
0.05663903855855412 -0.12216609513195749 0.10307676597183639
0.056449043031116565 -0.1212877633098638 0.10295241785399667
0.05608836697465407 -0.12078664369414802 0.10227226794570296
0.05603827052185431 -0.1197199537658515 0.10255204341024533
0.05596956462886341 -0.11866699850592653 0.10281646975340984
0.05586957982840233 -0.11783903148165757 0.10267308022162584
0.05583552263807677 -0.11716422541155197 0.10282344756832743
0.055800262626195606 -0.11665697907575376 0.1029760420258873
0.06309042331358872 -0.14383614181480162 0.10336391877360898
0.06307138131697217 -0.14349113063572833 0.10366575910719728
0.06339405050514942 -0.14356772661395573 0.10426827178598103
0.06322451389362568 -0.14312810781979327 0.10419876075747582
0.0628538533497154 -0.14286304109409795 0.10362461583362814
0.06282782163985323 -0.14195575469103483 0.10406187368379911
0.06215106335258204 -0.14074228693557037 0.10336654042356382
0.06252979175236988 -0.14113471553611653 0.10383629087964677
0.062380798936298575 -0.14037335187946415 0.10379720813522889
0.06203740704982904 -0.1400380297342979 0.10326508487059226
0.06208810072428414 -0.13904358445567502 0.1034184718230454
0.06210540972332259 -0.13803193834842492 0.10348870863135995
0.062110356628445045 -0.13696352120817448 0.10354306846105531
0.06217948823670298 -0.1358355839602812 0.10364392749529007
0.06225552218587014 -0.13507223802791762 0.10383527373583626
0.06214973354945758 -0.13435607205669814 0.10379422767000196
0.062498077896122974 -0.13492652416827022 0.10433388877427736
0.06202454843872454 -0.13353164918450697 0.1038241130886393
0.06243148021985914 -0.1340908172376493 0.10435612480916616
0.06186590302878434 -0.13288208998877654 0.10386664429915703
0.06231598447216653 -0.13317725627701069 0.10441408894596554
0.061952729880284475 -0.1324549083637502 0.10421043823552702
0.06144082589889843 -0.1322690948797723 0.1036042321282942
0.061124111804255664 -0.13157308019316155 0.10370641076525965
0.06057624423032713 -0.131156982847207 0.10341362165942294
0.05938035703266256 -0.12983358403226372 0.10356267273359712
0.05971456334646376 -0.12989001470172323 0.10392325346272716
0.06031147460210593 -0.13037183144207432 0.10399437876234607
0.05835895420963573 -0.12834861361998026 0.10328074486936656
0.05881340307890226 -0.12891705939773074 0.10370390634083883
0.05931575966511524 -0.12938024471480755 0.104042274371948
0.058180958456640224 -0.12760658421258791 0.10364291112564644
0.058588039343850394 -0.1279529359329566 0.10425203547917813
0.058263027874987494 -0.12719494178174692 0.10422400365432422
0.05790582696451922 -0.12678988719866174 0.1037253587446384
0.05773154117718544 -0.12611475317985538 0.10383090879206738
0.057308609592519794 -0.12475131524084238 0.10348915416274211
0.05757474223051374 -0.1254346395976223 0.10389877106599148
0.05728519530491797 -0.12390288132874415 0.10380144659021433
0.05752732076233374 -0.12436020138286975 0.10442577636838785
0.0573762972779846 -0.12351458323358445 0.10438154758570035
0.057032865954807305 -0.12295913085399413 0.1036962063588843
0.05683920502200468 -0.12212724972470437 0.10372815271123545
0.05637365403314926 -0.12042539721488675 0.10320198750265962
0.05671945801817997 -0.12129642238172367 0.10373503186785037
0.05630099253352543 -0.11946293051561495 0.10343261917904376
0.056616739538613715 -0.12016358614357434 0.10401973881081322
0.05624450562772004 -0.1186750214899718 0.10358676645533955
0.05656148513076241 -0.11908201307895212 0.1042629448731887
0.05636200622392333 -0.11826156039675628 0.10405604544926282
0.0560822204980755 -0.11785728540404047 0.10339524154618196
0.05600733379625291 -0.11696808013808689 0.10358253667399912
0.05588967093199538 -0.11653776720189861 0.10335418266286957
0.06384815003956586 -0.14364125526562135 0.10506635481946223
0.06317571895773905 -0.1424701213604072 0.10444509141540681
0.06363671566371512 -0.14297120835759425 0.1050251191773464
0.06313712444760294 -0.14178741079603885 0.10466916585185598
0.06345310387733999 -0.14200440722732152 0.10513556339616789
0.06329104747466356 -0.14132457308639265 0.10508859261874098
0.06296640378271162 -0.14116357547003855 0.10458445217161669
0.06248436192146971 -0.13955847570415567 0.10401234395132096
0.06283851886478828 -0.14025884472554895 0.10453793717309467
0.06250802088813265 -0.13856345796445657 0.10414854478458052
0.06296502547194174 -0.13904176202721533 0.10483848758877522
0.06251633265653694 -0.1376087250275693 0.10420774204563134
0.06285479348702637 -0.1381626213945169 0.10474045992866632
0.06254368653406928 -0.13653556602653177 0.10426440255703266
0.06303560741345049 -0.13722957849710135 0.10505260249931658
0.06249121017659154 -0.1355965649712061 0.10420364915195342
0.06288598773586225 -0.1358361911982069 0.1048796298203965
0.06284057616526893 -0.1347745500310792 0.10490833767599804
0.0627763076168522 -0.13385813727033635 0.10492321591705174
0.06274913253570007 -0.13311337592904646 0.10501739266598416
0.061699769344170374 -0.13165716689693693 0.10439455162185751
0.062452400313940906 -0.13229730451460758 0.10492875099070023
0.06107251383618519 -0.13100776507442105 0.10418293899192912
0.061586541453587273 -0.1309818531323499 0.10477513554761715
0.062287946399116625 -0.13121208282064367 0.10532684902880142
0.06059653781009339 -0.1299920874176928 0.10472080137439253
0.060068747318533504 -0.129560899143471 0.10466638822505063
0.06110930361764001 -0.13042223377220974 0.10478470686280567
0.061745408637917464 -0.1306409763478513 0.10522225627056374
0.059540525565878466 -0.12896065570690796 0.1047653804926047
0.05906627790442538 -0.12859117102106457 0.1045560667181573
0.058916604078813176 -0.12778446186609463 0.10513619000003085
0.05816191393664656 -0.12662292133807446 0.10450603897855995
0.05851108409558619 -0.12701026328832293 0.10500799286562643
0.05825194715115124 -0.12624416108854733 0.10509967489604519
0.05794295148210297 -0.12587092146698153 0.10459057704911928
0.05775910440008742 -0.12502294541737993 0.10474202535483525
0.0577262916458217 -0.1243585500423159 0.10516478929639722
0.05730500079365599 -0.12286797950494735 0.10458248589900285
0.057583229224693416 -0.1233816654036414 0.10517751819562068
0.05736183995703823 -0.12240300885895859 0.10506210750210634
0.05708117203095389 -0.12201361103727286 0.1044105116517603
0.05698744056831465 -0.12091116683104966 0.10463844336485774
0.056909851249881405 -0.11986986529096591 0.1048604525811742
0.05687016476637348 -0.11898789285314075 0.10513516735798016
0.056301103467668104 -0.11756040048118928 0.10419036212702303
0.05657066826193237 -0.11822555652224148 0.104723345644818
0.056269698321337436 -0.11708419274438428 0.10433490341517104
0.056553424032207165 -0.11751331529602572 0.10489071694510253
0.05639080489883134 -0.11705955054505518 0.10463394474758601
0.06421228888232446 -0.14381546712989327 0.10553060148261102
0.06416433106604547 -0.1434417765704206 0.1056335472782592
0.06450167210001187 -0.14357252726230962 0.10603030087019095
0.06405808568889074 -0.1428047384314819 0.10576665026274674
0.06454175450079114 -0.14296065650056888 0.10635749525565268
0.0642175178961574 -0.14232106181021126 0.10619658945460245
0.06382853850097847 -0.14215346511604604 0.10569073503318797
0.06326781980836177 -0.14062585783548343 0.1051971136273867
0.0636744097090269 -0.1410671886908873 0.10578174651512147
0.06330292906147605 -0.13970785356318732 0.10532131763371749
0.06356831496055118 -0.14014238046963884 0.10573527520548402
0.06337582427370154 -0.13896366741094357 0.1055229747112397
0.0636652373821178 -0.13927676828764252 0.10596098544141512
0.06355092618642003 -0.13862789003242632 0.10585570261771998
0.0632967970550148 -0.1382692906787643 0.10544449062836804
0.06361448949139874 -0.13756693483093532 0.10594270590443976
0.06337632624591706 -0.13647781653798935 0.1056775105115813
0.06380115010378708 -0.13681667797984087 0.10628989938893431
0.063266581188927 -0.13543730063250184 0.10553423330970206
0.06370438805351801 -0.13600654224194267 0.10616516170896657
0.06319194370500948 -0.1345067353320354 0.10545796997125645
0.06363737404669627 -0.13508194972023546 0.10603943817247322
0.06313661773912177 -0.13356187173033765 0.10542655125196713
0.06360748691301331 -0.13411720477818193 0.10598036101335576
0.06305369875971405 -0.13265654356215134 0.10546468941939312
0.06355911979515275 -0.13310424742071317 0.1059485559402924
0.06295270886939117 -0.13178707910825183 0.10564432232418923
0.06349482226646812 -0.13218558857449286 0.10603948039684177
0.06287541190955794 -0.1312370731663972 0.10583341868118412
0.06342053785004977 -0.1312206612049813 0.10631965942626428
0.06053079832403616 -0.1296977168922795 0.10497400896156082
0.0609506162520072 -0.1298895611572282 0.1051499402158719
0.0615276161865025 -0.13014546297804724 0.10542077715355225
0.06211995571893377 -0.1304088837846374 0.10570833520752697
0.06277490290531317 -0.1306772946296575 0.10606575466264777
0.0594002019784786 -0.1282967625174496 0.10525683377124276
0.059987564762823825 -0.12879059428565415 0.10532872581521355
0.06062631715462528 -0.12931989207694175 0.1053753603108537
0.06134418694113328 -0.12960783746382618 0.10567854826550178
0.061859721069312625 -0.12986344985001205 0.10586816682754595
0.059250631127651 -0.1276303998725998 0.10569393600636691
0.059899416655625634 -0.12788470031240337 0.10598339935163255
0.059394895192885065 -0.1271752045415555 0.10616073602777744
0.05891705816583624 -0.12693024776173698 0.10586637923966274
0.05818050145994447 -0.12569663295122896 0.10542744523836073
0.058518391638716326 -0.12609280188357538 0.105819276082699
0.058308530127376496 -0.12535304360876495 0.10593246222774833
0.05800565346833335 -0.12501036530065687 0.10545244868780985
0.057946513933516935 -0.12402851070271388 0.1057910532314038
0.05792907983717985 -0.12302391384173869 0.10604751223315313
0.05730366353308264 -0.12159197440694476 0.10524044654529274
0.05759257624298072 -0.1222612038890491 0.10567560667007098
0.05725638720598368 -0.12056699165101112 0.10546377960097615
0.05761520189403428 -0.12126899988801158 0.10596883997409152
0.0571737998387505 -0.11966040337695355 0.10566477204712926
0.05755780934828236 -0.12024088204439774 0.10618739075636176
0.05714289214467406 -0.1189575705514168 0.10579096736676298
0.057481098401797014 -0.11927848126921463 0.10634032306908835
0.05728098787328783 -0.1185453756969116 0.10618502182406737
0.056922355395239405 -0.11820296441122274 0.10553811694930361
0.056969966475385755 -0.11764918751552923 0.10578916453429162
0.0649282188384035 -0.1433317698594579 0.10669033872452684
0.06524710329355973 -0.14330212808282147 0.10713269743783856
0.06492299553924036 -0.14303586332260138 0.10682638892738236
0.06519071933578957 -0.14302794301506125 0.10718354084412685
0.06414644977067169 -0.14155612411330226 0.10634470603377799
0.06456744437794776 -0.14201916128148268 0.10676631167109021
0.06493116452963277 -0.14250656027280253 0.10705659826010117
0.06411933442133297 -0.14076918432065458 0.10646517302268986
0.06463427470292549 -0.14096607141772527 0.10713072074015795
0.06432627535011015 -0.1402307366072134 0.10681919128892897
0.0639417695243774 -0.14002351159276596 0.10631406491904863
0.06400891662923804 -0.13919486479358073 0.10649840057734923
0.06358246261263069 -0.13824306169164063 0.10590724314745999
0.06388360139899288 -0.13839923289854694 0.10632654393393094
0.06416766490749369 -0.1374266060532496 0.1067844160552836
0.06410773606419412 -0.13648417764274118 0.1067143472213814
0.0644459953627227 -0.1367562796655996 0.10719118315132588
0.06406201735836617 -0.1356242990557056 0.10662240337019846
0.06445674860373084 -0.13608723241669923 0.10717722734108791
0.06404849391911434 -0.1346486687232768 0.10653426513314208
0.064483257933283 -0.1351968613194672 0.10712818483943819
0.06405358580581373 -0.1336650570542008 0.1065053568888917
0.06450577642849015 -0.13420065169077827 0.10707500902312943
0.06401747489362344 -0.1326397791777783 0.10652602214707842
0.06450247199903877 -0.13318506519694884 0.107081536809406
0.06396499563055906 -0.13172636386174966 0.10663636572266888
0.06451974457818511 -0.1320817760230437 0.10720686929820178
0.06393192685065192 -0.13121692053308764 0.10675382506097497
0.0643001690187283 -0.1312106456872824 0.10715538598384643
0.06254939229722467 -0.129780021016241 0.10638293757128968
0.06335959253158936 -0.13020996950571928 0.1067651779245919
0.06393735519114715 -0.13067840984589274 0.10702300935979454
0.0604744321184223 -0.1285411408291987 0.10589220462808335
0.06116997533066508 -0.1289228351798991 0.10603677082053505
0.0618591824507914 -0.12927432874640785 0.10622686670451378
0.06247233226102699 -0.12889138944239742 0.10683748785155667
0.06332417539461281 -0.12911289869742526 0.10729055874648082
0.06043231638232707 -0.12806102185490179 0.10621384495473139
0.06096159897733093 -0.12820818917879315 0.10642775028203888
0.061735966225554446 -0.1284265160415567 0.10670696265586897
0.062354910150719645 -0.1282238045261255 0.10717040225751082
0.06286328413589269 -0.12839956299743296 0.10736435636957442
0.05926212199347753 -0.12665932126290763 0.10643371545195901
0.05989948102134072 -0.12682110036203334 0.10675266788449642
0.060566481989582 -0.12751803292919497 0.1066624104284086
0.061383866910358034 -0.12771945117827882 0.10698343659676662
0.062019871598867606 -0.12782192529820668 0.10725014082759922
0.05940215897522565 -0.12623024617598683 0.10680863332662491
0.05896549747007081 -0.12613403558362105 0.10646321232226905
0.05831049769387496 -0.12459052535959132 0.10624937290389644
0.05872503598297107 -0.12526435616003542 0.10659223994201243
0.05826981886922968 -0.1236403007315337 0.10646059066815992
0.05872892454812112 -0.12413841094186384 0.10700088323652251
0.0582194775468904 -0.12276711207731585 0.10661255081059083
0.05857242716348136 -0.12304911344888685 0.10703156567011449
0.05838478653826282 -0.12228242905101218 0.10697244210655407
0.058009114509016815 -0.12200542410398592 0.10647705440181253
0.05798764385527558 -0.12092048493839973 0.10669322635319226
0.05792411061767268 -0.1198680011701954 0.10690809782713107
0.0577714432691117 -0.11913816697127923 0.10685599676870644
0.057240842960952124 -0.11795259808346945 0.10629494872118556
0.05758367302884832 -0.11852816030943965 0.10677172320459272
0.05720411289743542 -0.1176089291188158 0.10632399696945476
0.05746037841022894 -0.11796420799895778 0.10674198996121408
0.06535693522334542 -0.1430060656620345 0.10742128255885366
0.06500248820319669 -0.14164390989042028 0.1074515720860502
0.06533608885126063 -0.1422324935133393 0.10769193307948854
0.06502552529150721 -0.14106491334686183 0.10769258633687466
0.06540585758503593 -0.14117933834354918 0.10813802769196759
0.06429821609049635 -0.1395110847077071 0.10687285460825093
0.06468288637893194 -0.139963059951971 0.10734772461499657
0.06507187217552497 -0.1405024468062249 0.10783208753635466
0.0642811206656937 -0.1387239556209737 0.106882274723595
0.06468538933092388 -0.13903829216214278 0.10741324052240994
0.06423648162309603 -0.13812535412137408 0.10684985462003076
0.06458703114185302 -0.13807991282804005 0.1073617837352338
0.06467777063860342 -0.13726770069000374 0.1075235401215231
0.06478023416910429 -0.13652717257418878 0.10764806832486798
0.06510094289652861 -0.13708273777003385 0.10812431457458466
0.06484591894969735 -0.13571091308802777 0.10766681056698212
0.0651814518104249 -0.136240356363212 0.10819375054675309
0.06488954797006911 -0.13478936578715708 0.10763469476640755
0.0652436375385507 -0.13535530409397453 0.10820392739209901
0.06492713133866551 -0.13376161819719698 0.10763262847112216
0.06527744561575217 -0.13435084581033274 0.10819214946501703
0.06494364090618382 -0.1327378400338707 0.10767287777990729
0.06529994442765252 -0.13331456113772705 0.10822741447212769
0.06494726282469138 -0.13196412779952552 0.10777389943659396
0.06532418674044045 -0.13227420752225869 0.10833422779909914
0.06513736235683178 -0.13150152549457064 0.10816554484382351
0.06475766339772072 -0.13128545792826515 0.10768936037963321
0.06392728473141185 -0.12980387203651256 0.10743816760828906
0.06449474275542676 -0.1304006332986135 0.10773081177427339
0.0639071619765702 -0.1291544936382682 0.10773384937245399
0.06443483046968355 -0.1291686617530437 0.10822919700734591
0.06262543704724122 -0.12765404304848973 0.10769634232925043
0.0633369310577875 -0.12807636841618375 0.10787451157664132
0.06388161337655515 -0.12850766722172854 0.10805611010572377
0.060485831240411854 -0.12690084803080887 0.10705481641942256
0.06106200379858484 -0.1270060507588912 0.10728616687810044
0.06192274837395997 -0.12715356497414726 0.10763413229132912
0.06257279164696393 -0.12694599881785307 0.1081007058574316
0.06329420117447349 -0.1270365691347609 0.10846985963808706
0.05924607589824916 -0.12559158569404583 0.10702907429198126
0.059822482307306316 -0.12593944583722744 0.10725158785790632
0.06058469134569746 -0.12633474978542442 0.10746582447184808
0.061439138992272296 -0.12643732072860814 0.10785557639357111
0.06219252327442973 -0.12642058468517559 0.10822633220871145
0.06277165662066057 -0.1263988898258593 0.10855189978255833
0.05918916682596989 -0.12475102785087328 0.10735590096232495
0.05972650307343853 -0.12516149702519117 0.10760624961015477
0.05919067268220272 -0.12403835428225828 0.10763228288159832
0.05972037000687212 -0.1242257855282744 0.10802914297522775
0.05939014959183973 -0.1235322369569024 0.10800648908902026
0.059025049888504905 -0.12331836665810507 0.10760112983469916
0.05837780354403815 -0.12152564900310274 0.10713682091789033
0.058867137998390745 -0.1221910638908399 0.10765532792766168
0.05831606201182026 -0.12059006368401809 0.10734120774226351
0.05868370265952119 -0.1211390340568186 0.10768523071184476
0.05827056662902659 -0.11985093418664461 0.10750885053829475
0.058691394924925824 -0.12031159599365475 0.10796174229548597
0.05841348227865953 -0.11948700517713706 0.10783075396207359
0.05802720679664232 -0.11910074774870855 0.1073516259400332
0.05783476166035919 -0.11849296821824634 0.10725554996255013
0.06558568470718935 -0.14167677209647356 0.10826161667326678
0.0656743781561785 -0.14125819147741212 0.10851636087307957
0.06511929455839124 -0.13953282644100812 0.10798350641557095
0.0654588123471721 -0.1401121248824138 0.10840995651352686
0.06566503921711296 -0.14062297590370046 0.10863944233412627
0.0650781628811216 -0.13853136539610947 0.10799605278228729
0.06545220636036965 -0.13908594533439186 0.10852735351057288
0.06498481777932918 -0.13774083173062204 0.10792608392504642
0.06539181458341206 -0.13788784219969932 0.1085010692025808
0.06546272350196049 -0.13685026898943226 0.1086380516311529
0.06553031285473229 -0.1359075275079082 0.10871436671325284
0.06559057867619228 -0.13494452744298652 0.10877076716940584
0.06560917336372031 -0.13398669901252075 0.10879752566361332
0.06562087504355008 -0.13298164590876124 0.1088622471624276
0.06566710799534754 -0.13218803627071166 0.10900142487164861
0.06504555391745273 -0.13073635619068094 0.10829828849937977
0.06548402876888507 -0.13135323307242835 0.10881725026383912
0.06492277602404621 -0.12981478215033435 0.10849206278285331
0.0654218938744735 -0.1301967586944622 0.10910366048322886
0.06490719606911988 -0.12913469939911099 0.10872682576326749
0.06523970219079088 -0.12912875534740476 0.1091928013384982
0.06384038511088205 -0.1275937624139826 0.1085265888132936
0.06447382729349123 -0.1279042464196545 0.10890559230489545
