# .PCD v.7 - Point Cloud Data file format
VERSION .7
FIELDS x y z
SIZE 4 4 4
TYPE f f f
COUNT 1 1 1
WIDTH 790
HEIGHT 1
VIEWPOINT 0 0 0 1 0 0 0
POINTS 790
DATA ascii
0.06286696120627736 -0.1350812085031249 0.09088246504203433
0.06266418316355334 -0.13419407998539057 0.09121396775825738
0.06248102193397394 -0.13340260161460094 0.09147584267298547
0.06231717953862723 -0.13261465692877863 0.09177118425028655
0.06202989371370218 -0.13182030093468314 0.09107706742207652
0.061896151960996675 -0.13097269947730103 0.09131367327434363
0.06177592135721358 -0.13012443212313718 0.09150560691026616
0.06166352919902935 -0.12929051559380017 0.09165716289879623
0.06153988839252271 -0.12842806831927298 0.091728001142932
0.06138713089375358 -0.1275055079201552 0.09181378825460763
0.06122465694672772 -0.12657694576400827 0.09198913473322967
0.06089603051873089 -0.12574887306836316 0.09117781346512777
0.06071394926392394 -0.12484420410437312 0.09145531696669654
0.060528881296784236 -0.12399089030675699 0.09176676262288777
0.06039705671685193 -0.12330569484510792 0.09212601105286164
0.05965780954036844 -0.12149175443160119 0.09142764720609643
0.060092613632318874 -0.1223204961240169 0.0921215391225376
0.059770621931164634 -0.12133741344490873 0.09207115932489925
0.05931730606226083 -0.12048131780318892 0.09134983562760755
0.05896951346122691 -0.11943048250184002 0.09128105513236517
0.058858859318393866 -0.11869367631130372 0.09159972806200653
0.058707772542993995 -0.11781166066337985 0.09185952533320219
0.058573482538503044 -0.11698021933763793 0.09208547612437423
0.05849882810606204 -0.11630221306835815 0.09245301434329836
0.05846674789696358 -0.11574692621422904 0.0929507763617396
0.06466958887906514 -0.14740522499022052 0.09139677066113847
0.06466093205648012 -0.1465735170263113 0.0916444522389428
0.06470822975348513 -0.1456564991650024 0.0920928414875553
0.06475788386754391 -0.14478551170247966 0.09231892682915906
0.06482150928581407 -0.1438043414968788 0.09264123001505854
0.06480757454796295 -0.1428518561060264 0.09253487237393614
0.06468404015876453 -0.14205149815450305 0.09196312859628109
0.06458180328959624 -0.14116500106513757 0.09185222011146768
0.06456401066203979 -0.14043866670165328 0.0921866057926901
0.06454313973935222 -0.13968525372698623 0.09251431157293244
0.06409304726473267 -0.1380731017053909 0.09200304034837035
0.06439510202441842 -0.13873319304388357 0.0925419912190576
0.06421534126001334 -0.13782740232318783 0.09261281624478951
0.06387384229990196 -0.13719698843928968 0.09209054296522341
0.06357668704591571 -0.13617507572350823 0.09225019630913638
0.06334097374369599 -0.13547454072052847 0.09232906177927604
0.0630223146627324 -0.13482689333140674 0.09196934775283776
0.06275649625178875 -0.13402240895725387 0.0920006945669977
0.06262717201368183 -0.13338037085834578 0.09238695753475083
0.06245567753783121 -0.1325728809125717 0.09273078402729472
0.06216116302753412 -0.13178304947273534 0.09203871099747815
0.06202470340646584 -0.13092924557405888 0.09225875228754503
0.06190030363859727 -0.13006848683840522 0.09242548126608667
0.06178329533847567 -0.12919841690383638 0.09254904307130542
0.061658913624050175 -0.12830858500727954 0.09265820260959906
0.06151662590988743 -0.12739819065442218 0.09280264214871503
0.061360150194359434 -0.1264901365075549 0.09298555827960948
0.061052602438331216 -0.12567505981798602 0.09220533940381699
0.060875679232666326 -0.12480738768964537 0.09244823119556375
0.060707996808848724 -0.1239948865785094 0.09270493472859279
0.06052929299859367 -0.12319916711435348 0.09291510891031673
0.060383412032255133 -0.12250940230447133 0.09316381777375633
0.05969129226060972 -0.1207450422823571 0.09240483913876452
0.06009030546437661 -0.12158887214594255 0.09301745364821735
0.059856451779842716 -0.12054123512515824 0.0932592672950239
0.05936875175437348 -0.11972892623143554 0.09227558916260514
0.05915610605488132 -0.11866041311078473 0.09257923470978893
0.05897450582330476 -0.11772091519546335 0.09277752782016943
0.05882117310489723 -0.11685580773537976 0.09297787785268019
0.05865405487149921 -0.11606516928648257 0.09323720976390487
0.05851710830326728 -0.11539803224089415 0.09358426337084971
0.05844049186604032 -0.11486380225414752 0.0939925267670863
0.06479126232466034 -0.14603667724867897 0.09294593757028642
0.06479562705942586 -0.1454359636969652 0.09293479712248766
0.06485577956382607 -0.14476883556525186 0.09324179093282203
0.06490940817253238 -0.144088201094296 0.09354802764209293
0.0648286320283433 -0.14227444591838107 0.09283287861501202
0.06491792166899886 -0.14307859222490757 0.09353100212944966
0.06490178518646846 -0.1420398322933671 0.09344054025050501
0.06476176412850024 -0.14135628329755595 0.09273079146576334
0.06476414079546701 -0.14029391194632512 0.09317534673208362
0.06465857179967409 -0.13939850805137174 0.09311262021201205
0.06465247921495534 -0.1388074523292892 0.09344672274763516
0.06417386756877289 -0.13727632957053812 0.09297627714650539
0.064479638077316 -0.13788614393643076 0.09350478398170564
0.06426891241623615 -0.13703397351526309 0.09358676165699648
0.06394391421387717 -0.13648945595014084 0.09312976779849855
0.06327414975579047 -0.13502383315704042 0.09275446661762807
0.06357615447888255 -0.13562810778731393 0.0930097311666707
0.06341914607076282 -0.13489928164750448 0.09354422653664526
0.06300713075906089 -0.13423644594974027 0.09287219186040341
0.0627898678527576 -0.1333422896341812 0.09336611560495503
0.06258412398137614 -0.13248902781683908 0.09371631733640735
0.06228786702403885 -0.13172713259644964 0.09300183361414048
0.06213799736814915 -0.13086033621447385 0.0932017792513742
0.06200931565662294 -0.12998898570230755 0.09334066545993798
0.06189037314567532 -0.12911353295263442 0.09346423897586292
0.061771666459613475 -0.1282223524549913 0.0936059991596994
0.06163776109049214 -0.12731038058233596 0.09377983321238814
0.061486440594715724 -0.1263884176209123 0.09397498103824747
0.061189445590245424 -0.12559608246472678 0.09319440971165335
0.06101899602539927 -0.12473175945661817 0.09340466102556319
0.0608471568901554 -0.12390675244810173 0.09360145761915634
0.0606750209174666 -0.12311153343724791 0.09379279707516519
0.06048024981689476 -0.12227134153101157 0.09394499248699954
0.06026898296941967 -0.12131505462780978 0.09410489501347391
0.06004847577646393 -0.12029883095947921 0.09426292633586585
0.05962563611701949 -0.11950801423291722 0.09340602314315827
0.05940293567988695 -0.11850768356298896 0.09353221575795816
0.05921338374803912 -0.11760791282867568 0.09366169576114192
0.059037157156906404 -0.11674665801298656 0.0938577663820298
0.05880218629493775 -0.11589492240153614 0.09405734078921105
0.05859140888038951 -0.11513720230766741 0.09427465638911223
0.05848885649434252 -0.11466176689375907 0.09454550689482145
0.06489273303413329 -0.14609991567891817 0.09380853485303839
0.06495101820245634 -0.14598816298498118 0.09428452097115968
0.06491316029835277 -0.1455704024433804 0.09391645940047333
0.06494072748345746 -0.14470800502711448 0.0939963924372702
0.06497848294325265 -0.14401510595681885 0.0942986202976675
0.06503514650240853 -0.14325439864359438 0.09455879797290924
0.06492992215574582 -0.14124947348912492 0.09374269391291752
0.06503455460324783 -0.14224015087939207 0.09439589382605927
0.06495763877318314 -0.14046196005453682 0.09406936595124427
0.06509062596395808 -0.14113918324434999 0.09469858166574226
0.06508419977760217 -0.14015182823715153 0.09482536590386599
0.0648631870043025 -0.13953096061619336 0.09395831114753311
0.06479122764287379 -0.1385664802369719 0.0941831893121863
0.06471305175114701 -0.13786348843774154 0.09440561458361389
0.0641807542813505 -0.13648672795775546 0.09397775991657115
0.06449537789788334 -0.1370955394963387 0.09439004371652089
0.0642880909541527 -0.1361827012921013 0.09478674114189958
0.06386847599075557 -0.1356737359806405 0.0940293971285347
0.06359404017103479 -0.1347151477824029 0.09457739772772468
0.06317232592289791 -0.13405601302980338 0.09398361206612031
0.06292889436008009 -0.13319114492919107 0.09440612471001668
0.06269979439562505 -0.13232813023348003 0.0947074164041825
0.062401497520558714 -0.13161978030016983 0.09397527676292153
0.06224236265880363 -0.1307404351725117 0.09411706174666427
0.062115654864821665 -0.12988912662814367 0.09422036973795762
0.0620065038678882 -0.12903538052212996 0.09437339243228145
0.06189564135045687 -0.12813715649350144 0.0945561263983716
0.061765705559323404 -0.12719563275377366 0.09477554886205192
0.06161148967204041 -0.1262318865080247 0.09496900080633282
0.06132252944898143 -0.12546957473043752 0.09418077747424745
0.06114112696386992 -0.12458628543903708 0.09432713281178297
0.0609639864937228 -0.12376764049778066 0.09446880726250194
0.060805022802304445 -0.12295809442004947 0.09466297246944146
0.060634606191680374 -0.12207746364137884 0.09488514914572821
0.06045675840689038 -0.1210485817915379 0.09519963304217009
0.06018828075990785 -0.12007240752909745 0.09508243667124873
0.05983888648662491 -0.11925045739102738 0.0944564312844736
0.0595499249505561 -0.1182917855410547 0.09428067381522613
0.0594189385702787 -0.11754722062584645 0.09454056295363328
0.059188127852207374 -0.116616927309546 0.0947623566783264
0.05889660392208296 -0.11570573236247923 0.09489776568658076
0.05866388799099402 -0.11494621120125866 0.09502527725168362
0.05855383402551565 -0.11451431672649627 0.09525779293749702
0.06502260949422657 -0.14562653317957755 0.09479862469813591
0.06518811774357734 -0.14537940483595224 0.0958428009705097
0.06504179951762279 -0.14491203695866817 0.09488691950039335
0.06509295100280067 -0.1439402547223633 0.0952080714610656
0.06514176912079152 -0.14297566326206881 0.09533534398464666
0.06518873064706511 -0.1419576012992003 0.09546761183652479
0.06526371781196402 -0.1408448796189088 0.09571990305037234
0.06522625213781476 -0.13987208200070725 0.095564408574671
0.06505141165027853 -0.1391268814529045 0.09499134148007668
0.06491062907606257 -0.13828050984034523 0.09487874266111136
0.06482215984705508 -0.1375876939676901 0.09513239043013572
0.06465732084180986 -0.1367204316247548 0.09541035179920783
0.0644503684355611 -0.13584875347509093 0.09577423016886792
0.06403578013344555 -0.13530369650395876 0.09519267519867228
0.06375875641673413 -0.13443160809105328 0.09563674833357025
0.06332544026401332 -0.13383676733255215 0.09505331947973918
0.06305851858409177 -0.13291824145926143 0.09551655880015683
0.06279106377976426 -0.13213140905644677 0.0955165663088657
0.06251600889959379 -0.13140840189787517 0.09500236965558304
0.06231929819407169 -0.13053183417865177 0.09486887666274038
0.06223541782053017 -0.12981276621209742 0.09508156845160015
0.06213228219155116 -0.1289480554770404 0.09526515818501971
0.06203148996004152 -0.12803398456512846 0.09552128486102307
0.06191194210236821 -0.12699308908896212 0.09586952229677448
0.06171586389682424 -0.12603757701014726 0.09580026192667324
0.06144398604591131 -0.12523684910472688 0.09523241059471477
0.061218616812024416 -0.12434814107984682 0.09509521937145014
0.06110119039373405 -0.1236436861873106 0.09533536759092215
0.06095090969751906 -0.12281772910568646 0.0955360523984586
0.06080669510292904 -0.12198415792914384 0.09580375602258938
0.06070686821645432 -0.1212645751299014 0.0961170809023885
0.060104988223718486 -0.11947055824642658 0.0953592175620275
0.06045617384432648 -0.12024247304928244 0.09606202210649795
0.06017505369555573 -0.11920474604561444 0.09593718642906843
0.059828825311691945 -0.11852608579217495 0.09518610236850458
0.05960546449181281 -0.11747927423797756 0.09549109918094466
0.05928698665602638 -0.11639230213166397 0.09578035993045407
0.05892979039118251 -0.11545925718542531 0.0955934195370088
0.058737699814382725 -0.11484039529432637 0.09574580907519982
0.05861594520605716 -0.11448067921638831 0.09577987115113153
0.06538949146198021 -0.14565527644223478 0.0967383031158993
0.06536746276832832 -0.1452421628234443 0.09679629462372676
0.06520076147626767 -0.1446507657691163 0.09598443896402074
0.06523541151713466 -0.14369013837323447 0.09611164988763118
0.06527552819379065 -0.14273529658888487 0.09622383270275792
0.06535658415295999 -0.1417943957332551 0.09640586516803533
0.0654462530101675 -0.1409968547356913 0.09663110608845576
0.06525501403991447 -0.13925512717566688 0.0958653659832565
0.06541545489092672 -0.14003299835631333 0.0964534686574339
0.06540729397048124 -0.13896346572603505 0.09660543640054216
0.06512000514098458 -0.1383384523217546 0.09574620476611011
0.06499792972509891 -0.13731740869828649 0.09603156946798237
0.06485497867052566 -0.1363590797645357 0.09641126548530231
0.06461406723478393 -0.13559110915251 0.0965293962909499
0.06425663825661175 -0.1349312423780159 0.09637864239001312
0.0638841844473084 -0.13412895872140426 0.09648016042965521
0.06348825298470911 -0.1335549901441827 0.0961348901308552
0.06324725974746413 -0.13291561018954598 0.09628496678616756
0.06272332650817138 -0.13159243845911922 0.09586135275241757
0.06303365720306849 -0.13219857326783802 0.09640658111988167
0.06280839476274644 -0.13135664625148105 0.09644802697222733
0.06252818248526565 -0.1306582343831618 0.09583499292965472
0.06234892300409494 -0.1296574825515409 0.0958267495913712
0.06229608304458364 -0.12887409796450083 0.09617601740613463
0.062194572581261605 -0.12793730680176232 0.09646472260836364
0.06211982866618137 -0.12719380233284755 0.09676314516030828
0.06165309823331515 -0.12544379631748193 0.09614510937755026
0.061932417311218194 -0.12620169895289524 0.09679142128157958
0.06172534903491477 -0.12521129159926367 0.09678660499114844
0.061431685583160776 -0.12444888223622685 0.09611633354348038
0.061208754184221184 -0.12345275162008637 0.09610183510960733
0.06110352015840281 -0.12272590306669813 0.09638844928043641
0.060969680212773325 -0.1219132092777799 0.09662742520680179
0.06082303114893253 -0.1210885608026906 0.09682923341156272
0.06069399823871327 -0.12034097936410255 0.09702714519880257
0.06000646807634301 -0.11837509751954045 0.09618777467814753
0.060418309728547046 -0.11937178168782468 0.09685262938491325
0.05975036928631315 -0.11737712680423935 0.09647551997949876
0.06016977151621308 -0.11826325920278491 0.09715802866118593
0.05950264675843518 -0.1165696456523012 0.09671647679592113
0.059864995390873935 -0.11723048868435866 0.09745964169773355
0.059521639362622863 -0.1163689131037128 0.09725838534741928
0.05914413678845498 -0.11569310087539775 0.0964388394316297
0.05878763958458155 -0.11481735711677252 0.09610814148972364
0.06565726490176667 -0.14564267397841424 0.09769892615374705
0.06556180797186262 -0.1450179545136107 0.09755194786704613
0.06540159528837165 -0.14432052183557098 0.09699023836078816
0.06537419718334606 -0.14338222460994843 0.09684399695888092
0.06546167952739555 -0.14257362236447516 0.09709452943488008
0.0655579649603001 -0.1416271967612352 0.097239648526974
0.06561229026052111 -0.14070133785851918 0.09730719721006421
0.06567619329868 -0.13963124819257958 0.09747685102696942
0.06558929997472954 -0.1386463721914913 0.09733070803261878
0.06534046171745703 -0.1379174585430484 0.09678963760486323
0.0651635955084077 -0.13703790321074835 0.0967693674147553
0.06516268695053923 -0.13645957777982243 0.09716063456876105
0.06458613653962607 -0.13523138372073773 0.09685463801679767
0.0649286117017558 -0.13556732957922393 0.09729619632459961
0.06376356723206393 -0.13359308648687404 0.09689581400460019
0.064199587291721 -0.13401312137973267 0.09736082652623705
0.0645690700610451 -0.13480121922774183 0.09726779562750948
0.06384040930196795 -0.1332822655694783 0.09746831197066627
0.06346197306004074 -0.13283672430770602 0.09702195989706369
0.06324191683666841 -0.13213346380125943 0.09717368605789375
0.06275413878245335 -0.13076993430351574 0.09674300482774546
0.06305568514120923 -0.13136041975749332 0.09729235013581385
0.0628516629605126 -0.1304404710420068 0.09733296727931644
0.06257648120397676 -0.1298420719221639 0.09670601443547296
0.062493736097250105 -0.12866445753931602 0.09722085482865823
0.062318216714840176 -0.12772863169232396 0.09721279980882389
0.062239169811176255 -0.12700647809764096 0.09746566921373978
0.062148850066861126 -0.1262842925703147 0.09772126513243096
0.06165874227622135 -0.12458097534312602 0.09710644956254642
0.061949049892600146 -0.12530195755288737 0.09775001535415999
0.061734489316749505 -0.12430567524825402 0.09774703195015966
0.06143802209747391 -0.12356856455630148 0.09708412544350617
0.06122066518889685 -0.12255796315920703 0.09711713675671226
0.06112642383835322 -0.12180591434815767 0.09744177620739625
0.06096804193336527 -0.12092244857266096 0.09762592897343987
0.06077700240830496 -0.12004122506940701 0.09770247178737401
0.060554214528118336 -0.11909856704003609 0.09785331935646208
0.06030394234055816 -0.11814689046504376 0.0980846655110535
0.06007878124499085 -0.11745643028583518 0.09829455914046645
0.05943719150356431 -0.1161035541202655 0.09733600077243776
0.05977847076994368 -0.11677306609698386 0.09794491355049843
0.06600533785570314 -0.14610211345713006 0.09846707760193175
0.06590436694325724 -0.14578853020469182 0.0983685090906927
0.06562704573922654 -0.14443294680391425 0.0978221222645064
0.06587718201693145 -0.14504079155641322 0.09840963190220268
0.06579963254834176 -0.14408387212605384 0.09834754711916037
0.06559202166159117 -0.1434993938444135 0.09770373301429845
0.0657417110920471 -0.14232503431819027 0.09802961159348261
0.06575210961193828 -0.14134562977172557 0.09788309819985892
0.06584922779882217 -0.1405743029541073 0.09809249069613962
0.06595177821795783 -0.13979044133351032 0.09831176672898441
0.06561414863517073 -0.13802201506523504 0.0975834994055164
0.06590430647485897 -0.13871511924184438 0.0982063641597377
0.06578794675656793 -0.13768543897229243 0.09810187193011535
0.06546854465489568 -0.1371579022506014 0.09751138489851288
0.06541372549348771 -0.13618271725099867 0.09788361783938677
0.06535741951439743 -0.13524488892312422 0.09833989261160052
0.06457662452343566 -0.13433491158679564 0.09776041924803484
0.06490799315404526 -0.13466554786312376 0.0980291982965448
0.06372673822768085 -0.13274381309930922 0.09780852101573159
0.06411436593233402 -0.13307445540932406 0.09824000478726684
0.06465890960253744 -0.13381300395724666 0.0984276060333646
0.06381538463789424 -0.1323922615401907 0.09836068769875737
0.06346550425074612 -0.13197869861743428 0.09791449598061251
0.06327466169950219 -0.13123826972241104 0.0980499690350461
0.0627972406435696 -0.1296019212486015 0.09770573296564346
0.06311117800806515 -0.1304570837577107 0.09813283589789298
0.06274263598499677 -0.12875341197911092 0.09809346088155485
0.06303085416390203 -0.1292861058760322 0.09867088968537194
0.06284768763448632 -0.12837215433822363 0.09870308647722432
0.06254805848786692 -0.1277356655483204 0.09812271663905996
0.062357785374285976 -0.12677816042506512 0.0981606230869006
0.06226630001106541 -0.12604830858924906 0.09841711186339427
0.06216962676882298 -0.1253216125864866 0.09867229099356174
0.06166459398888813 -0.12366689195191581 0.09804369067825632
0.06195858566959775 -0.12435181637225307 0.09868507916506254
0.06173577625811653 -0.12333880835879601 0.09866165346910893
0.06144818589070872 -0.12272369978946385 0.09797456163474763
0.061294249504176807 -0.12158021565926744 0.09840155646067966
0.061058241175573555 -0.12063608125850962 0.09828536942290012
0.06090807114053086 -0.11985587646230816 0.09853269368946924
0.060678474670741334 -0.11891062636703346 0.098757906780409
0.060416441588317486 -0.1180490298350509 0.09888400082646591
0.06016349336396838 -0.11744522350835934 0.09875517273373892
0.0663385559325171 -0.14636764660453744 0.09907110645714193
0.06670499930339041 -0.14660053472551599 0.09966738213701605
0.06652545685786952 -0.14623004820706428 0.09946911624588992
0.066202953333815 -0.14582537947935312 0.09896951650000108
0.06631830592557979 -0.14492161524968997 0.0993787560128911
0.06590671493012043 -0.14324269255543826 0.09860741313500528
0.06611147711984926 -0.14405635115500456 0.09905535562785284
0.06603591492558485 -0.1424104700602417 0.09884773788907339
0.06630807124657376 -0.14295382050602035 0.09947660306095155
0.06627617246886634 -0.14198639302469998 0.09933081597411832
0.06601910549032124 -0.14147021071859325 0.0986561377528111
0.06614114518429758 -0.14045951786398272 0.09882854629312542
0.06620830768370449 -0.13953293279197998 0.09891514232736945
0.06628026895417125 -0.13870728744662617 0.09903999455889259
0.06580528154222022 -0.13683926706191205 0.0983645930843829
0.06617455014851421 -0.13770098260429056 0.09887880562188149
0.06579479504458735 -0.1358446059133988 0.09871380070461074
0.0662237136750503 -0.13649109681394034 0.09917296443030987
0.06573265807989638 -0.13503551993483331 0.09904460724503936
0.06624496772544843 -0.13533142514450483 0.09958621604714789
0.06588404693910362 -0.13461362871336427 0.09950925692450392
0.06538324100141579 -0.1342108486794741 0.09916821109106005
0.06495145391266995 -0.13339889909859326 0.09933977285610184
0.06453080336837125 -0.13293150258936237 0.09914977961411395
0.06373648508425239 -0.13183554863051017 0.0986972562470805
0.06409479898424245 -0.1321913157697909 0.09910499984148427
0.06384516102470406 -0.1314685343797553 0.09925327263727261
0.06350964802566401 -0.1310224807897957 0.0988023765132168
0.0633085569934361 -0.13005272835003587 0.09896339223121974
0.0633109087109971 -0.12933401356169394 0.09944632168053738
0.06280146469796857 -0.12770793545613984 0.09901799394222296
0.06311230600449698 -0.12829730115603544 0.09957382972841969
0.0629036795745702 -0.12734152323895792 0.09961237762350629
0.06259126245241842 -0.12673704370069305 0.09904549579816582
0.06238388648711524 -0.12578921841373417 0.09910088379856445
0.0622805353927616 -0.12506137919593419 0.09935245804389915
0.062174904677757215 -0.12433487217887791 0.09959623305076026
0.06163127687017651 -0.12249974266248195 0.09898447175282513
0.061962194684401416 -0.1234129587521164 0.09954576238884512
0.0615214378698009 -0.12168016869201752 0.09927517684176634
0.06180622233448807 -0.12224047048145188 0.09996377955672171
0.06157391083017855 -0.12131152701874533 0.09983555484527142
0.06127067567695058 -0.12075182263557105 0.0991292964631566
0.0610501730033615 -0.119702244408239 0.09943472356624702
0.06079488549211241 -0.1187143651454012 0.09970133982615911
0.06051230299065019 -0.11802214624690173 0.09946687716361795
0.06731738143696744 -0.14727764448815003 0.10048839896997117
0.06745457421803835 -0.1472217118874319 0.10079216904099976
0.06718374964610412 -0.1468635698904615 0.10041905875451673
0.06658046270518543 -0.14558333028147574 0.09975701820417686
0.06687253105036994 -0.1461836744208956 0.10010249394074754
0.0666419366211902 -0.14483113795961852 0.1000482419750922
0.06698142481927402 -0.14519859148678307 0.10056246774640927
0.0668608896135888 -0.14436405743492392 0.10048399322605692
0.06654717850709746 -0.1439701148075073 0.0999333048842597
0.06670653505389357 -0.14300131398009797 0.10022839513219932
0.06637046399137785 -0.14114606272374242 0.0994222341169213
0.06668459951801538 -0.14189166720437504 0.10012645916324849
0.06645463360232721 -0.14020463149585932 0.09948811138926505
0.06666732946751106 -0.14081715215010016 0.09998221459710728
0.06653930708040605 -0.13928342641481833 0.09957427225734611
0.06679725177245004 -0.13997493613562412 0.10012717564014142
0.06660494981775356 -0.1382858513522218 0.09962540538247042
0.06691580060091155 -0.138981829165477 0.10021694905977768
0.06664445092467157 -0.13718204508080276 0.09970749552686199
0.06707158869657738 -0.1378770105969286 0.1003724035055056
0.066675112580218 -0.1361004180302353 0.0999009818960948
0.06708324136552857 -0.136697750683148 0.10039793454735263
0.06668875275525749 -0.13545530838481756 0.1000770287601063
0.06710033059521885 -0.13559255934714584 0.1006061187907693
0.06582173186082492 -0.1342272184867748 0.0997037303938155
0.06622966763671259 -0.13435110477072243 0.10014356871297812
0.06667960561481938 -0.13492801754598877 0.10031673688369908
0.064865005128841 -0.13284901948459507 0.09980106412245475
0.06536157988330035 -0.13317522581604768 0.10018826378557524
0.06578731972250784 -0.13380964163591297 0.10005980466915713
0.0649692050462651 -0.13252824143809896 0.1003441421392757
0.06456217121661248 -0.13218997628977353 0.09999443556152969
0.06379391808260458 -0.13088588352452507 0.09960546589286397
0.06413499785980799 -0.1313063034129285 0.10000620396512729
0.06391717554093719 -0.13047820441564573 0.10020568537069253
0.06359801243998837 -0.13006267973595065 0.0997139119766502
0.063506008943682 -0.128900832920094 0.10027096405502905
0.06333551511349893 -0.12810403197469442 0.1003519516523037
0.06284310964297418 -0.12668051378990383 0.09992499188526817
0.06315767305593661 -0.12725448482644927 0.10045948849235081
0.06293282796353035 -0.1263136491694439 0.10051118588652523
0.06261366345740944 -0.12573511271626137 0.09995434090086958
0.062393890338272834 -0.12479518883484902 0.10001447825588587
0.062291084385398175 -0.12401825716984939 0.10030057549315559
0.062129645545729785 -0.12307121957920152 0.10052380918636936
0.06201989373633647 -0.12230110533981646 0.10078144856836115
0.061421281259355524 -0.12049123019662476 0.10007965690981942
0.06178825726915106 -0.12138402644710794 0.1006901281129291
0.06119757324730913 -0.11953155863047821 0.10035389084819217
0.061577575569346454 -0.12029534968474369 0.10099432940737366
0.06100537772560368 -0.11884570490370978 0.10056528678557049
0.061319922682583884 -0.1193279472641344 0.1012990938977732
0.06105284679943682 -0.11872414993388457 0.1010806508628024
0.060792888556009395 -0.11841053403485105 0.10026068288524256
0.06795746495314502 -0.14759385821832255 0.10170091525727548
0.06748329093908328 -0.14685879520015122 0.10100227867771976
0.06783312877095808 -0.14714807024275017 0.10158568691478677
0.06765419273178842 -0.14646740730324992 0.1014736355883701
0.06732068013926339 -0.14608106688585643 0.10095301126706244
0.0674607012382935 -0.14497189345348044 0.10140410283919432
0.06695356713985608 -0.14355717759923886 0.10067045138071612
0.06721639876569957 -0.14419579818668227 0.10108713573007198
0.0670351809217757 -0.14259175531071464 0.10081783151992865
0.06732769855624103 -0.14319559116642253 0.10134624516829654
0.06710768832849992 -0.14174512645190185 0.1009027191937087
0.0674198846118456 -0.14214016570388058 0.10150768492130718
0.06734381756406016 -0.1412659593602697 0.10130355625813285
0.06703624167587795 -0.14083196672318637 0.10066799381530364
0.06717595129579837 -0.13972050491145832 0.10077189569249603
0.06730156127580922 -0.13875628143033067 0.10083373991018267
0.06744656143756156 -0.13805596695088465 0.10097325025710031
0.0674545286818999 -0.13726814058135653 0.10093695781319245
0.0677533190171785 -0.13787185549908798 0.10147029917499278
0.06747865105428 -0.13631127775376758 0.1009909896047484
0.06782853500622271 -0.13690723650726958 0.10152692030426579
0.0674899473918812 -0.1357137688628381 0.1010712406372084
0.06780833877865519 -0.1358788119013524 0.10155347010369155
0.06665699285595451 -0.13444020434857806 0.10057493184531438
0.06708136850546093 -0.13459572139286338 0.10105464242516018
0.06748748707502604 -0.13522431716455466 0.10124049400178517
0.06580001438970849 -0.1333670285798352 0.10054520202161857
0.06613284216387076 -0.13363408541932686 0.10068397953403252
0.06659147925216555 -0.13402101929863688 0.10086865609973848
0.06485389705435583 -0.13203566429564734 0.10072223000671994
0.06526556583813212 -0.13236432459482003 0.1010184680532116
0.06592964740755958 -0.13291495410318763 0.1012797080447013
0.06498591044145062 -0.13162664316099013 0.10142846364962521
0.06456377406795705 -0.1314110459235586 0.10081653844831742
0.06384820299776818 -0.12966430452274344 0.10064700109879954
0.06423453754657174 -0.13040452410880504 0.10102255689495716
0.06376998591171036 -0.12884377213496034 0.10104313301596148
0.06407460515271855 -0.129235868502643 0.10159368387814822
0.06385908791729454 -0.12844485208076634 0.10159746840690798
0.06355267549517754 -0.12794612173257278 0.10108705575349636
0.06337373462478223 -0.12711524393051823 0.10119954112319678
0.0628598520644621 -0.12567046580615188 0.10080535742790657
0.06318588097540144 -0.12622590964442842 0.10135203881217879
0.06293147575349056 -0.12526497736206493 0.10136310184811355
0.06262579875704594 -0.12480236114393985 0.1007825277259137
0.06246481477043008 -0.12365998799665096 0.10123551757100838
0.062238927948969076 -0.12277643921336391 0.10120816630617213
0.06212663480723647 -0.12201299014898503 0.10144389233121656
0.06193489229923524 -0.12102974561068428 0.10165556437773665
0.06170215712405095 -0.12006827744282726 0.10186875497074269
0.06150193917684384 -0.11939833391029085 0.10211502673228127
0.061299066665026616 -0.11891987276602647 0.10206421659821316
0.06811270709884902 -0.14750064630399187 0.10204644094258304
0.06821836535876169 -0.14698509552386865 0.10240784447924658
0.06772006617493395 -0.14565524888966938 0.1017674560015858
0.06798458091506657 -0.14630888289252458 0.1021257738508106
0.06780420168677652 -0.14479731144277386 0.10204889011443222
0.06811277252624721 -0.14519328139297147 0.10257934172552416
0.06800260563583382 -0.14431988646684762 0.10249458671340675
0.06768986519711723 -0.14385030700780513 0.10195656973834961
0.0676339986091292 -0.14283485894325076 0.10192493465194398
0.06775286964821314 -0.14215910073243473 0.10215887620503922
0.06744031447721449 -0.1404074270922275 0.1013692508927996
0.06770358205345268 -0.14121880091314434 0.10198742463647874
0.06755414342180541 -0.13938000100180847 0.10138312449479223
0.06783065916443289 -0.14003911760776283 0.10202809163763965
0.06760994482713145 -0.13856549593664758 0.10131703557456498
0.06794002714329718 -0.1388286496444581 0.10196573632548582
0.0681788283311196 -0.1376929288013016 0.10218343529398888
0.06820923513244909 -0.13655587303512 0.10215008043598395
0.06820531525129517 -0.13561762696379184 0.1022572555973243
0.06750311299217554 -0.13475401039438864 0.10148893582624134
0.0678092058437012 -0.13505099546538868 0.10181723562848306
0.06645339754143911 -0.13347166047383272 0.1012750096232899
0.06694864453391769 -0.13380339598889102 0.10158038896693881
0.06754491044962256 -0.13430983535760074 0.10192958986847067
0.06624562722123153 -0.1324162928053179 0.10239238491650289
0.06558129538917505 -0.13187274025414808 0.10214337616171017
0.06665038501709729 -0.1331002707127739 0.10200605100699686
0.0650737619018868 -0.1311669693352352 0.10215005601678637
0.06468594620123697 -0.1308273923084457 0.10169598464633103
0.06446717213804991 -0.12981963361129106 0.10216151881325493
0.06427009146487675 -0.129084256837503 0.10228622447307383
0.06379705316758713 -0.1278466934874085 0.10187346506080808
0.06409260362681132 -0.1283278692186815 0.10237948158237624
0.06388093299026251 -0.12746640042240978 0.10241532616985492
0.06358503319267061 -0.12703868540051644 0.1018770453322227
0.06347685468852517 -0.12598978512825248 0.10240861767182866
0.06281797828719658 -0.12445159862539491 0.1017027747781115
0.06314763825825133 -0.1251707218673219 0.10210732861171823
0.062707953861794 -0.12367293591610505 0.10203008225596175
0.06302174158490827 -0.12414530876174823 0.10259783526346918
0.06276938391844118 -0.12329377358671101 0.1025640755765409
0.06246064701260395 -0.12281317221369879 0.1019624975402381
0.06228043540682952 -0.12175739559594345 0.10229097641825916
0.062055088414875385 -0.12067596813417207 0.10260888259251971
0.06175223769832276 -0.11980985972961564 0.10253755761413025
0.06155112332138867 -0.119189658577406 0.10278135427649197
0.061400707330511464 -0.11872153069300774 0.10298819054033254
0.06843251919841066 -0.14726551431694374 0.10276583553808574
0.06852934370138725 -0.14684154547397105 0.10307037613567531
0.06883623544091678 -0.14689223514501115 0.1036411184072872
0.06875145231132848 -0.14639614166424986 0.10358225464863006
0.06841539056281253 -0.14609052097666278 0.10299951001934367
0.06852870278430931 -0.14501321465803604 0.10342214857721466
0.0680495150728008 -0.14366249548322266 0.10267714508337575
0.0683222013016934 -0.14410947162946472 0.10316530611789304
0.06824846533241657 -0.14323187549614474 0.10313585562853457
0.06796128199040502 -0.1428420349756845 0.1025728543423978
0.06804260558015854 -0.14178726821538395 0.10271105406120565
0.06812187436215823 -0.14074172990808784 0.10271708782938038
0.06823677710915854 -0.13965978998201492 0.10269861245274267
0.06837320912351881 -0.13865459251382758 0.10270107723823341
0.06853347916751537 -0.1379508763237238 0.10281616928951214
0.06855376949512895 -0.13716373195685552 0.10273900085949163
0.06884224844412923 -0.13778425958577714 0.10329872241319633
0.06857693060342218 -0.1362160725814548 0.102762954495917
0.06892402060002674 -0.13684172523029878 0.10332005268816288
0.06852938462527741 -0.13543730024480566 0.10282166425429823
0.06894382098839758 -0.1357775590606224 0.10340845267977845
0.06865488504427424 -0.1349420983135333 0.10320624190595108
0.06816913426465034 -0.13473960460322518 0.10257047119275435
0.06786521714238666 -0.13396103156154074 0.10269426901491438
0.06731105654362296 -0.1334952699712517 0.10241561341380215
0.06601331350680485 -0.13196421890506002 0.10271593369618319
0.06636515363746319 -0.13204432602504226 0.10306725154944806
0.06701044067298757 -0.13260987400270197 0.10309884564371803
0.064880752308142 -0.1304469763125392 0.10255924737231048
0.06534612703952582 -0.13097010776166285 0.1028900346570045
0.06594765297817012 -0.13148599732121524 0.10321599076158888
0.0647252664708867 -0.12973258700582924 0.10294303891116849
0.06510815897188493 -0.13005233754855197 0.10346388620288512
0.06478965623503001 -0.129340484922713 0.1034878539190551
0.06446694509598251 -0.12891124669860596 0.1029986017485713
0.0642849755222688 -0.12816190959722087 0.10309301061981246
0.06379469357745468 -0.1266848192337798 0.10277898026338175
0.06411405124701673 -0.12742199398312812 0.10315735242849584
0.06369265951179844 -0.1258797361222266 0.10314084957964446
0.0639855532019715 -0.12631115895228434 0.10365043034286686
0.063759854942191 -0.12546925477630372 0.10367374152107603
0.06342998942540673 -0.12495850532049672 0.10313497600013655
0.06322576201974126 -0.12412304699514153 0.10324061373867333
0.06262875937399635 -0.12249756523737812 0.10284565439633135
0.06300957690927411 -0.12333738878287748 0.10330708544684623
0.062434962869707886 -0.12150995436125216 0.10316526292842255
0.06279990382518057 -0.12225161712790816 0.10371137948023916
0.062241697932773385 -0.12070117796872422 0.10342714223504121
0.06253410535771672 -0.12115893655373768 0.10408564616904065
0.062207434224472266 -0.1203134589755918 0.10394867542404042
0.0619225320573269 -0.11986768653418466 0.10330939649327307
0.06164676495731807 -0.119042471518639 0.10357721332682843
0.061434593436237916 -0.11861834185741368 0.10337161095753802
0.06929228358653369 -0.14690466873879232 0.10447659047226113
0.06879886692683813 -0.1456209330822467 0.10382127135365271
0.06918231758051814 -0.14617119684351582 0.10441146467771102
0.06881920297418712 -0.14485699640153835 0.10402593863815228
0.06909348580629186 -0.1450784192976268 0.10450244806487304
0.06898081072206325 -0.14437356759794281 0.10444445777012451
0.06870369124100631 -0.14418722226818553 0.10391889412504732
0.06832852106430069 -0.14239523827085063 0.10332216180785102
0.06860431632768836 -0.14317057309302286 0.10386087182064344
0.06841190170833734 -0.1413740895195723 0.10339668732229729
0.06874230336826205 -0.1419646544151734 0.104136644096176
0.06852277845480498 -0.14036243474583227 0.10340328820450344
0.06874723601125508 -0.14099084457404856 0.1039864365763322
0.06864681624723261 -0.13932576944678005 0.10335334705575142
0.06900516295001044 -0.14006280518308467 0.10419456946699011
0.06869482527894415 -0.13848410705102138 0.10320771152231971
0.0690724216498587 -0.13869994712728684 0.10388827330568107
0.06924183397197312 -0.1375708847614038 0.1038938112361871
0.0693261494501455 -0.13656496838659699 0.10391765088946114
0.06937517666600165 -0.13572354960241745 0.10403395767239769
0.06842524483787749 -0.13406367351882398 0.10338703858364519
0.06910887556341011 -0.13478796831326786 0.10392601281630545
0.06779395551610863 -0.13332828829892468 0.10321669507701162
0.06829449145172342 -0.13328311563318568 0.10382163112172728
0.06896568764803071 -0.13354895498781036 0.10434623318007909
0.06725433165396467 -0.13217615693314988 0.10389195957280623
0.06670419083635376 -0.13171042870533123 0.10385226919084824
0.06780072104671359 -0.132655808729377 0.10389206507018475
0.06842256301383022 -0.13287966079964325 0.10427831536486398
0.06615417766580331 -0.13106572945533482 0.10399820679553028
0.06564875325784689 -0.13067406435873807 0.10374760945189605
0.06551025923720069 -0.12989847557487846 0.10432977020562934
0.064698570479989 -0.12876677181960386 0.10377098088808616
0.06504941255792075 -0.1291413592433405 0.10420743525297627
0.06479048787594525 -0.12840358570350038 0.10428430217688502
0.0644782052433359 -0.1279533718259988 0.10381577612468454
0.06426920441328877 -0.12701872848691612 0.1039305452682745
0.06424414738653525 -0.1263461265899825 0.10435610546050751
0.06366732678697555 -0.12485392903325304 0.10392703306891188
0.06400559885474898 -0.1253481392521411 0.10446716293816348
0.06371705445355168 -0.12444499961470308 0.10443294509020333
0.06340323186965272 -0.12405120047538322 0.10386963259604677
0.063179267764378 -0.1229956525857723 0.10422948187643856
0.06294618671977473 -0.12198924623003544 0.1046086785799715
0.06274165731632529 -0.12106969458589782 0.10502134162088303
0.0620139665164194 -0.11962616011470972 0.10419421383415087
0.06236578957081479 -0.1202987628325842 0.10465703015902814
0.06191165470759282 -0.11915645576836001 0.104458399463623
0.06220850501933146 -0.11954908402825769 0.10498783124751725
0.06200043838396749 -0.11911304931066066 0.10481465635401613
0.06959491597427103 -0.147079815985306 0.1049697518547217
0.06960571272700834 -0.14666750142709237 0.10505352344878853
0.06991787133932056 -0.14683855329781437 0.10552050588253996
0.0696296489396999 -0.14597805359060204 0.10520781658317468
0.07004849476825371 -0.1461546222011219 0.1058632883989931
0.06981747342090376 -0.1454520385159386 0.10565406810126664
0.06947639217660745 -0.14525240481149798 0.10512283180024015
0.06896486098884025 -0.1436184018691289 0.1045535465330347
0.06935296889925677 -0.14412968594107076 0.10518304280307925
0.06898325663592489 -0.14269458373054622 0.10467844739100175
0.06923592494265847 -0.1431625042653176 0.10514392964914311
0.06908084618390575 -0.14194631340969016 0.10484863408910279
0.06935142080290528 -0.14229829218324413 0.10537825126040685
0.06930267826499076 -0.14159493860138597 0.10520917174572135
0.0690958016978603 -0.1411750320865852 0.1047090188121482
0.06950886609828173 -0.14047448492788747 0.10518615539977261
0.06949629429088185 -0.13934818386918735 0.10474353847807259
0.06985828314160242 -0.13969570196134504 0.10543228184662864
0.06958097653787647 -0.13826608444331556 0.10454139757398989
0.06993760535829649 -0.13883411617874988 0.10522517065880559
0.06967772862307645 -0.13723069315690453 0.10447306233889182
0.07003455882017641 -0.1378482272006944 0.10508333003714197
0.06973385503591041 -0.13623871175234756 0.10448320420575725
0.0701105559089388 -0.13683372890739184 0.1050264633105409
0.06969344505392606 -0.13525795290496392 0.10453191818790152
0.07014075921513437 -0.13580048188938115 0.10504576051228492
0.06958911148506146 -0.134259003944197 0.10468270717058135
0.07010730733990093 -0.1347605267152599 0.105146757188387
0.0695205602073384 -0.13359964871821714 0.10486349895457994
0.07002362232957032 -0.13364118864228358 0.10539030493721785
0.0671960011479893 -0.1318486687993856 0.10419832581345576
0.0676098426475255 -0.13203380996701908 0.10435207934985932
0.06819698362760701 -0.13232010644813086 0.10454197713600781
0.06880154638906794 -0.13261774569488466 0.10479315542927807
0.0694213456836186 -0.13297824731806393 0.10510330824292738
0.0660202320287669 -0.13043022242036564 0.10449610387340208
0.06660211441061968 -0.1309221062921559 0.10458935718166698
0.06726843919713309 -0.1314420324272416 0.10463413475405528
0.06797736847518408 -0.13172360975664954 0.10488454038923543
0.06853698060401842 -0.13201439971346488 0.105027381371953
0.06589024243737895 -0.12981269175658286 0.10492693248632969
0.06651863227614475 -0.13006336307983118 0.10527242086332031
0.06603506354927835 -0.12941779742491227 0.1053972614778661
0.06554438714189517 -0.12912830044165666 0.10503920091250556
0.06473681597724067 -0.12782494895567906 0.10457840727627982
0.06509201104038627 -0.12824373377007256 0.10497362338644932
0.0648697360050249 -0.12741919732125398 0.10511248857817712
0.06453753854283384 -0.1270311238855597 0.10463114133965706
0.0644205370857859 -0.12599782988288877 0.10505407216588199
0.06428939945595605 -0.12503216456124808 0.1054532867346752
0.06356125589795068 -0.12364486826308523 0.10472412298207308
0.06392850312545206 -0.12431894405946432 0.10512006876546703
0.06333312894697093 -0.12268983497400633 0.10509816013026041
0.06375184182363379 -0.12335299748993397 0.10556139901547458
0.0631045273187885 -0.12175714225665163 0.10544712529714834
0.06350250046709158 -0.12236554760720644 0.10594425533712389
0.06292352539475267 -0.12100215802694078 0.10570178707604885
0.06324581765549785 -0.12136477558981872 0.1062627853973638
0.06293591189333524 -0.12061244410080282 0.10616787929970886
0.06262463297777351 -0.12025622933397402 0.1055655520426577
0.06254358933246537 -0.11969068643476938 0.1058916082544334
0.07035816161856971 -0.14658807871613452 0.10626028972282253
0.07065527100207429 -0.14660080117707505 0.1067451408663105
0.0703876964889188 -0.14625696870486968 0.10637904248026453
0.0706113203647721 -0.1462658574574727 0.10676356028601966
0.06978830632654452 -0.14465325089062897 0.10582037799353008
0.07013794390194704 -0.14516236665721235 0.10627781629646882
0.07043776952464556 -0.14572472664109737 0.10661263827758588
0.06977206859788233 -0.14385110871785642 0.10599282273598452
0.07018122015412148 -0.14409381211220554 0.10667792344892953
0.06995229229724598 -0.14333235760393948 0.10640602204851184
0.06960409894068602 -0.14308078281400663 0.10581876853150564
0.06969404333777891 -0.14222887043033414 0.10600203177654992
0.06938010319597492 -0.14116321889804026 0.10523839795794583
0.06966423358841008 -0.14139651402121634 0.10575670626501216
0.07010521886627177 -0.1404181805937602 0.10610496043266325
0.07024951837527778 -0.13934684752149723 0.10587371827324911
0.07051470772065865 -0.13970609923712174 0.10643328623900537
0.07037426717084985 -0.1384148527279411 0.10571398112964771
0.0706619177970493 -0.1389378844439534 0.10633795045712136
0.07047709391774203 -0.13742544337580434 0.10561455390593509
0.0707998712316483 -0.13800836454080392 0.10623757424224638
0.07053968065945193 -0.1363901730327263 0.10558937736179927
0.07089951179944456 -0.13699422383093074 0.10617872345036321
0.07056032220202954 -0.13531912610788968 0.10564238318678328
0.07095809607160587 -0.13592129831121402 0.10619238217792641
0.07051213314681451 -0.13430797717569648 0.10574017415119012
0.07098500501708009 -0.13475264118496844 0.10632227958014465
0.0704712119690098 -0.1336855476483145 0.10584651439118509
0.07079321017749594 -0.13374435677460655 0.10626412558945252
0.06916887011252273 -0.13199481960776394 0.10550117527008747
0.06991984179649434 -0.13252082747643182 0.10582665020408312
0.0704637215401902 -0.13307953944882803 0.10610470936807653
0.06711122820798333 -0.1307036329173828 0.10517758522604038
0.06777849327049543 -0.1310648902828354 0.10528829209354452
0.06847922325829567 -0.1314227742881237 0.10542783061181688
0.06903365688818687 -0.13108267331906065 0.10599633198083147
0.06984950590124116 -0.13135381650127947 0.10642868233424566
0.06706434122135392 -0.13024255879841096 0.10552687720159953
0.06754791068539379 -0.13039694334954427 0.10567585930062356
0.06832244816079198 -0.13063350700415183 0.10589452389108464
0.0688986062068393 -0.130460653616852 0.10631498450178074
0.06937038166618856 -0.13062127678683205 0.10650904714183351
0.06589745560523931 -0.12889924259707958 0.10564829546629681
0.06649764565499486 -0.1290704158879578 0.10599473783421977
0.06715696227245248 -0.1297423332469263 0.10593283399424401
0.06792845151920134 -0.12991609059500162 0.10619959461576738
0.06854826611140402 -0.13005956322725862 0.10640271229872655
0.06600818459594764 -0.1284515082803663 0.10604577355000455
0.06557356381452015 -0.12831950897111621 0.10565650150606917
0.06480164786116589 -0.126594125438461 0.1054881691999505
0.06525936129862689 -0.12733556350092917 0.10581102785663825
0.06466278899356809 -0.1256129583697368 0.10585708210525827
0.06514021971392141 -0.12612050671650166 0.10636922435958611
0.06451189104440316 -0.12483725527013262 0.10611804994074595
0.06484601406756806 -0.12508677440605517 0.10657275217887686
0.06458265401566907 -0.1243753254434 0.10658938940079905
0.06420655220052075 -0.12407971691558117 0.1060237937028865
0.06395076221982662 -0.12302115329992337 0.10640692692287362
0.06369570721613656 -0.12198870148468473 0.10680441219397786
0.0634280945774395 -0.12127859630576916 0.10684954100826836
0.06279897059767722 -0.12000914193420037 0.10635205791422049
0.06318531273787846 -0.1206445802167476 0.10681294161762955
0.06272860807658308 -0.1196507304360327 0.10645207408231366
0.06300397205778781 -0.12001369575761454 0.1068575035107244
0.07076842903823781 -0.14626749999989108 0.10703626517073686
0.07050121209046352 -0.14484656690669606 0.1070219738482171
0.0707548355498672 -0.1454528261055931 0.10727957012301388
0.07052248296967313 -0.14422760787647126 0.10728023209593464
0.07083671623512072 -0.1443336311786802 0.10779420848576027
0.06996348273152031 -0.14260194703492363 0.10646647962016795
0.07026131517697173 -0.14307269117763277 0.10697113619224574
0.07055347247270131 -0.14361388094876648 0.10745913343373545
0.06999841931802071 -0.14179361039158966 0.10642994600228387
0.07031648624672357 -0.14216539494977515 0.10702224035908356
0.07003193176616297 -0.14119939908025336 0.10630919134887426
0.07036563554876453 -0.14119949972091314 0.10685111903996383
0.07061463682910263 -0.14030392820479193 0.10689943671785634
0.0708760168316614 -0.1394899960287296 0.10693937212994997
0.07100232775670248 -0.1401463549478318 0.10755160692695781
0.07106313183781673 -0.1385953019947217 0.10688231168762567
0.0712396192153974 -0.13922859557808212 0.10755099773140105
0.07120151920867268 -0.13761344245713858 0.10681440983181809
0.07141965740172712 -0.138253948547105 0.1075005913331012
0.07129075914271822 -0.13657020451899005 0.10679201545210368
0.07154901513128548 -0.137229611635504 0.10745609508875872
0.07134143249873177 -0.1355047299111981 0.10684736484110488
0.07162095316429899 -0.13616765562413294 0.1074696989961669
0.07137038221068683 -0.13464989107670072 0.10695550260802612
0.07165589540997132 -0.13503460785287716 0.10758276783089357
0.07152080936648664 -0.13415695666765437 0.10737998221572775
0.07121084263064388 -0.13388453149879956 0.10685688610003054
0.07045403956307865 -0.13211145864176188 0.1065722520581744
0.0709762988421779 -0.13282429782000374 0.10690592876506799
0.07043018645351452 -0.1314324328367195 0.10690152183014892
0.07090543692059435 -0.1315132847458744 0.10747557724325042
0.06913673896684923 -0.12989507066080733 0.1068540891493648
0.0698189233593988 -0.13030526495454506 0.10706563769528848
0.07038459662140638 -0.1307880613546283 0.1072738241476029
0.06707327297547053 -0.12916339091793594 0.10629301574687054
0.06759407770362343 -0.1292376617776393 0.1065033641345348
0.06840952735891634 -0.12936734156968438 0.10681404236035459
0.0690431581697973 -0.12916349801755836 0.1073131616555524
0.06971748262426206 -0.12928773377779118 0.10773156319004862
0.06583089240693069 -0.12773748586557687 0.10629051027022815
0.06640033837828073 -0.12813403457433548 0.1065316256741181
0.06711800247194184 -0.12854496508507582 0.10670920939745057
0.06793041369823972 -0.12862261849262877 0.107073991654463
