# .PCD v.7 - Point Cloud Data file format
VERSION .7
FIELDS x y z
SIZE 4 4 4
TYPE f f f
COUNT 1 1 1
WIDTH 790
HEIGHT 1
VIEWPOINT 0 0 0 1 0 0 0
POINTS 790
DATA ascii
0.05911586013609728 -0.11845101596951563 0.09258276932887202
0.05893907233286081 -0.11751518671977344 0.09277818718408569
0.05878899530475895 -0.11665363788304552 0.09297565535540574
0.05862381902321695 -0.11586644184345943 0.09323234079169054
0.058487824779707716 -0.11520202712960234 0.09357725869651376
0.058411485083864394 -0.11466939109068845 0.09398426156256881
0.06465113435629853 -0.1457548380165739 0.09305748971029439
0.06465708415045288 -0.14515836705801585 0.09304350747018304
0.0647195614889157 -0.14449492864317381 0.09334869868888734
0.0647753178546632 -0.1438180373568004 0.09365309451580232
0.06469394366838317 -0.14201620019336278 0.0929271165007993
0.06478435649914245 -0.14281376354590666 0.09363138972352435
0.0647683138830541 -0.14177963113304176 0.0935358307403953
0.06462786481946169 -0.14110122897737717 0.09282087323243433
0.06463305607751825 -0.1400390266692428 0.09326227551665368
0.06453047798947445 -0.13914530971187997 0.09319527725266508
0.06452756409674065 -0.13855407472704426 0.09352702044828196
0.06405489394751457 -0.13702729663412092 0.09304775234984523
0.06435888713033873 -0.1376343093632414 0.09358044409916906
0.06415184959152345 -0.13678362294422794 0.09365837032793171
0.06382827154018923 -0.13624152500617887 0.09319786586761664
0.06316413913505503 -0.13478004658532575 0.09281507681018417
0.06346385782238206 -0.13538226870657383 0.09307372862228888
0.06331040431205211 -0.134653287626505 0.0936062072811072
0.06290039588387752 -0.13399374986681348 0.09292979480067087
0.06268691597913106 -0.13309970397487858 0.09342153378167857
0.06248469995008086 -0.1322470831357421 0.09376937750669805
0.06219090086769961 -0.13148866467952067 0.0930505398767185
0.06204446245477751 -0.13062320306529662 0.09324779980246446
0.06191918527127888 -0.12975348903425613 0.09338392158079843
0.061803617262691804 -0.12887993996470537 0.09350460561339527
0.06168802231540582 -0.12799048727120427 0.09364366773955617
0.06155728962038522 -0.1270802877457792 0.09381460632159887
0.061409195684375396 -0.12616002473130886 0.09400673010842475
0.06111504792517794 -0.125371658201352 0.09322093552494293
0.060947526303507464 -0.12450851054111202 0.09342850669369028
0.060778270985120494 -0.1236844178367311 0.093622874777116
0.0606085952282649 -0.1228898738422177 0.09381196016154299
0.06041704935671419 -0.1220502072428357 0.09396141924456997
0.06021010621754858 -0.12109428943820004 0.09411819193181116
0.05999468311131846 -0.12007899893357582 0.09427261706821499
0.05957832624435044 -0.11929247439718944 0.09341188598226519
0.05936147590362376 -0.11829591957838403 0.09353482245977725
0.0591767976156012 -0.11740009326633466 0.09366127731342362
0.05900368703335566 -0.11654240148613443 0.09385480163443305
0.05877079913703685 -0.11569477407818288 0.09405191410484695
0.058561456900812665 -0.11494045111118846 0.0942672997489803
0.0584591670279723 -0.11446655304883704 0.09453742807628816
0.06475402147398401 -0.1458127850483617 0.09392443813970477
0.06481481144872359 -0.14569928738382112 0.09440194413529597
0.0647773183184446 -0.14528751508264015 0.0940298215159199
0.06480771300029095 -0.14443208805982757 0.09410612564152294
0.06484777698029995 -0.14374270395944375 0.09440644398584448
0.06490506874955757 -0.1429854292617895 0.0946632228547657
0.06479798899161894 -0.1409901261440325 0.09383526501394708
0.06490347022864872 -0.14197535335605505 0.0944948798603686
0.06482795539968733 -0.1402027703147251 0.0941591311868971
0.06496110856145064 -0.1408759100729257 0.0947928032899933
0.06495721337247999 -0.13989002883447074 0.09491486951214088
0.06473648425661709 -0.13927427466898804 0.09404305555957658
0.06466898367881262 -0.13831096008384472 0.0942633049436068
0.06459401680934229 -0.13760884402527324 0.09448251396222071
0.06406626250991027 -0.13623645028139642 0.09404753321778418
0.06437907860189723 -0.13684267450280432 0.09446341616234351
0.06417583559268368 -0.1359306647600145 0.09485653536832953
0.06375716890617963 -0.13542486577119042 0.09409568652106755
0.0634868693124091 -0.1344665543299193 0.09464077215248881
0.06306714390861018 -0.13381037208250374 0.09404308466402893
0.0628273240362362 -0.13294583454304282 0.09446333778805159
0.06260167207071472 -0.13208368383207292 0.09476213686634291
0.06230539803722602 -0.13137877240117923 0.09402592711498467
0.06214975922766502 -0.13050100763828448 0.09416478147231945
0.06202636886581252 -0.12965140170358266 0.09426520113752954
0.06192034579639409 -0.1287993997446497 0.09441553196765184
0.061812597623441864 -0.12790279207081418 0.09459565311706339
0.06168586721313317 -0.1269629958816991 0.09481229525429524
0.061535096140508214 -0.12600110047222807 0.09500251867325635
0.061248489703057456 -0.12524267758951954 0.09420944013457992
0.06106974246725038 -0.12436079686735511 0.09435293995763139
0.06089512662802516 -0.12354337191555027 0.0944918254059639
0.06073858774772998 -0.12273427875610954 0.09468368723272369
0.0605712742759075 -0.12185389627426577 0.0949032092287474
0.06039740242010975 -0.12082534236244642 0.09521476569538266
0.060134075959819684 -0.1198509793883189 0.09509296303008717
0.05979047661681964 -0.11903276192114753 0.09446241766431457
0.05950785839667209 -0.11807879081012583 0.0942828258245614
0.05938020416662596 -0.11733706503755097 0.0945404531403282
0.05915271171456542 -0.11641090239856138 0.09475964685365013
0.058864010026903446 -0.11550439528731049 0.09489251368827116
0.058632878910142926 -0.11474828642131828 0.09501832819386051
0.058522999931801475 -0.11431775842277606 0.09525031627846503
0.06489135706496767 -0.14533892404696175 0.09491498249390604
0.06506494797625507 -0.1450891162293482 0.09595808359461737
0.0649131466607875 -0.14463077097682456 0.09499978930023822
0.0649662459239478 -0.14366517576813517 0.09531698847727069
0.06501437141893315 -0.1427054210813949 0.09543961179589734
0.06506089891237046 -0.14168989274795984 0.09556724045950715
0.06513723925897895 -0.14057820697546017 0.09581415649912223
0.06510203099562008 -0.1396079705577475 0.09565311144204691
0.06492869373370126 -0.13886678479425688 0.09507537200276739
0.06479082370998764 -0.13802299033251395 0.09495843690329006
0.06470523122504657 -0.13733114673377667 0.09520911404147385
0.0645439339801424 -0.13646519119828188 0.09548349009324444
0.06434054008657267 -0.13559456188535454 0.09584416794142067
0.06392722884698668 -0.13505236548289348 0.09525939153697614
0.06365390739021703 -0.1341806458477285 0.0957008623463098
0.0632221555434703 -0.13358851114335202 0.0951141032953205
0.06295890034255681 -0.13267033132408024 0.09557508202831866
0.06269438392183672 -0.13188504222741648 0.09557232219431627
0.06242146017299498 -0.1311649702710568 0.09505449697114335
0.06222797269890929 -0.13029075026956088 0.09491746807087921
0.062146843918320906 -0.1295728436137116 0.09512797601077941
0.06204674554960206 -0.12870970025823097 0.09530908036334867
0.061949254850024824 -0.12779720094278452 0.09556262267451558
0.06183347349539579 -0.12675787680781128 0.09590795822769478
0.061640249758339684 -0.12580471640858742 0.09583521643696206
0.061370578331415584 -0.1250075238692818 0.09526289950620524
0.061147820736991265 -0.1241210478953674 0.09512201923231836
0.061032433783216565 -0.12341704345874632 0.09536013423166896
0.06088447467617298 -0.12259153913170934 0.09555856285286674
0.06074306001364486 -0.12175828669769061 0.09582396398319112
0.06064590492044713 -0.12103886017092153 0.09613567049336703
0.060053527072346125 -0.1192500000453181 0.09536793446029494
0.060399970335200025 -0.12001868283513996 0.0960765356082414
0.06012415439868619 -0.11898398834107407 0.09594691484332825
0.05978299980571279 -0.11830950876252494 0.0951907444500605
0.05956447954701248 -0.11726668134462438 0.09549241330091617
0.05925008575664962 -0.1161847530791622 0.09577871259940444
0.05889621554672442 -0.11525699836624631 0.09558869273086519
0.058705219651569926 -0.11464083693861832 0.09573984181421982
0.05858404855085003 -0.11428271406365523 0.09577310513602964
0.06526965287544152 -0.14535837750079927 0.09685325531741748
0.06524855829735604 -0.14494914661665134 0.0969094543057337
0.06507854123252327 -0.1443668941988908 0.09609631553090656
0.06511202416711923 -0.14341373193880785 0.09621927148353082
0.06515061428390655 -0.14246330572560553 0.09632769125267678
0.06523091498496267 -0.14152356778930916 0.09650560388311097
0.06532100506503993 -0.1407259778929226 0.09672733168151844
0.06513352005964865 -0.138991361201555 0.09595106612209532
0.06529213993412931 -0.1397648281020083 0.0965444451133855
0.06528789181864766 -0.13869746856513962 0.09669078561422553
0.06500143698210353 -0.138077498908221 0.09582735118097595
0.06488327907519098 -0.13705813091795224 0.09610854128429654
0.06474426768945145 -0.13610141057073347 0.09648442189929748
0.06450615811849278 -0.13533518151408316 0.09659948621664685
0.06415093342880106 -0.1346774031205814 0.09644579270140588
0.0637815778909775 -0.1338764653313853 0.09654439779344151
0.06338722081138368 -0.13330438209510778 0.09619656085514498
0.06314855963902116 -0.13266562176779498 0.09634480925113992
0.06262903021641848 -0.13134616502179913 0.09591587202039754
0.06293763056865204 -0.13194968052849265 0.0964642424931625
0.06271558948700458 -0.13110939581300993 0.09650273796237135
0.06243715473159219 -0.130414032329987 0.09588621049445273
0.06226135254764932 -0.12941569560036742 0.09587442239033889
0.06221140078288786 -0.12863315284399768 0.09622185295865607
0.06211333434200396 -0.12769797039109945 0.09650788327997525
0.06204125232593453 -0.1269554137675715 0.096804406284756
0.0615791421114566 -0.12521131277985736 0.09617878148007081
0.061856645047443946 -0.12596568290612126 0.09682927381220521
0.06165220110587055 -0.12497761812397833 0.0968208954138458
0.061360527013168284 -0.12421865966446867 0.09614607379117614
0.0611403121289136 -0.12322418111374626 0.09612795695662765
0.06103719972029697 -0.12249734752281986 0.09641299427017826
0.06090611330136782 -0.12168503818560392 0.0966499449133819
0.06076290534222723 -0.12086130249957361 0.09684947726824784
0.0606372864027747 -0.12011481344233181 0.09704532182231215
0.0599598254656002 -0.11815696138439362 0.09619483810802787
0.06036626550571893 -0.11914872124141769 0.09686642943430573
0.05970840401755683 -0.11716281724303644 0.09647928749632628
0.06012327964498485 -0.1180433791671352 0.09716833496342807
0.05946381571403837 -0.11635876069644774 0.09671792217906154
0.05982349669672809 -0.11701434860764594 0.09746649061539445
0.05948324899052857 -0.11615726721939189 0.09726114031786567
0.05910838893575279 -0.11548715912417372 0.09643673876842254
0.05875438489584846 -0.1146167406682262 0.09610283024558791
0.0655380279717172 -0.14534203025895553 0.097810965825581
0.06544343183827614 -0.14472480179154512 0.09766194198608105
0.06528189881066075 -0.14403602979320598 0.0970989826680598
0.0652521460933411 -0.14310537303061602 0.09694973171226386
0.06533823162561819 -0.14229859788908045 0.09719738461167317
0.06543340562057623 -0.14135282619126366 0.09733909575902422
0.06548821841627236 -0.14042806296908245 0.09740286024020081
0.06555535509839136 -0.13935983020955883 0.09756714483129683
0.06547160258376444 -0.1383782686084634 0.09741580207245527
0.06522480243150584 -0.13765386178201208 0.09687027433169705
0.06505085226227131 -0.13677689722737138 0.09684620017662399
0.0650524880639833 -0.13619908888205257 0.09723548727726093
0.0644798728583014 -0.13497545918518622 0.09692377769703096
0.06482192187606639 -0.13530930168738237 0.09736729767052575
0.0636634267892961 -0.13334056753717957 0.09695877163004198
0.06409872543996631 -0.13375877601510516 0.0974258999378955
0.06446516093191967 -0.13454528431314375 0.09733575855672577
0.06374213094067625 -0.13302906275667373 0.09753105622989343
0.06336453896632045 -0.13258526904156234 0.09708262300059117
0.06314706599792684 -0.13188282962331627 0.09723241728553804
0.06266354128258439 -0.13052319810399976 0.09679630659074569
0.06296367097072501 -0.13111119165229917 0.09734861220696271
0.06276287008096616 -0.13019301851077852 0.0973862476029132
0.06248904711619425 -0.12959746664544514 0.09675616131301791
0.06241063070355716 -0.12842121695616882 0.09726811034508409
0.062238315605861703 -0.1274876939039757 0.09725681790277527
0.0621615719459031 -0.1267664189106557 0.0975079403371499
0.06207341849467695 -0.12604531764311466 0.09776167629987145
0.06158732116055666 -0.12434762368926523 0.09713930435423603
0.061876295257498465 -0.12506520657422693 0.09778703822998527
0.061664109596134234 -0.12407084276272916 0.09778068811535467
0.06136932565805655 -0.12333673840688879 0.09711362223816515
0.06115504432322028 -0.1223273354393564 0.09714328727187287
0.061063748204229835 -0.12157543319278646 0.0974665720398937
0.0609093798095836 -0.12069311430004882 0.09764850487544713
0.06072253877226665 -0.11981403885447209 0.09772215217050163
0.060504777402743556 -0.11887412398955526 0.09786960890023241
0.060259343613996826 -0.11792528686643176 0.09809780581392127
0.06003776203860484 -0.11723718033818543 0.0983052151565948
0.05939974829820217 -0.11589290232765823 0.09733808334222918
0.05973926094969093 -0.11655755821184342 0.09795165260799944
0.06588256353885899 -0.14579466149187148 0.0985795309627363
0.06578352327738664 -0.14548428300859573 0.09847958475935782
0.06550788278514155 -0.14414492569379414 0.0979293534334307
0.06575684645370458 -0.14474446977556163 0.09851815904052603
0.06567917265310179 -0.14379647825503789 0.09845326381852439
0.06547114337924728 -0.14321825201400912 0.09780863151403502
0.06561850965238779 -0.14204568607300896 0.09813169272389771
0.06562787387879582 -0.1410683875520287 0.09798220576795288
0.06572618479872724 -0.14029757648972604 0.0981886471484417
0.06583123893830356 -0.13951474436277794 0.09840430326931539
0.065498934204856 -0.13775521493100754 0.09766587093260079
0.0657872837989033 -0.13844354288799562 0.09829326498533722
0.0656746618513948 -0.13741815793646256 0.09818334355830279
0.06535642535139809 -0.1368942475638219 0.09758963606346956
0.06530564966914429 -0.13592104482244785 0.09795820422367464
0.0652541370862047 -0.1349850030265149 0.0984109462982174
0.06447532648746654 -0.13407884888150615 0.09782726915897683
0.06480605889932849 -0.13440792957041983 0.09809775328324175
0.06363082678434082 -0.13249091900020052 0.09786993476850525
0.0640181259478434 -0.13281995760662846 0.09830320299176012
0.06456076987617819 -0.13355662149166098 0.09849349178961699
0.0637214460159407 -0.13213885173122222 0.09842182678161998
0.06337212085385334 -0.13172685332413903 0.09797380469120981
0.06318391842583596 -0.13098754701935827 0.09810716114125892
0.06271160338524608 -0.12935529403367682 0.09775701749889157
0.06302328540459101 -0.13020779268589328 0.09818751809503182
0.06266027101979504 -0.12850765112137325 0.09814268371544486
0.0629475371619528 -0.1290379072884167 0.09872275420492564
0.06276721135825847 -0.12812569923674055 0.09875220355433285
0.06246894162070394 -0.12749224032854856 0.09816859252616501
0.062281411790852996 -0.12653683281095143 0.09820355107330399
0.062192254520211904 -0.1258080474774803 0.09845813703246051
0.06209771647975029 -0.1250820996791066 0.09871163214476482
0.061596199335057666 -0.12343188457353507 0.09807624314779961
0.0618893159831494 -0.1241137751735975 0.09872138090237022
0.06166920860121347 -0.12310199997787798 0.0986948636587889
0.06138286985545071 -0.12249004081331771 0.09800398681626012
0.06123441397606461 -0.12134679520332775 0.09842868249481874
0.061002195509329386 -0.12040516906348808 0.09830942024579463
0.06085691440324437 -0.11962686635985943 0.09855445626786054
0.060632718921723075 -0.11868441866752893 0.0987764945495101
0.0603747911031085 -0.1178257816215212 0.09889931034069865
0.060123816578541045 -0.11722485912366622 0.09876728058428241
0.0662110711959556 -0.14605658676872202 0.09918498408917958
0.06657357565748265 -0.14628709788983885 0.09978355737334513
0.06639695262593147 -0.1459199819510601 0.09958245585544581
0.06607866649755997 -0.14551970288946983 0.09908062297520535
0.06619436145306123 -0.14462282495903608 0.0994868599017374
0.06578459781270633 -0.14295803966540116 0.09871161438250867
0.06598904136559106 -0.1437651282852333 0.09916128900581467
0.06591247751730421 -0.14212636610267104 0.09895072716452798
0.06618444511642303 -0.14266431188584816 0.09958159703778155
0.06615251371956452 -0.14170003265589623 0.09943373391988769
0.06589538327819022 -0.14118897352352267 0.09875644486629077
0.06601931921493231 -0.14017954040127675 0.0989250293378308
0.06608927487779621 -0.1392551377663465 0.09900750741964684
0.06616442434859712 -0.13843219720906189 0.09912831256565395
0.06569561867656339 -0.1365740518743885 0.09844257838284291
0.06606248254637812 -0.13743063629605498 0.0989616650251976
0.0656900261705008 -0.13558165278720213 0.09878782164599495
0.06611730831505623 -0.13622414673960298 0.09925057562029817
0.06563198695235264 -0.13477431045614685 0.09911564926736653
0.06614450975172934 -0.13506716386358172 0.09965943543458873
0.06578618472455337 -0.13435228408861954 0.09957939146289296
0.06528573144435512 -0.13395168528335802 0.09923649298876082
0.06485654391458893 -0.13314135767875476 0.09940566324105832
0.06443671295343978 -0.13267543314478691 0.09921382958975046
0.06364486918478915 -0.13158239448223538 0.09875720933207993
0.0640027765473587 -0.13193679308635106 0.09916662501662214
0.0637555127907881 -0.13121492517480585 0.09931296638273267
0.06342070946856958 -0.13077043090161858 0.09886016233669004
0.06322322000592626 -0.12980227977638742 0.09901823776378904
0.06322851207445276 -0.12908383768976897 0.09949974788885255
0.06272350430136697 -0.12746224633154077 0.09906546518162676
0.0630331883391378 -0.12804906040399844 0.09962413411526014
0.06282762148751948 -0.12709522178069685 0.09965964153349192
0.06251612968628643 -0.12649340739748005 0.09909000349251736
0.06231136072467579 -0.1255476747963461 0.09914245574180933
0.062210264356702884 -0.12482046428917679 0.0993923210601522
0.06210713009699975 -0.12409408693140328 0.09963445667872559
0.06156873406882524 -0.12226262327934945 0.09901586761062302
0.06189738044490122 -0.12317299196313261 0.09958111881093212
0.061463560349542506 -0.1214428300373678 0.09930474378630495
0.06174767844675763 -0.12199977784094199 0.09999597987839552
0.06151969320661065 -0.12107278779580444 0.09986474540417434
0.06121708391806377 -0.12051770730217376 0.09915557595122951
0.06100349060051122 -0.11947103378084684 0.09945779538518998
0.06075404154112364 -0.11848627767413077 0.09972105755365104
0.06047328456517006 -0.11779748306274948 0.09948347195664337
0.06718025095008949 -0.14696126287578484 0.10061141740018659
0.0673175227492452 -0.1469049131891914 0.1009159721308922
0.0670487748248726 -0.14654866340671052 0.10053917146770368
0.06645348361492705 -0.14527800445257052 0.09986777239187486
0.06674167391729237 -0.14587295520699323 0.1002173450443624
0.06651565556058268 -0.14452981272911652 0.10015720446293314
0.06685254660201319 -0.144892401253056 0.1006747092855175
0.06673395732363932 -0.14406282328505662 0.1005937234631183
0.06642229060433666 -0.14367412314247635 0.10004069611201535
0.06658194742207714 -0.14270683832127928 0.10033530609299869
0.06624785842135217 -0.14086128761957684 0.09952252462741722
0.06656156165753184 -0.1416007485711529 0.10023068497876261
0.06633443554728834 -0.13992227109366479 0.09958441318649389
0.06654629697718165 -0.14053020338115763 0.10008229041535904
0.06642224252404391 -0.1390038995799894 0.09966636840613928
0.06667899239013073 -0.1396903433711307 0.10022360720090374
0.06649202079764381 -0.13801017189548428 0.09971232186516235
0.0668014038666982 -0.13870085203739357 0.10030845358948914
0.06653625792905846 -0.13691017128152694 0.09978923661619028
0.0669620090573136 -0.13759971399673887 0.10045862121803813
0.06657232243033973 -0.13583218477168782 0.09997787648947128
0.06697910280370535 -0.1364252873926712 0.10047831747511742
0.06658906328470804 -0.13518888320633782 0.10015145284824674
0.06700169292123667 -0.13532386786045 0.10068177565145696
0.06572565087967416 -0.133966613022481 0.09977270845906215
0.06613428909029834 -0.13408862254023934 0.10021375968529314
0.06658257731705927 -0.13466278277946153 0.10038942025107286
0.06477267675021973 -0.1325917866705278 0.0998657640474759
0.06526942552623262 -0.13291629222927276 0.1002546494860049
0.06569335707521545 -0.1335493137006773 0.10012792225003656
0.06487884773166176 -0.13227049478856817 0.10040877112713147
0.06447189276842917 -0.13193368606237066 0.10005741487857953
0.06370667597870805 -0.1306325661655381 0.09966396141715804
0.06404721880071956 -0.13105162339082668 0.1000664996601974
0.06383237293433858 -0.13022453264397515 0.10026374528830091
0.06351374291663128 -0.1298105308614749 0.09977003705370491
0.06342610133698881 -0.12864967786087805 0.10032443571251966
0.06325800493150477 -0.12785428145193792 0.1004030959634576
0.06276925755757912 -0.12643478696438895 0.09997084696354165
0.06308293123386315 -0.1270063219178726 0.10050800218355856
0.06286099854031349 -0.1260672691248256 0.1005568498161194
0.06254257809370846 -0.12549117488085698 0.09999740489922294
0.062325486731414644 -0.12455265003075987 0.10005481273365574
0.06222559138109049 -0.12377553375998085 0.10033906326570367
0.062068460038895504 -0.12282803979601023 0.10055949988857533
0.06196304194695126 -0.12205742107076295 0.10081465354792582
0.061372971250937346 -0.12025454371599889 0.1001059209143265
0.061736500751071156 -0.12114256396991133 0.10071960898102027
0.061155506111270436 -0.11929799400376058 0.10037673282310251
0.06153351410721846 -0.120056334118942 0.1010193678870706
0.06096750282070932 -0.11861472125911199 0.10058564800501543
0.06128192534095033 -0.11909237929083345 0.10131997018772201
0.06101734793586624 -0.11849219075589713 0.10109973289842814
0.060755777836772024 -0.11818224813832466 0.10027963038729604
0.06781868488796104 -0.14727326008273697 0.10183173589033719
0.06734733516033077 -0.14654282419893838 0.10112461053227124
0.06769605761050199 -0.14682939718939328 0.10171270401704958
0.06751904570285495 -0.1461515113248542 0.10159600483835414
0.06718741426093426 -0.1457682723308926 0.10107129866246743
0.06733036414909076 -0.14466224948215567 0.10152000322224214
0.06682761794634329 -0.1432579488553879 0.10077972465311379
0.0670887531018287 -0.14389145475033516 0.10119914154966587
0.06691119596685689 -0.14229479039028112 0.10092546723279673
0.06720252419881113 -0.14289346970218245 0.10145672377227472
0.0669858320257011 -0.14145009181521423 0.10100819446751001
0.0672980360777299 -0.1418406404669259 0.10161546776565
0.06722392775987553 -0.14097052561158138 0.10140806487350376
0.06691646621480433 -0.14054125852302227 0.10076954697014757
0.06705999366871157 -0.13943379955987537 0.10086833538111462
0.06718933201594561 -0.1384730565755649 0.10092547799433667
0.06733740419118964 -0.13777474009560256 0.10106191055174225
0.06734912556867975 -0.13699079927293417 0.10102128201808218
0.06764650500634337 -0.13758932137487512 0.10155884983455357
0.06737810790979176 -0.1360380193709593 0.10107050440345214
0.06772681818104576 -0.1366288658724291 0.10161044606609666
0.06739236209802987 -0.13544279213571808 0.10114805716710415
0.06771126671945955 -0.13560477579698477 0.10163219545144025
0.06656249280668151 -0.1341759713654986 0.10064611232432931
0.0669875694152989 -0.1343293198982089 0.10112716220889648
0.06739220337981686 -0.13495470791371048 0.101315608100193
0.06570850954971329 -0.13310680954640206 0.1006125594029543
0.06604097306724103 -0.13337254208557395 0.10075248468836992
0.06649899435348564 -0.13375736963796864 0.1009388733375979
0.06476551766118074 -0.1317781737221185 0.10078598260431884
0.06517707283767672 -0.13210547221611532 0.10108374845459193
0.06584076745994549 -0.1326541714297673 0.10134690113181656
0.0649001683868637 -0.1313684982728472 0.10149216772138538
0.06447734521662525 -0.13115466637460624 0.10087838316935646
0.06376658074783935 -0.12941113121542488 0.10070333806462971
0.0641513482274852 -0.13014944251721736 0.10108173430408787
0.06369142098964085 -0.12859107798599376 0.10109770914825011
0.06399588165614048 -0.12898139509530018 0.10165039046586083
0.06378250498579492 -0.1281914890972006 0.10165193955996546
0.06347663626506421 -0.12769478807825824 0.10113913863064415
0.0633004224267122 -0.12686537571474904 0.10124909727008037
0.06279039733167033 -0.1254241796072911 0.10084978806283947
0.06311566663989024 -0.12597721085899424 0.10139903340770294
0.06286411980088528 -0.1250176691222556 0.10140730273859892
0.06255882633798254 -0.12455728852996596 0.1008243048711997
0.06240293884138704 -0.12341452899590484 0.10127391780862768
0.06218074414621506 -0.12253112884421441 0.10124335779989864
0.06207285102446629 -0.1217681021472125 0.10147601203764056
0.06188753618481472 -0.1207865480144161 0.10168289103267915
0.061660988146980775 -0.11982754653893435 0.10189151564807788
0.06146530579974705 -0.11915988924940725 0.10213435939220526
0.061265145570107905 -0.1186839009957285 0.10208175029947601
0.06797491113127496 -0.14717922338342102 0.10217759081195672
0.06808273956600373 -0.1466640340807573 0.10253698202609444
0.06758730202917372 -0.14534129054097109 0.10188753377583293
0.067850305905768 -0.1459911137020393 0.10225037491474823
0.06767401322410438 -0.14448527856247928 0.10216685228443281
0.0679821807107815 -0.14487720060739442 0.10270066596267552
0.06787479315464097 -0.14400728014086167 0.10261205724746068
0.06756322796604193 -0.14354213885523484 0.10207073436127022
0.06751065528949456 -0.1425307258695344 0.10203570921708545
0.06763223132474014 -0.1418563768502979 0.10226775895366257
0.06732327114706742 -0.14011515204808475 0.10147016731094871
0.06758563210163242 -0.14092044587386612 0.10209264832813023
0.06744086738193102 -0.1390919576382824 0.1014789430557288
0.0677169730193604 -0.13974532650531812 0.10212825838563389
0.06749955128818153 -0.13828066009204054 0.10140884392250503
0.06783087271960068 -0.13854023188639264 0.1020597339758563
0.06807575139450535 -0.1374082927869083 0.10227192548810553
0.06811105171645875 -0.1362762792223175 0.10223299361467081
0.06811093141312968 -0.13534165400151668 0.10233633298348915
0.06741003463294125 -0.13448542330608676 0.1015626962357744
0.06771586281559441 -0.13477956748401193 0.10189299409115929
0.06636335468916596 -0.13320895910528188 0.10134395319507468
0.06685840524080579 -0.13353850141181178 0.10165096886573285
0.06745413284569322 -0.13404145275155702 0.10200266958319355
0.06616056578137985 -0.13215446105034484 0.10245971259952098
0.06549666718749064 -0.13161261578556838 0.10220897788943713
0.06656287608687064 -0.13283708151032936 0.10207486888544616
0.06499083586158733 -0.1309081953630286 0.10221361530787179
0.06460295009587451 -0.1305703077437192 0.10175753589629033
0.06438795217033277 -0.1295631477224889 0.10222085722801412
0.0641931756186861 -0.12882851278099308 0.10234363744274311
0.06372272013411137 -0.12759347853814457 0.10192669873133878
0.06401793723781622 -0.12807272897821712 0.10243497295756933
0.06380871469697019 -0.12721207513076113 0.10246851574708819
0.06351307116560598 -0.12678676340703698 0.10192783405194666
0.06340946185860602 -0.1257379665229047 0.10245691512888767
0.06275417380168292 -0.12420421709630225 0.10174475278167945
0.06308240146728229 -0.12492118104922702 0.10215233793750464
0.06264783664903288 -0.12342531009923921 0.10206956833540883
0.06296148321332186 -0.12389535483978244 0.10264001845220025
0.06271229871581728 -0.12304516459009103 0.10260248543963127
0.062404128187953586 -0.12256642018442042 0.10199810292649075
0.06223012094836059 -0.12151144664125672 0.10232145818070482
0.06201126648384983 -0.12043146499876263 0.10263357006331211
0.06171328482356319 -0.11956824443099005 0.10255810735011606
0.061516163557527516 -0.1189502716585792 0.10279875253698088
0.06136857628558347 -0.11848372622883765 0.10300312755268645
0.0682969120781527 -0.1469421504035051 0.10289747101115981
0.06839541641012616 -0.1465182434822812 0.10320062956359093
0.06870413180431056 -0.14656575078802062 0.10377308423162407
0.0686200832602239 -0.1460715769881467 0.1037117578977039
0.06828311152142136 -0.14576964173112691 0.10312611104231105
0.06840047287837617 -0.144693268166778 0.10354527808497521
0.0679245678229047 -0.14335110619850447 0.10279248725537596
0.06819678056342282 -0.14379382358276285 0.1032837253849127
0.0681263436939493 -0.14291956498369882 0.10325057831997973
0.0678392518536371 -0.14253434063104567 0.10268490920422982
0.06792508120181878 -0.1414831959676131 0.10281928833298629
0.06800829962944656 -0.1404418441266485 0.10282115900126386
0.06812705853116836 -0.13936426230220322 0.10279799284614448
0.06826796150679904 -0.1383634578847996 0.10279517984842332
0.0684317244274454 -0.13766214134605123 0.10290686741649809
0.06845490808017374 -0.13687855595174256 0.10282592088717163
0.06874265631443169 -0.13749378513674923 0.1033895157716011
0.06848179780592925 -0.13593501401886657 0.10284557935998016
0.0688280436361113 -0.1365552449680693 0.10340653002251954
0.06843716253301818 -0.13515973442185594 0.10290103378996346
0.06885204717967167 -0.13549584318750382 0.10349021541287343
0.06856545788334578 -0.13466562055019818 0.10328407274696397
0.06807859388246745 -0.1344667159610927 0.10264642869580995
0.06777744560095904 -0.13369170968675212 0.10276729001821033
0.06722376289793063 -0.13322912982193794 0.10248647505177465
0.06593001574188033 -0.13170286074049617 0.10278252719339821
0.06628266895943766 -0.1317819891793752 0.10313450727308926
0.06692696728849441 -0.1323455320253633 0.10316773302051925
0.06480077981826325 -0.13018869250062995 0.10262112415205052
0.06526558773337078 -0.13071007111554134 0.10295423390083122
0.06586676191169442 -0.13122451263141027 0.10328197775795485
0.06464804063703976 -0.12947457047944502 0.10300335167148604
0.06503143837034184 -0.12979250294688424 0.10352616633049634
0.06471478855080137 -0.12908169394215288 0.10354791778909254
0.06439205213932814 -0.12865401133800777 0.10305667747681223
0.06421213678784649 -0.1279051243924221 0.10314929841403779
0.0637255578584061 -0.12643042900487253 0.10283052805802899
0.06404343355414584 -0.12716557637463022 0.10321176442522971
0.06362739011189722 -0.1256253977964906 0.10319022770822213
0.06392000119661291 -0.12605401903852273 0.10370243901634503
0.06369778982107295 -0.1252133130846545 0.10372273036828406
0.06336841067495547 -0.12470566798764975 0.10318089929463159
0.06316761706054964 -0.12387122025185486 0.10328349690146338
0.0625761497775798 -0.1222494889593315 0.10288018648295809
0.06295490598127287 -0.12308692957561128 0.10334627460563284
0.06238758206669472 -0.12126299451999166 0.1031947463084917
0.06275077217574881 -0.12200255577962492 0.10374526273806874
0.06219859375439267 -0.12045551592581535 0.1034521143640933
0.06249027792403753 -0.1209118371526509 0.10411371687164306
0.06216684516676806 -0.12006827168745425 0.1039717118227133
0.06188366247752191 -0.11962446855998496 0.10332975958666486
0.061612834496762074 -0.1188016281726652 0.10359296314074716
0.06140303551945539 -0.1183797934455454 0.10338542331076878
0.06916342232526942 -0.14657394277950428 0.10461002892072689
0.06867017737331664 -0.14529718952710985 0.10394798081574932
0.06905486989556028 -0.14584271281885527 0.10454167306082347
0.0686937207949903 -0.14453420668806058 0.10414972589524606
0.06896959198680061 -0.1447522594620213 0.10462812068566649
0.06885950448624704 -0.14404989030110202 0.10456653094637551
0.06858064756945742 -0.14386708697169784 0.10403924997010006
0.06821091629507695 -0.1420854625402052 0.10343356337182481
0.06848551588075222 -0.14285453004010112 0.10397649010845376
0.06829893066827633 -0.14106821838491526 0.10350390837828786
0.06863058230513779 -0.14165274973070444 0.1042467373139015
0.0684134289783982 -0.14006073838293098 0.10350641617579809
0.06863838687636989 -0.14068372921644337 0.10409248330088779
0.06854130215411092 -0.1390286248871347 0.10345166070230753
0.06890088581197532 -0.1397585862813185 0.10429665024146012
0.06859230100326565 -0.1381913395253382 0.10330156654655592
0.06897169840710993 -0.13840290425566404 0.10398400188942306
0.06914497192172421 -0.13727846353579032 0.10398451285462967
0.06923315809389188 -0.13627705644924415 0.10400364420156698
0.06928575491067179 -0.1354394040845485 0.10411618829950314
0.06833926229574046 -0.13379122882877384 0.10346151908353989
0.06902243032860558 -0.1345092863496224 0.10400412433303853
0.067709316791336 -0.13306032870371393 0.10328817811476378
0.06821181539444415 -0.13301317280157732 0.10389383495066436
0.0688842859388284 -0.13327530077561217 0.104420065027374
0.06717397290578773 -0.13191134326381646 0.1039605268769384
0.06662467558922204 -0.1314470966283776 0.10391949610144918
0.06771953132191637 -0.13238882391842746 0.10396217660995552
0.06834225817232507 -0.13260988771677976 0.10434980582212916
0.06607633213258088 -0.1308034091920529 0.10406394500137216
0.0655711729711939 -0.1304127149704109 0.10381213591744513
0.06543617142560317 -0.12963684858188018 0.10439289787012045
0.06462581136452147 -0.12850787825588758 0.10382988828213319
0.06497688841528895 -0.12888083021482846 0.10426822220434882
0.06472008812413482 -0.1281434463143205 0.10434313449745224
0.06440771098861049 -0.12769472409421212 0.10387270022855383
0.06420175857615477 -0.1267599929839393 0.10398528755925139
0.06418037792530737 -0.12608630592686276 0.10440941480658235
0.06360903533601867 -0.12459817736268106 0.10397381323821521
0.06394686931757125 -0.12508949534512287 0.10451654469486898
0.06366299721860659 -0.12418839739002635 0.10447829960870082
0.06334824459647409 -0.12379756970523309 0.10391266491880909
0.06312972040453642 -0.12274385090144285 0.10426759823652576
0.06290146379763807 -0.12173966938777572 0.10464169361880009
0.06270079705880718 -0.12082197297564229 0.1050496836822028
0.06197699265435116 -0.11938243399333477 0.10421324439478534
0.06232633924529256 -0.12005295785043762 0.10468057256044147
0.0618771932178983 -0.11891356626505 0.10447460423249567
0.062172557006424566 -0.11930463584891782 0.10500696414644801
0.06196622483375768 -0.11886982525222108 0.10483079736943278
0.06946826138533212 -0.14674603383428386 0.10510424559854882
0.06948051095721827 -0.14633440031610814 0.10518630071334689
0.06979489941204978 -0.14650303610703527 0.10565373021975918
0.06950676539421108 -0.14564596543816855 0.1053377951386848
0.06992920247976805 -0.14581890490199345 0.10599353779025868
0.06969907021815074 -0.1451187190733354 0.10578161254592586
0.06935528350125894 -0.14492255209621613 0.10524965690183725
0.06884764441910934 -0.14329689577092405 0.10467197315609354
0.06923749399722863 -0.1438030176043697 0.10530404655884405
0.06887132486492305 -0.14237676874781555 0.10479211035346057
0.0691246584825396 -0.14284025602110692 0.10525995732142551
0.0689733267279155 -0.14163108542313987 0.1049587836598035
0.06924569146465992 -0.1419792368981606 0.10548965180663027
0.06919847926751778 -0.14127965384245592 0.10531776981196887
0.0689902889006445 -0.14086370477394491 0.104815938697977
0.06940836206287693 -0.1401642055646703 0.10528981625638067
0.06939705785574232 -0.13904438239836184 0.10484270190489516
0.0697614324023289 -0.13938733193880268 0.10553272896739742
0.0694842072189872 -0.13796767199437654 0.10463582370090384
0.06984201040988086 -0.13853016984916078 0.10532227811310646
0.06958402949334572 -0.1369369628020342 0.10456289486627998
0.06994119511172715 -0.13754907765002333 0.10517616256281943
0.06964404221445772 -0.1359500613136754 0.10456809721599299
0.07002060453070083 -0.13653948798962032 0.10511444553058912
0.06960765052240123 -0.1349745092654739 0.10461223092157171
0.07005503058096287 -0.1355119592889723 0.10512852308817275
0.06950727038895665 -0.13398027485470357 0.10475916276700634
0.07002569633111093 -0.13447718923043464 0.1052251701357963
0.06944118519332923 -0.1333235424528692 0.10493785091936804
0.0699464222671727 -0.13336246378155325 0.10546482805672802
0.0671171213399972 -0.13158420903816676 0.10426627512227911
0.06753109795615028 -0.13176797753412478 0.10442083611958963
0.06811856115582163 -0.132052092190206 0.10461191412163165
0.06872362187946389 -0.1323469835846037 0.1048643704449094
0.06934433547863275 -0.13270413374847473 0.10517578312152753
0.06594536658132832 -0.13016777744026164 0.10456066732927016
0.06652645949402775 -0.13065875951820824 0.1046551847795636
0.06719179981514407 -0.13117731594193105 0.10470141162663262
0.06790116434673728 -0.13145681454808886 0.10495297513267376
0.06846095118931267 -0.13174564386406792 0.10509683970699928
0.06581816099336865 -0.12955008445136382 0.104990266536002
0.06644719674777283 -0.1297999105854188 0.105336450100133
0.06596554524969746 -0.1291546942203682 0.10545980465133957
0.0654743794347199 -0.12886586010502574 0.10510092088816833
0.06466869528224597 -0.1275641265747457 0.1046362370177599
0.06502393791118402 -0.12798172554977022 0.10503300557822669
0.06480409989343652 -0.12715693611583473 0.1051698669604131
0.06447191629373059 -0.12677019901752565 0.10468686710296365
0.06436031940277022 -0.12573623665938305 0.10510652480117748
0.06423574507073133 -0.12477113116310024 0.1055011756767448
0.06351172657103016 -0.12338967629693784 0.10476585530531417
0.06387769461055919 -0.12406069275324919 0.10516478925263359
0.06328852965320769 -0.12243724591675412 0.10513490706154308
0.06370672044156138 -0.12309694217523222 0.1056011513578843
0.06306375543282976 -0.1215070636355393 0.10547938793936137
0.06346194134642431 -0.12211284975387339 0.1059788155895648
0.06288508617166141 -0.12075398968711408 0.10573006648716173
0.06320852534297974 -0.12111530136776309 0.10629225255144782
0.06289979990732701 -0.12036511148236613 0.10619347400925074
0.06258737613702149 -0.12000993955201919 0.10558927651457078
0.06250867514025396 -0.11944536574632159 0.10591183046036907
0.07023987428545657 -0.14624988513386006 0.10639177119135923
0.0705395904186711 -0.14626040385641376 0.10687575652560538
0.07027113825476282 -0.14591867391241942 0.10650899288997216
0.07049686355192529 -0.14592574787529444 0.10689270561010994
0.06967442743635224 -0.14432142291643377 0.10594350468151682
0.0700248786316561 -0.14482663299798104 0.1064027604579412
0.07032446485603062 -0.14538626385372924 0.1067394111558208
0.06966320300018329 -0.14352172050256162 0.10611116911440373
0.07007616686566472 -0.14375964646842543 0.10679554341361258
0.06984895830663179 -0.14300359093439716 0.10652040824239563
0.06949787290758207 -0.1427560155015349 0.10593337268273824
0.06959292655889085 -0.1419075471958669 0.10611208958082022
0.06927748102293287 -0.14084966169770663 0.10534518530849289
0.06956411923851952 -0.14108016521028083 0.10586357919918307
0.07001024323186011 -0.14010444715686074 0.1062072322578459
0.07015573608774607 -0.13903805894385232 0.1059724609638931
0.07042323084508524 -0.13939371332347458 0.10653254129686063
0.0702819261245096 -0.13811051304629376 0.10580917759493952
0.07057134261910891 -0.13862873154253813 0.10643465175553549
0.07038741379612173 -0.13712590557779833 0.10570516125290598
0.07071103281117816 -0.13770345968413392 0.10633049253466283
0.07045377941842713 -0.13609562299222763 0.1056750680350175
0.07081376270720348 -0.13669401453594904 0.1062669829474871
0.07047893674734584 -0.13503030035379193 0.10572302810252235
0.07087659141670506 -0.1356261134971038 0.10627571370640185
0.07043484575092968 -0.13402435470865734 0.10581670858296614
0.07090882035854136 -0.1344631904189758 0.10640032074241378
0.07039615298101289 -0.13340448867009783 0.10592099183760859
0.07071992458609139 -0.1334606851759735 0.10633847868959508
0.06909544564624298 -0.1317234776874111 0.10557066918732307
0.06984725272685036 -0.1322449971514354 0.10589762411094764
0.07039124221043391 -0.13279971024378484 0.10617718766359312
0.06703816609495802 -0.1304392972815358 0.10524316786214322
0.06770530177380547 -0.130798952068777 0.10535496336866901
0.06840613650154856 -0.13115466773968054 0.10549567196042323
0.06896448657376479 -0.13081276047937082 0.10606309080567672
0.06978227844100904 -0.1310799170704601 0.10649558675423554
0.06699353610821324 -0.12997832927838412 0.10559139422187326
0.06747782866479834 -0.1301316112964507 0.10574078360174949
0.06825343676717535 -0.13036624465625848 0.1059599975632136
0.06883263006466285 -0.13019164907090408 0.1063796052867247
0.06930521203373634 -0.1303502554225618 0.10657382509488417
0.06582995117301052 -0.12863585798568958 0.10570978357422914
0.06643132877332118 -0.128806305085485 0.10605649398971614
0.0670892029728591 -0.1294776446224534 0.105996076682937
0.06786209995046172 -0.12964977978000916 0.10626310593337245
0.06848337265557143 -0.1297916803058049 0.10646617990074357
0.0659430857203836 -0.1281874407280631 0.1061062833887343
0.06550737535441438 -0.12805604028830958 0.10571661398464485
0.06474010056565617 -0.12633084498311223 0.10554296524149562
0.06519624874142238 -0.127071607340292 0.10586835533106725
0.06460688473930204 -0.12534974182413605 0.10590768116694402
0.06508327584647944 -0.12585564352494952 0.10642174634556692
0.06446174469954938 -0.12457492005144996 0.10616416004709785
0.06479531271240084 -0.12482319151481548 0.10661971712105565
0.06453640367801182 -0.12411337626773157 0.10663243786871986
0.0641600980977116 -0.1238198099023348 0.10606627845601158
0.063909686932934 -0.12276493758916653 0.10644371740581422
0.06365879522468948 -0.12173657279357313 0.10683558894435866
0.06339290314674977 -0.12102936303562226 0.106877226002259
0.06276455877149961 -0.11976309077657264 0.10637406833646247
0.06315112960967292 -0.12039708887662127 0.10683762881273944
0.06269513302316651 -0.11940528032700443 0.10647193465677747
0.06297085556439305 -0.11976751578176947 0.10687910232539329
0.07065522828921399 -0.14592615875646042 0.10716475515007241
0.07039441356235425 -0.1445080466821805 0.10714273199123851
0.07064601425211907 -0.14511157049463663 0.10740315725460896
0.07042050935002049 -0.1438893938412055 0.10739668861583199
0.07073541875339141 -0.14399269443995888 0.10791055052996056
0.06986389559000578 -0.14227682171115777 0.10657705801757629
0.07016283920378498 -0.14274218100745145 0.10708256369039178
0.07045512925433332 -0.14327750383798704 0.10757202845934824
0.06990157405265084 -0.14147276913443366 0.10653698556576922
0.07022210983979361 -0.14183970208556562 0.10712917543888624
0.06993622224664853 -0.14088188304752747 0.10641399704897131
0.07027336217108049 -0.14087944164368063 0.10695469335440481
0.07052467202204618 -0.13998734120069617 0.10700003595624318
0.0707875141107453 -0.139176449262682 0.10703731908385813
0.070916261334241 -0.13982746034186225 0.10765099072880581
0.07097571084141217 -0.13828543897934725 0.10697723710902776
0.07115455870485 -0.13891360873327233 0.10764787854702576
0.07111608878706482 -0.13730772186449489 0.1069054298552067
0.0713357464580228 -0.1379429098776451 0.10759433460552276
0.0712090045716605 -0.13626899012888638 0.10687816597919139
0.07146761966526968 -0.13692278666256225 0.10754544859188046
0.07126444113046378 -0.13520853709949782 0.10692834339087576
0.07154383549877082 -0.13586524608891168 0.10755372653676253
0.07129722149036485 -0.13435756428789497 0.10703270171247543
0.07158387143733712 -0.13473705825984492 0.1076611815507276
0.07145110431948634 -0.13386498280113696 0.10745474719975298
0.07113968944679128 -0.1335968713092192 0.1069311963050639
0.070385698999084 -0.13183333672590894 0.10664136111847412
0.07090776300212571 -0.1325412686303968 0.1069767155013605
0.07036500419547771 -0.13115541338258682 0.10696792670349337
0.07084214032469477 -0.13123305515497993 0.10754068888659464
0.0690747114748337 -0.12962537281146744 0.10691614599009454
0.06975707467379177 -0.13003260221073967 0.10712805599394991
0.07032242367729663 -0.13051218859968644 0.10733700034375611
0.06700838097782127 -0.1288984841633651 0.1063547644610265
0.06753044155131832 -0.1289717350887631 0.10656493339924857
0.06834777376931002 -0.12909964300628432 0.10687511660283545
0.06898430221692435 -0.12889440509499153 0.10737208147320701
0.06966012026190126 -0.12901683222435814 0.107788892703688
0.06576825511207365 -0.12747278851917188 0.10634910620779252
0.06633805396930872 -0.12786905467534085 0.10659100777009801
0.06705625329533427 -0.128279399798086 0.1067690456488829
0.06787073196914499 -0.12835575625992823 0.10713295701678811
0.06857169080070113 -0.12835858480613155 0.10751317021179203
0.06915402791512125 -0.12836460976147585 0.10788884042498675
0.06560985123975734 -0.12654556463034117 0.10671087866856711
0.06617089168906361 -0.1270066340829589 0.10697983435515206
0.06550730196049127 -0.12576813728794348 0.10705947800616436
0.06607033833348641 -0.12602999913056334 0.10747075340619862
0.06563591087347016 -0.12531544375453435 0.107486277119511
0.06522057091360142 -0.12506168739823642 0.10712744231767643
0.06436198777282524 -0.12336284508951073 0.10688628881957274
0.06489630346050174 -0.12399859889728114 0.10735230552255859
0.06412571596794214 -0.12247295174647377 0.10721147813585073
0.0645369812249814 -0.12302675447992747 0.10753316722716323
0.0639534612183512 -0.12174516852552876 0.10749679630484399
0.06439710845700515 -0.12221699686036794 0.10794026891274225
0.0640261635363094 -0.12143161579962983 0.10791467562873046
0.06361040727889124 -0.1210136840728907 0.10739728793598391
0.0633818735141278 -0.12035296137580478 0.10738448899226567
0.07087019282964556 -0.1444785927263333 0.10802908286398946
0.07094438784350683 -0.14403781954930944 0.10830083142924829
0.07051945774293376 -0.1423379385635284 0.10773029050848326
0.07079088393130821 -0.14291297986258195 0.10821346067102446
0.07094860531797496 -0.14340757443372942 0.10844440338860915
0.07060420868911535 -0.14136740163561065 0.1077003485025352
0.07085944784279849 -0.1418794329972437 0.10831911031153749
0.070679645639257 -0.1405525747641159 0.10753711278376436
0.07099138735491724 -0.14071532234094994 0.10821672910564041
0.07125111972894606 -0.1396117558105589 0.10827733989994005
0.07146171530973776 -0.13859333906277005 0.10826981963670944
0.0716264345003099 -0.1375845341342099 0.10825180238736254
0.07173052649190628 -0.1365697619661215 0.10824192787848384
0.07178785699892337 -0.13555247255119537 0.10828185861342396
0.0718145199040425 -0.13470085959148573 0.10842235257416227
0.07138761869991463 -0.13300154995962843 0.10762523788090429
0.07170198802899448 -0.1337351324823723 0.10823909203966824
0.07128227684984384 -0.13196012522636513 0.10785984393830166
0.07164686308474812 -0.132449478939909 0.10856505368066585
0.07122842875834182 -0.13129094681152184 0.10809709599585386
0.07147153492143403 -0.13137221872777563 0.10862970603924825
0.0702159457264733 -0.129621586957929 0.10784150681036608
0.07076291146337006 -0.1300190348748964 0.10826959019232772
0.07120191859062508 -0.1306858239486194 0.10850468363647572
0.0701434133919249 -0.12907990953658546 0.10815745043555786
0.07045749886620874 -0.1291378151825205 0.10853641415070386
0.06679278326486497 -0.12736878646971855 0.10719078584404797
0.06751887193724389 -0.12759274881302304 0.10746048230374197
0.06817392268992443 -0.1277908764461382 0.10768898068771751
0.068811374638326 -0.12763121616202217 0.10822632206857206
0.0696004323350579 -0.1279585109490484 0.10863212101965229
0.07009524225785432 -0.12860869797127467 0.1085476807958577
0.0665628386926343 -0.12667664874844947 0.10747167967623007
0.06716788551959552 -0.12672181007734537 0.10783499437687856
0.0680397481080003 -0.1269957175307888 0.10818468236964222
0.06873017690717248 -0.1267674888847097 0.1088736381171815
0.06920744838574806 -0.12724509106767587 0.10887227852996724
0.06666168552802379 -0.12620667298644514 0.10783829742840391
0.06701863976146799 -0.12600375042876477 0.10821264069436676
0.06758165288192985 -0.12616867296066073 0.10848213208774687
0.06816893219973642 -0.12630929154966394 0.10880430748863922
0.06546762242180676 -0.12460757245895604 0.10772433279337969
0.06597884288429277 -0.12508893999293538 0.10796831329893364
0.06654023799208351 -0.12556938740568105 0.10814647667382085
