# .PCD v.7 - Point Cloud Data file format
VERSION .7
FIELDS x y z
SIZE 4 4 4
TYPE f f f
COUNT 1 1 1
WIDTH 788
HEIGHT 1
VIEWPOINT 0 0 0 1 0 0 0
POINTS 788
DATA ascii
0.06027070291016535 -0.12896438017684267 0.08624302224502826
0.06065469856727313 -0.1297500817582653 0.08673004417877667
0.0604989022620131 -0.1288010281119836 0.08701722953227635
0.060014463219541965 -0.12806575231051168 0.08612822364945913
0.05989255024513634 -0.1270621168534404 0.08637043807672298
0.05975718195371408 -0.12614560422153076 0.08653190812517131
0.059630122585721076 -0.12526116942025411 0.08668543237187437
0.05946027095791214 -0.12439693045433318 0.08685694775532178
0.0592574881570662 -0.1235402694679461 0.08703867363495338
0.0590434758871625 -0.12269456539419737 0.08723627561627723
0.05861368528709794 -0.12202539564306973 0.0866115508251888
0.05848463611210699 -0.12134371603285636 0.08693641075104966
0.05839010276060539 -0.12074459632434019 0.0873751326021836
0.06453353250340904 -0.1481609754903403 0.08781413303397319
0.06443728341344691 -0.14768484398272408 0.08728626160756052
0.06434994943355604 -0.14710542420944095 0.08720191707701762
0.06426116462267441 -0.14627663045040468 0.08725132788669737
0.06421750397213198 -0.14538206046882515 0.08738930710815777
0.06419943504239309 -0.1444879096896685 0.08758863334742902
0.06420715622879845 -0.14361997339254376 0.08781932854989859
0.06400115313132315 -0.142752017763324 0.08712455426291987
0.06399529198705664 -0.14210032225417596 0.08747976048260747
0.06359106058121085 -0.14044047399803675 0.08692444134530719
0.0638351438614725 -0.14123376842142063 0.08741753111193704
0.06370359036496646 -0.14033950747918883 0.08771589606089446
0.06337933149094005 -0.13956651018825958 0.08684272773156983
0.06319488997273005 -0.13863109185510566 0.08718944635758234
0.06301766475959489 -0.1377920224157738 0.08748126272677455
0.06285437524500634 -0.13698143763302117 0.08776401574958773
0.0625158925078325 -0.13619428337017148 0.08706784408280281
0.06233682786139229 -0.13533971867229272 0.08731800256632608
0.06212052546053453 -0.1343269337070165 0.08761678835952978
0.061815466452699745 -0.13349239715201636 0.08718455793256508
0.06194596680099832 -0.1335283997946156 0.08776271233777766
0.06165756140103968 -0.13281693469717354 0.08730404349375406
0.06138388769870261 -0.13200120929502374 0.08709341328859932
0.061275432238404155 -0.13134578198319344 0.08738039998776999
0.06111507976347818 -0.1305118346992376 0.08761625025533108
0.06093657345748242 -0.12957845764266293 0.08782498087124993
0.06076902462432453 -0.12859273109470223 0.08801089884156858
0.060335877918009095 -0.12782825576681428 0.08718571056663962
0.06018420401077623 -0.12686921187029093 0.08730593961533925
0.060046750581456344 -0.12598900761453066 0.0874096910436654
0.05990782694757434 -0.12515239727836838 0.08757802611914917
0.05974124553091516 -0.12431063435770308 0.08776091503809802
0.059535755933434104 -0.12346449262246345 0.08796839251472137
0.059300490517440574 -0.12261061544399515 0.08818437157144872
0.05881371314629389 -0.12186748341013039 0.0874564000885163
0.05859806842108081 -0.12106714149814923 0.08770173941619473
0.05843771217214632 -0.12036090752960085 0.08804986922207506
0.058352624925631265 -0.11974581220817396 0.08848092957302074
0.06459114225317665 -0.1482733994051683 0.08848433056759915
0.06448562709371668 -0.1478384715247114 0.08789482294432274
0.06441258579889865 -0.14712544679011244 0.08804389552035709
0.06437472663347292 -0.14625537457820884 0.08820899387397646
0.06436785318681648 -0.14536239133267626 0.08838040556686584
0.06440207174031919 -0.14447121442528904 0.0885723138923273
0.0644069489448044 -0.14360343087892063 0.08878360975042347
0.06419420304339571 -0.14279948856423388 0.08807359374334901
0.06411652731707533 -0.14198148573616134 0.08827255499245619
0.06399932369541823 -0.1411023149434608 0.08847499895118428
0.06384624171623217 -0.14019244904432393 0.08870449387977562
0.06353017922734877 -0.13943695504931763 0.08794460804355916
0.06334419081454658 -0.13855399707822819 0.08817688403777707
0.06317664695546185 -0.13773268106495537 0.088426176115373
0.06301926125441754 -0.13693218892937264 0.08872345738810566
0.06268924677105281 -0.13616492977447062 0.08803909565943352
0.06252305194667919 -0.13534425263728656 0.0883163270933232
0.06240377907017847 -0.13470930848042728 0.08863152067674868
0.06189944096447626 -0.13310973794804 0.0881123162497413
0.062176531465874395 -0.13388138689946996 0.08857252713388931
0.062009642860896226 -0.13304144155382364 0.08886720368118453
0.0616573265336097 -0.13226267818968906 0.08802388314264337
0.061488809301043695 -0.13133485876600248 0.08833538368056902
0.061334604899059224 -0.13041721390050998 0.08861134109495301
0.061198451733448504 -0.12938816859038396 0.08896222650754994
0.06097172577407301 -0.12839857261070411 0.08885003238763867
0.06062738285290379 -0.12755868324801223 0.08823972155664465
0.06039598264174458 -0.1266229921978103 0.08807047799886822
0.060311249481382626 -0.12590436288406232 0.08827918285383361
0.060162596086118604 -0.1250821359083587 0.08845529940864665
0.05999297154281918 -0.12426476708029967 0.0886993318899887
0.05977272167641811 -0.12340593417906968 0.08894071345278291
0.05950431110335098 -0.12252276446563357 0.08917143673099466
0.059031342206496445 -0.12174347953761896 0.08838941346983087
0.05875420530968055 -0.12088338113741515 0.08859234071123737
0.05852173720234327 -0.1200668869323694 0.08881120923084897
0.058379078790440714 -0.11936402667297027 0.08913029652293017
0.058296614362717734 -0.11875511300750147 0.08955580557546386
0.06467492154999913 -0.14827821272311104 0.08940568539082658
0.06455834595940005 -0.14786994626648378 0.08878590512447469
0.06452121964641838 -0.14709890512369006 0.08900157894592732
0.06451082222711144 -0.14621393602933466 0.08917360019527507
0.06454469936053334 -0.14532232554182692 0.08934246925388795
0.06457683537827576 -0.14443349324953791 0.08953308032328312
0.06457027433129042 -0.1435524119701514 0.08973115613717095
0.06436707759722854 -0.14275206366613225 0.08899539300959196
0.06428986582922122 -0.14187745003525903 0.08922822017050135
0.06417963176900689 -0.14091666799247207 0.08956101735957975
0.06398144042137528 -0.14002362624898523 0.08951863284998333
0.0636916706755199 -0.1392440252523235 0.08902802290729118
0.0634622503932718 -0.13836903197849346 0.088990422870888
0.06335875701842651 -0.13766880574286053 0.08936714823609096
0.06318911285512732 -0.1368259232486171 0.0896677078502429
0.06285162495199936 -0.1361118293857258 0.08900624256092003
0.06267730418962693 -0.13533233266193498 0.08922475408145708
0.0624979914378591 -0.13458862609727992 0.0893761846957717
0.062327340997296206 -0.13380573237622082 0.08957525485509547
0.06215444310634326 -0.13297600191414713 0.08981362739114329
0.06183626173487073 -0.13217402779955525 0.08907270838661942
0.06168301393730553 -0.1312879096189159 0.08933015495429629
0.06155696702543923 -0.1304089692415792 0.08961092140777731
0.061485135437016315 -0.12968906298704286 0.08994002431742247
0.060936778455916975 -0.12780849149738355 0.08916720678357704
0.06126980149954957 -0.12865981312945587 0.08988023769813212
0.06106388908340282 -0.12764825654350345 0.08979079727441523
0.06071738789583535 -0.1268083670700532 0.08909119402214714
0.06049388874664542 -0.12579450341129328 0.08904458239308233
0.06040169199377409 -0.1250976954492328 0.08937842979793663
0.06021197256816129 -0.12423779178629045 0.0896766743398867
0.059977175773761424 -0.12333911590671102 0.08996459428250866
0.05969695082554566 -0.12241331670489672 0.09019364342577829
0.059212380119464926 -0.12161636216158535 0.08937819819736068
0.058907789807088586 -0.12071522439579112 0.08951197603438973
0.05865985150094632 -0.11987717729507233 0.08963861681894696
0.05846089472138832 -0.11909230615334429 0.08986709464504117
0.05836040583647005 -0.11836271160167385 0.09020874862729703
0.05829108838464204 -0.11753858817161035 0.09065039356908058
0.058241292803443125 -0.11700523731531381 0.090940104685055
0.06476587896972041 -0.14819702512247093 0.09033672269653308
0.06466564990592734 -0.14781711618904922 0.08975817251155485
0.06463976919757936 -0.14701150715050934 0.08994613276592445
0.06465289112118537 -0.14613922036759916 0.09009400634443207
0.06469469213008891 -0.14526852734953283 0.09029004801596295
0.06472870036924122 -0.14436743680381564 0.09048925923889047
0.06472005638652358 -0.1434653519982183 0.09067997689975903
0.06452987100670317 -0.14267484178115455 0.08993744036756592
0.06446674725274296 -0.1418101280262664 0.09017501234550533
0.06441842360765185 -0.14110631729646633 0.0904661448143154
0.0639499344856161 -0.13946264909178482 0.08992303134846988
0.06423420317540313 -0.1402161622043271 0.09041042329179817
0.06410180952300354 -0.1392180411039575 0.09073461497784525
0.06372974185979667 -0.13853954591905981 0.08994213630750347
0.06356528533574543 -0.13748518107816168 0.090421170398865
0.06332298289154446 -0.13667198394669106 0.09043659296256633
0.06301295158500697 -0.13596386963371573 0.09000297590580389
0.06276374398046146 -0.1351722787101035 0.08994572726629593
0.06263689442685212 -0.13453537610241484 0.09024276878565318
0.06246610856498277 -0.13374089416939697 0.09050673954234653
0.06229888534116011 -0.1329215859056022 0.0907642823090315
0.061993701846527444 -0.13212170971207748 0.09005631049799638
0.06186218880766705 -0.1312609440002645 0.09030511241230561
0.06174593990608869 -0.13042368275366414 0.09054824792497514
0.061626009710369266 -0.12959020124351622 0.09072385852907812
0.06153794704382079 -0.12887659862242654 0.09091976252783465
0.061029361005468685 -0.12707873117458893 0.09011451966379806
0.061326406586569245 -0.1279384184132357 0.0907253922342337
0.06116458570590538 -0.12694132574315903 0.0909540268860738
0.06078822183618742 -0.12611133038713868 0.09001636928229255
0.06061218303153095 -0.12512084313375227 0.0903914119295727
0.06041396165162284 -0.12421157954097335 0.09071710907633174
0.06017432370864947 -0.12323617023904074 0.09112765626593022
0.059843062951571976 -0.1222889263275145 0.09106402299538949
0.059401000109072406 -0.12143525796438615 0.09045930142909009
0.0590225356508063 -0.12050482205958053 0.09028560707085474
0.058836547112425946 -0.11978358075562652 0.09049728887761747
0.05863321273466521 -0.11894893476242797 0.09069034997826213
0.05851005865741937 -0.1181173733472864 0.09096031757411079
0.058394105745869826 -0.1173256191038458 0.09122767127084473
0.05835149000490354 -0.11681417995092995 0.09153805017060554
0.06483045767070267 -0.1480894012877329 0.09096389627187002
0.06476439183759632 -0.14764757193063727 0.09074872219584112
0.0647301476115084 -0.14681741537901788 0.09071025575969732
0.064767912394194 -0.14608473508784345 0.09100220766639512
0.06481534722202813 -0.1451994237053961 0.09124296732120664
0.06485014460681171 -0.14427422464390702 0.09145829443278418
0.06486056811174898 -0.14332544256959273 0.09162722465818816
0.06469404395924874 -0.14255368906581753 0.09087578358998429
0.06462781318153867 -0.14168948005089016 0.09104305786488467
0.06454069794602582 -0.14084586483915681 0.09120284080365897
0.06444826072382014 -0.1398523754739361 0.09153681107348727
0.0642644252619168 -0.13894085164470224 0.09153671577624985
0.06396425734921823 -0.13822768322958173 0.09110315472468682
0.06379236220693169 -0.13751290671723404 0.09119160854165359
0.06325651956521887 -0.13616784584088046 0.09081784525988613
0.06358114143822292 -0.13682969533581124 0.09123114832565712
0.06336680748157937 -0.13595259336533666 0.0915421131052552
0.062996856417131 -0.13535132275329737 0.09081552367031187
0.06278952812548368 -0.13446339737237356 0.09114994285155625
0.06260229055017211 -0.1336709054926331 0.09141468089173878
0.0624348529501542 -0.13288213822956182 0.09171245292443293
0.06214369859505508 -0.13208381508129438 0.09102338367125282
0.062006333315062764 -0.131234891580268 0.09126255207166364
0.06188236530350132 -0.13038487069951932 0.09145719724666561
0.06176646459845924 -0.12954916496570623 0.09161147620413307
0.061638900860963505 -0.12868461936390746 0.09168536574718739
0.06148152587957732 -0.12775940903626753 0.09177507434464181
0.061314919400654845 -0.12682870210650393 0.09195400002746064
0.0609815953553336 -0.1259959461080935 0.09114803519361261
0.06079592522545471 -0.12508979588443916 0.09142828133495247
0.06060745415841641 -0.12423522356017672 0.0917421702166471
0.06047298375457937 -0.12354954407239953 0.09210306027957833
0.05972291038966399 -0.12172983199685546 0.09141159453770847
0.06016364946507854 -0.12256248177700972 0.09210198598906762
0.05983622807563706 -0.12157749986099804 0.09205491648224588
0.05937658142589919 -0.12071672547687388 0.09133637435209672
0.059022500193694476 -0.11966186803947161 0.09127002225082513
0.058908151832121364 -0.11892329766928673 0.09159075107248092
0.058752570768165306 -0.11803839517674812 0.09185345128358802
0.05861503119072025 -0.1172038739126651 0.09208218362855707
0.058538354524976695 -0.11652354280862043 0.09245240998738669
0.05850519561716843 -0.11596691833229066 0.092952471231182
0.0648417585220069 -0.14772463700535543 0.0912624492745964
0.06482966933983567 -0.14688988493370986 0.09151370166238727
0.0648739410016944 -0.145969963246664 0.09196559956344323
0.0649211462065508 -0.14509481365243046 0.09219562093779245
0.06498229363385222 -0.14410925505305136 0.09252230417716115
0.06496679981648032 -0.14315065475251113 0.09242170297188099
0.06484257461227536 -0.1423437500958848 0.0918560304266411
0.06473873589142719 -0.14145322869801913 0.09175013425669062
0.06471856333134375 -0.14072647682342185 0.0920870895781818
0.06469451935493409 -0.13997275220959762 0.0924175816290676
0.0642374354356838 -0.13835437867511124 0.09191717519134182
0.06454183546734618 -0.13901843166504882 0.09245070695427106
0.06435737155723728 -0.13811060449675394 0.09252658760419186
0.06401358887200445 -0.1374765115042897 0.09200932534109718
0.0637109943853002 -0.1364526804422514 0.0921737970419228
0.06347168970739733 -0.13575057024072948 0.09225604267036683
0.06315032904457688 -0.13510012759335252 0.0919004211258128
0.0628806955800709 -0.13429381360067327 0.09193532024259794
0.06274805754240263 -0.13365149774562776 0.09232347196065492
0.06257287733808518 -0.13284348251449732 0.09266959578315809
0.06227503504017552 -0.13204943863452503 0.09198258680322345
0.06213484547942058 -0.13119434271859237 0.09220528693386763
0.062006753915458714 -0.1303318550066996 0.09237485693776253
0.061885834194808725 -0.12945972594782792 0.09250155206902717
0.06175761645334693 -0.12856776467764128 0.09261385114085646
0.061611141810076486 -0.12765502538811818 0.09276191823999648
0.06145097152672182 -0.12674503889955466 0.09294806740079019
0.061139245977408954 -0.12592514853259063 0.0921733017047259
0.06095885674680413 -0.12505596626350762 0.09241895047517552
0.060787792634235956 -0.12424226068638453 0.09267822103890906
0.060605987076700125 -0.12344553765462109 0.09289078693694847
0.060457299479479025 -0.12275522708445945 0.09314173699416332
0.05975410008695999 -0.1209852503793718 0.09239028084239767
0.06015925227506149 -0.12183270722294104 0.09299903983373227
0.059919717039383785 -0.12078383102678454 0.09324457820316828
0.05942548419024623 -0.11996565192900506 0.0922640124376254
0.05920689521816146 -0.11889374820354309 0.09257096131292308
0.059020350492686974 -0.11795053711223916 0.09277245265551766
0.05886349199573284 -0.11708192431338589 0.0929758102041676
0.058693954878035845 -0.11628796851816436 0.09323786090393518
0.05855550500797971 -0.11561836339827664 0.09358715015856735
0.05847811225378895 -0.11508282175346969 0.09399685453775024
0.06495690619866243 -0.14635714260620836 0.09281396051923065
0.06495953134516733 -0.14575254092067808 0.09280609014385685
0.0650170351546809 -0.1450822288691151 0.09311585035755625
0.06506814589286895 -0.1443983022810791 0.09342486569656423
0.06498637714598132 -0.1425716796338255 0.09272195127141494
0.06507530773118822 -0.1433831850345646 0.09341333501874854
0.06505800823696337 -0.14233908090630407 0.0933289070997527
0.06491780977464805 -0.14164943675088115 0.09262502838369598
0.0649165259681038 -0.14058590470691368 0.0930738527148344
0.06480737663394188 -0.1396878049369514 0.09301622144116793
0.06479783861171069 -0.13909647830743177 0.09335306371057699
0.06431234861175787 -0.13755956469019937 0.09289229151359617
0.06462032349525651 -0.1381729320857988 0.09341621740415024
0.06440540976915891 -0.1373187032763292 0.09350266573199714
0.0640786263954592 -0.13677114788036346 0.09304949820244476
0.06340237816004977 -0.1353002402263632 0.0926824445880753
0.06370701131929882 -0.13590709636259027 0.09293399234770029
0.06354600639676851 -0.1351782234608828 0.09347080920222431
0.06313166589379958 -0.13451136898917262 0.0928035332703776
0.06291017113253392 -0.1336168882419268 0.0932999997759166
0.06270047811184046 -0.132762738546808 0.09365292171000295
0.062401427239165384 -0.13199672022821832 0.09294318683804788
0.06224768812355231 -0.13112829606809723 0.09314620954128355
0.062115126019537295 -0.1302550099956287 0.09328825771030856
0.061992289572666726 -0.1293773493867861 0.09341511234764542
0.061869923426547686 -0.12848419355527538 0.09355991567808418
0.06173220280179082 -0.12757019299757072 0.09373699708636303
0.06157692219675581 -0.1266462372633394 0.09393556127324224
0.061276383997717856 -0.1258490542285735 0.09316028762524811
0.06110232513495419 -0.12498314622663588 0.09337357931722315
0.060927310506871335 -0.12415677454055622 0.0935731616618974
0.060752257983870996 -0.12336044242946549 0.09376707290024895
0.06055391113175034 -0.12251916909107709 0.09392231246045066
0.060338092958644694 -0.12156185603454699 0.09408565957657003
0.06011237066778906 -0.12054404926662649 0.09424758380428012
0.05968338397538667 -0.1197480822853889 0.09339474143462737
0.05945473444987378 -0.11874379197506593 0.09352459375615106
0.05926025137116439 -0.11784007431580107 0.09365737188836555
0.05908062656646089 -0.11697535880824689 0.093856182126072
0.05884293338620956 -0.1161196724173718 0.09405846403972631
0.05863013118602576 -0.11535871718033801 0.09427799852409231
0.05852680426431671 -0.11488181553843377 0.09454987070577735
0.06505653141081616 -0.14642587615503738 0.0936730664157083
0.06511242474513619 -0.14631599547842347 0.09414815665209994
0.06507419656429984 -0.14589257310320514 0.09378403297755367
0.06509874152623052 -0.1450239222890696 0.09386850779367427
0.06513393728438013 -0.14432798255275991 0.0941733958374239
0.06518929091341742 -0.14356394368192718 0.09443743736481813
0.06508390548622471 -0.1415471851279743 0.09363461416759719
0.0651886614689224 -0.14254475547905562 0.09428048755535211
0.06510884532634577 -0.14075879223487636 0.09396475954004842
0.06524222936347233 -0.14144124041880465 0.09458878047728697
0.06523258709163257 -0.14045134790238187 0.09472098848660553
0.06501080499327834 -0.13982421497444789 0.09385953217426239
0.06493388610472287 -0.13885778665198292 0.09408961796900699
0.06485212821745995 -0.1381534933059645 0.0943155858091557
0.06431434291523108 -0.13677120127047745 0.09389569731204113
0.06463121246068249 -0.13738323842189618 0.09430395876211772
0.06441920001701353 -0.13646910709527565 0.09470466247679164
0.06399834004536055 -0.13595627721926518 0.09395122087893547
0.06371919294672347 -0.13499703127518128 0.09450254384101647
0.06329518086258135 -0.13433429579591827 0.0939130562253954
0.06304770255927797 -0.13346885197500366 0.09433817765940797
0.06281472212660746 -0.13260470819557746 0.09464232538093081
0.06251411307105773 -0.13189230547122846 0.0939146458000093
0.0623510142716376 -0.13101105932719942 0.09405976851033483
0.06222051981772831 -0.13015774259682553 0.09416636389466485
0.062107751692750596 -0.12930197931931128 0.09432246203447534
0.06199324068543631 -0.12840191122948275 0.09450819671312598
0.06185945400403204 -0.12745842630031792 0.09473082828332985
0.06170100448789898 -0.12649254493725698 0.09492800489679347
0.061409028927672506 -0.12572554084792786 0.09414487381539542
0.06122427190212654 -0.1248403838751803 0.09429443386298356
0.06104395520940411 -0.12402000583596418 0.09443920976138356
0.06088207506487131 -0.12320957680786225 0.09463596551498327
0.06070811750886494 -0.12232815601036111 0.09486113034286864
0.06052592884311967 -0.12129835448567325 0.09517892537254603
0.06025222447782903 -0.12031955763217267 0.09506649212207657
0.059897282834254974 -0.11949313856417196 0.09444508730915832
0.05960205871222461 -0.11852944444753402 0.09427346115310833
0.05946755989029455 -0.11778212823419099 0.09453584192529778
0.05923297445606073 -0.11684783227046149 0.09476054879592223
0.05893805005579736 -0.11593205955095016 0.09489885877011968
0.058703176916951184 -0.11516914812247209 0.09502846211393602
0.058592386715041155 -0.11473584963905843 0.09526187703306356
0.06517960758434509 -0.14595361337409937 0.09466377973510344
0.06533826394753006 -0.14570975803052708 0.09570886901674197
0.06519610745136617 -0.1452335469295758 0.09475611162633414
0.06524475597000104 -0.144256393971949 0.0950818474816941
0.0652932027588264 -0.14328705951352094 0.09521415072191448
0.06533952602510328 -0.1422657489534059 0.09535154200291453
0.06541209475093158 -0.14115074439525574 0.09560984900015147
0.06537165400473102 -0.14017402402529056 0.09546071275427279
0.06519490509104837 -0.13942368753058149 0.09489311891025046
0.06505074861638716 -0.13857396172489372 0.09478546521077073
0.06495894039407883 -0.1378798086421703 0.09504241612172803
0.0647898912728608 -0.13701074521726944 0.09532443871917866
0.06457871844751933 -0.13613752059338846 0.09569199178464705
0.06416257366688345 -0.1355889375876871 0.09511409743858952
0.06388133042305544 -0.1347161009959216 0.0955611603439345
0.06344621850463668 -0.13411798854882462 0.09498143714260547
0.0631751738440167 -0.1331988861572921 0.09544728856516328
0.06290437849375391 -0.13241017467420393 0.09545043493784774
0.06262688623865412 -0.13168371076161509 0.09494025809712925
0.062426502203229824 -0.13080436279368512 0.09481074168138605
0.06233946946547134 -0.13008391930460012 0.09502594700543669
0.06223281466247755 -0.12921738969861102 0.09521241592741093
0.06212815847128722 -0.12830153211770692 0.09547157296898026
0.06200412457633721 -0.12725888536907567 0.09582325566921286
0.061804513197591365 -0.12630068554230356 0.09575793613427869
0.06152970960424753 -0.12549570924142314 0.09519489160087671
0.06130095160999675 -0.1246041464580481 0.09506174018068277
0.06118092686778365 -0.12389891544817049 0.09530419731731246
0.06102777475734089 -0.1230720316239924 0.0955074632303445
0.06088024574335407 -0.1222375742150751 0.09577787128175742
0.06077740237648347 -0.12151743380620406 0.09609321060184746
0.0601660568382714 -0.11971666468328206 0.09534529019669286
0.06052177499098811 -0.12049270298588433 0.09604253206759704
0.06023529275417936 -0.11945133558909916 0.09592262221945629
0.05988429509253975 -0.11876783938555709 0.09517644599625308
0.05965579157070389 -0.11771706407136541 0.09548512337470162
0.05933257833781841 -0.11662516803951939 0.09577781202162511
0.05897160324300383 -0.11568674727495945 0.09559428581133099
0.058777820757981665 -0.11506511587659059 0.09574835169038934
0.05865514178146967 -0.11470369202672671 0.0957834795827642
0.0655371005561433 -0.14599218173136497 0.09660352143233593
0.0655139323750439 -0.14557583656128062 0.09666352553212025
0.06534943041030543 -0.14497566994867783 0.09585429348024134
0.06538406248400405 -0.14400844510118352 0.09598623461938692
0.06542450217336626 -0.1430492586651601 0.09610263065209407
0.06550512455703843 -0.1421062975859104 0.09628923657127059
0.06559344575497082 -0.14130786820351318 0.09651841235673135
0.06539727227316024 -0.13955626371641286 0.09576497716906023
0.06555994449432932 -0.14033993327754532 0.09634688183261815
0.06554709608743732 -0.13926714369405355 0.09650524156722066
0.06525881869282024 -0.13863591913048956 0.09565104912412627
0.06513211486134617 -0.13761262929750945 0.09594115775490172
0.06498443094483122 -0.13665207645611546 0.0963252877882542
0.06474018345064146 -0.1358817641631973 0.09644700497389563
0.06438020398526087 -0.13521922036917028 0.09629963970338425
0.06400423421729946 -0.1344151008430692 0.09640450097784865
0.06360652623937484 -0.13383883446931719 0.09606212317364726
0.06336290826184736 -0.13319862554301984 0.09621429599912475
0.06283392624443215 -0.13187103420172078 0.09579668314783649
0.06314624698970808 -0.1324802435594728 0.0963384176777175
0.06291728571803669 -0.1316363360313536 0.09638324053254008
0.0626350333561126 -0.1309343625968504 0.09577407812798716
0.06245179814383183 -0.12993076812075355 0.09576987539738137
0.0623956141516074 -0.12914638771127052 0.09612135091045312
0.062290105970872804 -0.12820776699640454 0.09641322642486512
0.06221224159686452 -0.12746321440339212 0.09671394855498772
0.06173958620092629 -0.12570644529275724 0.09610434621060246
0.06202131598924595 -0.1264684497374559 0.09674615233783537
0.06181071900324277 -0.12547532623417137 0.09674540988179943
0.061514404482260754 -0.12470866060082343 0.09607998277239922
0.06128797211995675 -0.12371020331391606 0.09606950273926312
0.06118004689293092 -0.12298287447149044 0.09635809656201368
0.06104294668797584 -0.12216920083035811 0.09659957586830957
0.06089254825222536 -0.12134311045203287 0.0968041453893088
0.06075994166413838 -0.12059406937179855 0.09700454412153164
0.06006228190440521 -0.11861895373116178 0.09617619707070532
0.060479486076295136 -0.11962127707559275 0.09683456722405445
0.05980115706144232 -0.11761712308143854 0.0964675810452203
0.06022516587337594 -0.11850941285070826 0.09714389786365284
0.05954977821653591 -0.11680626970783556 0.0967112093795763
0.05991493857568235 -0.11747285530439183 0.09744935872447275
0.05956800353854279 -0.1166065437781207 0.09725226015441794
0.05918776513442107 -0.11592458759141011 0.09643731950580367
0.058828264817039254 -0.11504319893451838 0.09611017715650212
0.06580410809217103 -0.14598382456716838 0.09756541257620538
0.06570739305606052 -0.14535268017057282 0.09742122200365744
0.06554769802638606 -0.14464717409842712 0.09686213585291155
0.06552131317718629 -0.14370177680615565 0.09671982057703936
0.06560903308654482 -0.1428911633149677 0.0969735662208871
0.0657050806959582 -0.14194300709265426 0.09712282569359085
0.06575790272206733 -0.1410148795613564 0.09719492668621156
0.06581763552181379 -0.1399417265612108 0.09737081463601582
0.06572702005877028 -0.1389524093560617 0.097230677101171
0.06547583321500194 -0.1382179223163633 0.09669487588073303
0.06529549499106028 -0.13733506165848328 0.09667906305154349
0.06529151188534153 -0.13675590852738617 0.09707267240905071
0.064710332309122 -0.13552188598138012 0.09677336627928436
0.06505331370825466 -0.1358603970968678 0.09721266365045991
0.06388083390677927 -0.13387911231806918 0.09682165170494858
0.06431764380649316 -0.13430134388278775 0.09728428591130289
0.06469056956891682 -0.1350915459235236 0.09718791531021065
0.06395555553089159 -0.13356900880734765 0.09739445522425609
0.06357617738528089 -0.13312140467042136 0.09695044431656552
0.06335317565629771 -0.13241711073248094 0.0971044188176826
0.0628604872836914 -0.13104897223202638 0.09667989011571405
0.06316367292688867 -0.1316423626948866 0.0972259491506932
0.06295593509474923 -0.13072027349498083 0.09727002771386074
0.06267918479402372 -0.13011858212562316 0.09664653549998023
0.06259146609103935 -0.1289393275938288 0.09716486111868483
0.062412243949758556 -0.1280008934914395 0.09716056559904125
0.06233046952549589 -0.12727776920103342 0.09741555655607222
0.062237418742031876 -0.12655439357875425 0.09767344746220334
0.06174171316235372 -0.12484451357801837 0.09706707728709307
0.062033994590489326 -0.1255694777176304 0.09770622455068581
0.061816101973238356 -0.12457074245415235 0.09770717484157254
0.061517426542893626 -0.12382979051864319 0.09704864932554073
0.06129625721898252 -0.12281708478958045 0.09708555151965624
0.061198722832741276 -0.12206438521799481 0.09741211538407564
0.06103608874397674 -0.12117923303604472 0.09759911758005488
0.060840733804748325 -0.12029548756937776 0.09767897163738656
0.060612830873605535 -0.11934985804698953 0.09783358688097765
0.06035750682949277 -0.11839525998426743 0.0980684259233331
0.060128431097659404 -0.1177024224433405 0.09828107103843345
0.059482426152088805 -0.11634017969613508 0.09733070234484231
0.059825846547208135 -0.11701498418247921 0.09793521074719198
0.06615498790267285 -0.1464498298782639 0.09833178749544257
0.06605232079101483 -0.14613346856541148 0.09823483934081531
0.06577254862665657 -0.14476374575239778 0.09769415214522975
0.06602391833631038 -0.14537931097064438 0.09827909949285102
0.06594558960039995 -0.14441479680127728 0.09822069848235009
0.06573802417287447 -0.14382388633676765 0.09757909497871022
0.06588817238825942 -0.14264716025735363 0.09790879681703345
0.06589832609717149 -0.14166439214656193 0.09776647872909709
0.06599340146682416 -0.14089170139761964 0.09797950932960237
0.06609270527868562 -0.1401059774974515 0.09820310772685
0.06574887154312598 -0.1383262803943148 0.09748667082208477
0.06604104398154982 -0.13902526325997752 0.09810430040255297
0.06592025957816589 -0.13799012997622856 0.09800618202754023
0.0655996018844104 -0.13745817309803562 0.09741943292145998
0.06553998814937867 -0.13648028249486488 0.09779603925033126
0.06547811890567083 -0.1355399146841193 0.0982565466027709
0.06469513959382045 -0.13462519498336634 0.09768187335929511
0.06502720468192982 -0.134957736114371 0.09794871731141278
0.0638391937586049 -0.13303010701897505 0.09773624419496713
0.06422715812572811 -0.1333626228248832 0.09816573612177966
0.06477381170820047 -0.1341034860526884 0.09835026515156953
0.06392557546498874 -0.13267907217588928 0.09828881898427516
0.0635750816899667 -0.1322636857955672 0.09784468228832054
0.06338120016181192 -0.13152187583333752 0.09798264768175777
0.0628978990635089 -0.12988067249817042 0.09764521009596946
0.06321443991930532 -0.13073893934209982 0.09806846368220573
0.06283956225946456 -0.12903107735191618 0.09803545579358941
0.06312890775259715 -0.1295665245124788 0.09860995628423272
0.06294249116278464 -0.12865052711542252 0.09864537904191535
0.062641219429716 -0.1280106827400737 0.09806862613834862
0.06244764100339696 -0.12705086672333282 0.09811001769706555
0.06235319180672058 -0.12631984480110825 0.09836892338799746
0.062253730115085594 -0.12559223044185205 0.09862632780809355
0.061743619530083296 -0.12393169657809226 0.09800545550533148
0.06203912023816518 -0.12462031883069367 0.0986428587261748
0.06181276176798712 -0.12360521869776012 0.09862320764404658
0.06152355829142166 -0.12298625103055039 0.09794002742670593
0.06136383827796135 -0.12184163121885756 0.09837028995370516
0.06112383565932071 -0.1208944856042348 0.0982576816165065
0.06096886715959224 -0.1201122043249032 0.0985077870489356
0.06073386130518594 -0.11916409110706212 0.09873659167632061
0.06046743740636945 -0.11829947789984478 0.09886620276029671
0.06021203416688309 -0.1176925989638165 0.0987405756777651
0.06649169067072458 -0.14671921143379676 0.09893380796196559
0.06686098522100185 -0.1469551199112285 0.09952766335913645
0.0666789527021935 -0.14658146594260135 0.09933221058201581
0.06635318094134397 -0.14617238937647226 0.09883525884513768
0.06646713631499274 -0.14526360768278368 0.09924784867372201
0.06605299523823545 -0.14357112567046693 0.09848281320424629
0.06625851507754899 -0.1443914228187277 0.09892769062353485
0.06618217572476537 -0.14273778785226307 0.09872536808341917
0.06645464614807471 -0.14328710372400724 0.09935120202571204
0.06642175577384775 -0.1423156654712745 0.09920897630125312
0.06616458030155169 -0.14179349115362713 0.09853786627155785
0.0662836610844285 -0.1407804133448313 0.09871520067127043
0.06634732181473091 -0.13985068926867783 0.0988067653894767
0.06641541400558658 -0.13902146193390577 0.09893644480544354
0.06593329207378887 -0.1371411917555853 0.09827308295664504
0.06630524955357452 -0.13800919192449332 0.09878166515744127
0.06591710519594152 -0.1361434164908058 0.09862704683531139
0.06634778046946162 -0.1367947817814765 0.09908209746250148
0.06585027461920122 -0.13533192708465883 0.09896140900864583
0.06636221307146135 -0.13563142290929558 0.09950060094876889
0.06599842356614732 -0.1349099962832491 0.09942721360665227
0.06549732372812875 -0.13450459846776183 0.09908823851077302
0.06506263018302459 -0.1336905642853187 0.09926258248005866
0.06464108976987454 -0.1332213997193355 0.09907467929706569
0.06384402379776477 -0.13212196215386968 0.09862684144151106
0.06420276287411386 -0.13247932136551863 0.09903271566772048
0.063950438956639 -0.13175537179394614 0.09918328090578701
0.06361413293359783 -0.1313075061478737 0.09873453666415265
0.06340892652303368 -0.13033576790083443 0.09889905052367776
0.06340796139861474 -0.12961659986360896 0.09938376545555082
0.06289337084019637 -0.12798540523756285 0.09896231725777364
0.06320561378038768 -0.12857760072336333 0.09951496408360797
0.06299342322025138 -0.12761961164653565 0.09955712787854677
0.0626797372016165 -0.12701223652438187 0.09899339441830085
0.062468989889450904 -0.1260621173163094 0.099052416029879
0.0623627204974892 -0.12533336889883287 0.09930628654897522
0.062253979600832565 -0.12460629608742094 0.09955232306572465
0.06170397970144011 -0.12276564590299162 0.09894852841682249
0.062037744071812534 -0.12368268821105355 0.09950534650626196
0.06158947425383043 -0.12194554330967478 0.09924173144233706
0.061875300676255934 -0.12250968336032281 0.09992738583469896
0.0616386385809693 -0.12157810081633669 0.09980274702792963
0.06133435292919793 -0.12101357582521342 0.09909967118236468
0.061107192117307155 -0.11996101341191318 0.0994089642167138
0.06084608579778063 -0.11897011935120852 0.0996793660733223
0.06056116357479763 -0.11827436578876607 0.0994481383370996
0.06747789666057799 -0.1476367289041401 0.10034229832950728
0.06761482657870241 -0.1475817093289726 0.10064547746560258
0.06734222990333832 -0.14722104555203835 0.10027573713783391
0.06673204216813564 -0.14593136215467445 0.09962282038082576
0.06702741157961811 -0.14653680396459506 0.0999641964653867
0.06679217336930181 -0.14517623805473562 0.09991625251611676
0.06713370251940262 -0.14554849503196257 0.10042731355909598
0.0670108768955658 -0.144709425110887 0.10035203506588684
0.06669549288272938 -0.14431018427441467 0.09980406240431963
0.06685331974855449 -0.14333964234353969 0.1001011206744704
0.06651408218811282 -0.14147281221624053 0.09930417655220393
0.06682898262724608 -0.14222561633052952 0.10000337402469123
0.06659505587166097 -0.14052794815222316 0.09937511194593439
0.06680884932668446 -0.14114597971503595 0.09986468765556668
0.06667585940001554 -0.13960296600225652 0.0994663800728334
0.06693526867590001 -0.1403005659408854 0.10001424237686397
0.06673652365705343 -0.13860042451928287 0.09952368785183392
0.06704908092174472 -0.1393027798596058 0.10010999229439858
0.06677046313402936 -0.13749169421855262 0.09961191074157462
0.06719912674068189 -0.13819318147266585 0.10027176866913713
0.06679490323705202 -0.13640530103837242 0.09981115276963207
0.06720447470332494 -0.13700777105518522 0.10030416933613968
0.0668050148897843 -0.13575778716941694 0.09999012539168364
0.06721528878612211 -0.13589770741293994 0.10051792835393573
0.06593410466466208 -0.13452259389810775 0.09962305888561152
0.0663411404505401 -0.13464867488584772 0.10006158835806103
0.06679285172391454 -0.13522893537524366 0.1002319074179619
0.06497322936115925 -0.13314018488406082 0.09972534343073411
0.06546953014421072 -0.13346838315407467 0.10011068312000908
0.06589728031926428 -0.13410456197681028 0.09998019684253494
0.06507513992739314 -0.13281990028396976 0.10026862661590662
0.06466807525078781 -0.13247993175708966 0.0999207647312811
0.0638964554757 -0.13117226140991617 0.09953697632351174
0.06423810188584188 -0.13159426699561239 0.09993569478037725
0.06401692773381534 -0.13076484859261786 0.10013787049047188
0.06369719448761578 -0.13034757426186586 0.09964825530729823
0.0636002773011007 -0.1291843890098247 0.10020856311641262
0.06342704501390843 -0.1283859275075927 0.10029231422504338
0.06293021879061006 -0.12695791527641803 0.09987158049585741
0.06324591938561314 -0.1275345552666003 0.10040306330393349
0.06301752686566245 -0.1265916847479846 0.10045832121070306
0.06269724571210149 -0.1260104541240954 0.09990448789370805
0.0624739938438667 -0.12506871477477036 0.099968141213159
0.062367775847460206 -0.12429141532535189 0.10025668393570647
0.06220165011375777 -0.12334384814378327 0.10048338847483117
0.062087519074852555 -0.12257348487359199 0.10074395407016473
0.06148043156192775 -0.12075554760201179 0.10005022356157443
0.06185093280220655 -0.12165351636983164 0.10065680713400368
0.061250668918644884 -0.11979280544771333 0.10032835898246584
0.06163300169990738 -0.12056208588599453 0.10096583580444568
0.0610542797928569 -0.11910457924370181 0.10054257536574963
0.061369283365992636 -0.11959135925403024 0.1012751091341332
0.06109955289890106 -0.11898411072855931 0.10105898597907108
0.06084070797428382 -0.11866675832954833 0.10023965138448479
0.06811927753280424 -0.14795910410346594 0.10154805189402732
0.06764225308326804 -0.14721830364971086 0.10085709243606292
0.06799307694281011 -0.14751111295503588 0.10143643938527817
0.06781203239780317 -0.1468274405448123 0.1013288042167379
0.06747693774082895 -0.14643745421716836 0.10081188553877579
0.06761341548477035 -0.1453257883122385 0.10126641898330561
0.06710173883281785 -0.14390052743136483 0.10054022904321822
0.067366335028861 -0.14454434631570565 0.10095371120924425
0.06718059161427208 -0.14293240799419096 0.10069060791877804
0.06747437652262525 -0.14354176658659779 0.10121570781326544
0.0672503471772089 -0.14208329547953508 0.1007787226263101
0.06756252790527112 -0.14248325782004392 0.10138110414768627
0.06748402300578811 -0.14160427970952175 0.10118113509896684
0.06717625018818196 -0.14116491995304328 0.10054894195121747
0.06731117437413608 -0.14004832676050522 0.10065921962337783
0.06743222384027835 -0.13907966227140356 0.10072675066388671
0.06757355367920356 -0.13837673696625297 0.10086997205008738
0.06757714567837836 -0.13758403406755138 0.10083877266478586
0.06787758519379701 -0.13819399958150583 0.10136733309318138
0.06759568206092738 -0.1366219846841717 0.10089844652284029
0.06794687086680154 -0.13722408715537948 0.10142988932243172
0.06760360537479486 -0.1360215766277561 0.10098185813320117
0.06792136232310453 -0.1361902126502137 0.10146201928758981
0.06676737607656832 -0.13473980339927585 0.10049189594372465
0.06719085693877082 -0.1348978734314033 0.10097017238618684
0.0675985491282281 -0.13553037523551645 0.10115311129984587
0.06590715417604376 -0.13366167977202253 0.1004665762673714
0.06624033082033151 -0.13393033998826684 0.10060405768577538
0.06669957603391417 -0.13431982246393676 0.1007867943703997
0.06495756483256693 -0.1323269120731465 0.1006478337443928
0.06536929895488203 -0.13265717075657718 0.10094236050619369
0.06603372430751936 -0.13321012293563983 0.10120143935887056
0.06508651799528434 -0.131918485283936 0.1013543230476536
0.0646652626689001 -0.13170088329725443 0.10074441706469205
0.06394437511654275 -0.1299502071590956 0.10058133200278978
0.0643324027175791 -0.13069267553384792 0.1009536498748475
0.06386272863497133 -0.12912897837798407 0.10097964553148332
0.06416743187951343 -0.12952308998059053 0.10152787756676612
0.06394951736563573 -0.12873073404941343 0.1015343066424127
0.0636425034309808 -0.12822972060546617 0.10102656224168151
0.06346031756762899 -0.1273971347508958 0.10114217305394428
0.0629416899235027 -0.12594825735879475 0.10075425004184814
0.06326875919324339 -0.1265063579403671 0.10129795562095947
0.06301091634904368 -0.12554367630718102 0.10131254215809571
0.06270457333345014 -0.1250784799396598 0.10073472949242411
0.06253783616719667 -0.12393558156091598 0.10119195895999786
0.06230797108573295 -0.12305097125157533 0.10116838239454796
0.062191303683348305 -0.12228655052638136 0.10140743012918943
0.06199336007559293 -0.12130109308052997 0.10162406560816695
0.06175461184980138 -0.12033692511559729 0.10184201354602959
0.06154982872738303 -0.11966473425417368 0.10209188593508642
0.061344244241565364 -0.11918388357709606 0.1020432271678599
0.06827347160079453 -0.14786704466485895 0.10189345191694367
0.06837669585346906 -0.14735134071321973 0.1022571083865757
0.0678752011689266 -0.14601363181971028 0.10162551292992814
0.06814132946688395 -0.14667143645269587 0.10197945110515111
0.06795634150015704 -0.14515395364177464 0.10190988103193661
0.0682653179997743 -0.14555429831709726 0.10243716834202812
0.0681519938444802 -0.14467723368872903 0.10235683046206906
0.06783805096430714 -0.14420287855662725 0.10182212203420679
0.06777836023463424 -0.143183015503021 0.10179484894667405
0.06789405475767561 -0.14250556819291205 0.10203144432536725
0.06757698146411825 -0.14074183146126457 0.10125137001187436
0.06784150933669642 -0.14156022851607067 0.10186452413846284
0.06768614630690158 -0.13970913457601541 0.10127146111720568
0.06796335102847142 -0.14037500345699372 0.10191148156504068
0.06773843082578282 -0.13889062302582353 0.10121014786151712
0.06806717062736825 -0.1391579236100404 0.10185650543653847
0.06829878240864715 -0.13801731383193674 0.10208083511100141
0.06832350177470499 -0.13687393828709774 0.10205396883412857
0.06831525600865826 -0.13593117363135912 0.10216558959106795
0.06761168753007095 -0.13505874335475704 0.10140315808003336
0.06791801663463151 -0.13535911020387514 0.10172925997185545
0.06655872405421202 -0.13376919926576764 0.10119470728854783
0.06705409954142072 -0.1341035769470834 0.10149827167543886
0.06765086547270746 -0.13461421411295554 0.10184470422973156
0.06634521864770038 -0.13271250553611624 0.10231426515154651
0.06568050478018618 -0.13216683906729534 0.10206721360989786
0.06675275382435512 -0.13339826299744514 0.10192607858001408
0.06517111362565504 -0.13145935738882614 0.10207631258676428
0.06478348436073891 -0.13111782340321748 0.1016244683536859
0.06456046487651713 -0.13010914871106863 0.1020927860728037
0.06436078821103022 -0.1293728268568599 0.10221983058072445
0.06388484050157606 -0.12813233438584337 0.10181193238358834
0.06418071605026035 -0.12861567107785463 0.10231546138976955
0.06396621948635312 -0.12775317095684435 0.10235416114962899
0.06367002247144833 -0.12732277408252318 0.1018185318480903
0.06355653610570282 -0.1262734182515342 0.10235349666388258
0.06289334710268712 -0.12472988419963017 0.10165507406938949
0.06322480197718339 -0.1254516541729957 0.10205610476091902
0.06277924640271719 -0.12395092281524005 0.10198539392560282
0.06309342210530208 -0.12442615337287599 0.10255017657049936
0.06283751234546513 -0.12357264102413998 0.10252065134506874
0.06252808557881288 -0.12308948833693421 0.10192212530708115
0.062341601083694104 -0.12203224729097219 0.10225593521631235
0.06210977739819787 -0.12094891346990679 0.1025796365702241
0.06180216120302103 -0.12007958305018403 0.10251269245050852
0.06159687931164198 -0.11945719030164002 0.10275987806926212
0.061443442031354586 -0.11898750552398078 0.10296932793058929
0.06859094746354946 -0.14763443648885627 0.1026127477759362
0.06868586769946168 -0.14721053952204954 0.10291891395116234
0.06899093288822622 -0.14726492453295628 0.10348819641425852
0.06890514677455875 -0.14676666110685413 0.10343197679055051
0.06856992986411267 -0.1464568165562299 0.10285193018042474
0.06867864282348932 -0.14537854614945928 0.1032788382334522
0.06819567898224106 -0.14401852558777545 0.10254213890378149
0.06846890966173462 -0.1444700964014529 0.1030271917474742
0.06839142772363263 -0.14358884097999927 0.1030020814523799
0.06810410377731461 -0.1431939758307461 0.10244179679121543
0.06818016719762011 -0.1421350566226453 0.10258491400722157
0.06825469001323843 -0.1410846478055625 0.10259610775851798
0.06836486978320507 -0.13999747998676204 0.10258330487848051
0.06849586546786314 -0.13898684317533 0.10259207616439056
0.06865195831391073 -0.13828005275704014 0.10271124177070812
0.06866884840185761 -0.13748848197540814 0.10263844674857138
0.06895828430562116 -0.13811537746704167 0.1031938344069236
0.06868771760695014 -0.13653569927687667 0.10266736711650983
0.06903583138038608 -0.13716785803208192 0.10322017871070635
0.06863686876173339 -0.13575263572370128 0.10272983019610446
0.06905082104679408 -0.13609781148291128 0.10331404055929035
0.06875920715139938 -0.13525604054530502 0.10311629607055586
0.06827473533608909 -0.13504932782110945 0.10248247362123908
0.06796769451009609 -0.13426640685355623 0.10260968317004406
0.06741306131949842 -0.13379680925351797 0.1023334190834283
0.0661108963436608 -0.13225973287950266 0.10263877936752998
0.06646174614470712 -0.13234100026814594 0.10298945132851897
0.06710808417530176 -0.13290906675552613 0.10301916758393313
0.06497478735011121 -0.13073859998218784 0.10248765120787345
0.06544069336726273 -0.13126381186293484 0.10281581908213425
0.06604250780757455 -0.1317814839617727 0.1031397602709974
0.06481620703965887 -0.13002374556182766 0.10287344985888566
0.06519843505420396 -0.1303455533097882 0.10339223787824454
0.06487785739936354 -0.12963242275629547 0.10341885157654337
0.06455524739191323 -0.1292014078959808 0.10293174458756818
0.06437090456584481 -0.1284514549915687 0.10302839694209795
0.06387639089696248 -0.1269714122194035 0.10272008987034043
0.06419742559218594 -0.1277109427018449 0.10309515419499612
0.06376999336897986 -0.12616591220437354 0.10308487118527772
0.06406324988956975 -0.12660036816850695 0.10359162873285582
0.06383382153732421 -0.12575685563193859 0.10361858207109957
0.06350334280317442 -0.12524273452494988 0.1030831287321732
0.06329538609006222 -0.12440588721115498 0.10319234384419429
0.06269217627940579 -0.12277544237095372 0.10280638275442569
0.06307539811231108 -0.1236184298179156 0.10326291624440881
0.062492918107844235 -0.12178626636846666 0.10313118915005066
0.06285972859969619 -0.12253085535707767 0.10367293337827155
0.06229511712263866 -0.12097586829961632 0.10339763433784943
0.06258801278532913 -0.12143590026227238 0.10405333000159536
0.06225778557500412 -0.12058789703190981 0.10392133930847419
0.06197170064482161 -0.12013944299666465 0.10328458596090459
0.06169067776088562 -0.11931170250737055 0.10355722551990691
0.061476335422078345 -0.11888511604868125 0.10335372934701874
0.06944373286180565 -0.14728224365453355 0.10432245725181595
0.06894946066385468 -0.14599050079352133 0.10367428142089663
0.06933187356477123 -0.1465461274066574 0.10426094286294738
0.06896614210304465 -0.1452254543448388 0.1038824550827891
0.06923883443822033 -0.14545061854010932 0.10435716070893698
0.06912317044143135 -0.14474295876394824 0.10430325644345931
0.06884783881095925 -0.1445527300907299 0.10377925798450907
0.0684663257644851 -0.14274933831408404 0.10319260482697797
0.06874363929358002 -0.14353157793574958 0.10372670341658605
0.06854430221527406 -0.14172377132732078 0.1032722663386428
0.06887358059670372 -0.1423210829004944 0.10400920375181255
0.06865078630633872 -0.14070728425468082 0.10328380186635559
0.06887500999357489 -0.14134188475215365 0.10386372259598185
0.06877008617799943 -0.13966515195246826 0.10323960071280644
0.06912748448028425 -0.14041045303687127 0.10407664613960288
0.06881435318589425 -0.13881814118977803 0.10309920842314427
0.06919009832831206 -0.13903899253429441 0.10377776938466005
0.06935480310925964 -0.13790417889094103 0.10378919463673893
0.06943460286312535 -0.13689264302799847 0.10381849888078207
0.06947955404757268 -0.13604658777495 0.1039391928262812
0.06852564057506681 -0.13437271169126247 0.1033010317986946
0.06920983300257925 -0.13510445561991066 0.10383601111463842
0.06789284256476169 -0.1336319059627937 0.10313406539884544
0.06839107700063557 -0.1335890582120399 0.10373842192438018
0.06906082652882001 -0.1338593427103127 0.10426142359467519
0.06734834934562892 -0.13247579523686193 0.10381296908609845
0.06679735936066021 -0.13200815887282435 0.10377485499383152
0.06789562463496764 -0.13295811743919392 0.10381129595935244
0.06851639702418441 -0.1331853140483923 0.10419616716699148
