# .PCD v.7 - Point Cloud Data file format
VERSION .7
FIELDS x y z
SIZE 4 4 4
TYPE f f f
COUNT 1 1 1
WIDTH 789
HEIGHT 1
VIEWPOINT 0 0 0 1 0 0 0
POINTS 789
DATA ascii
0.06443435612207153 -0.14800399065940495 0.08860303907165742
0.06433040505629761 -0.1475727415253059 0.08801095143822947
0.06426095119192715 -0.14686237486836434 0.08815601126904901
0.06422641041573507 -0.14599587256382465 0.08831620693125243
0.06422166322775602 -0.14510659686439606 0.08848281028627795
0.06425727056769821 -0.14421860663354857 0.08867031611005406
0.06426329100849372 -0.14335344337411118 0.08887768543871352
0.06405193752442495 -0.14255513273249354 0.08816122359631057
0.06397617975558191 -0.14173930857361647 0.08835586248950188
0.06386159838820121 -0.14086226789933373 0.08855368659992058
0.06371142575782054 -0.13995395182104658 0.08877889268571221
0.06339881710169581 -0.1392021251918607 0.08801345348933201
0.06321643659355879 -0.13832028927426546 0.08824202866776981
0.06305229962435216 -0.13749950899798227 0.08848824148250167
0.06289814706018654 -0.136699321632866 0.08878307831845667
0.06257223209366135 -0.13593497871970436 0.08809413802371109
0.06240960790658047 -0.13511450839422373 0.08836903115685187
0.06229300926424464 -0.13447967213932638 0.08868265695803033
0.06179778479309842 -0.13288428153707066 0.08815623569673692
0.06207029685443621 -0.13365330775773182 0.08862022900498862
0.06190728227231494 -0.13281441392509105 0.08891253903217956
0.061560182142268466 -0.1320397483532054 0.08806490968296421
0.0613955749179977 -0.13111369408194826 0.08837391775703922
0.06124518701660682 -0.13019790852868363 0.08864720859884138
0.061112814931099796 -0.12917050126669857 0.08899531409854258
0.060890585204571274 -0.12818358770570315 0.08887966775840546
0.060551824877015145 -0.12734715306682295 0.08826547592018025
0.060325005265806836 -0.12641375067753013 0.08809313248525964
0.06024260402532153 -0.12569619103422786 0.08830029460620958
0.06009697512918256 -0.12487582383187293 0.08847467734477099
0.05993015816190378 -0.12406022734765444 0.08871709625351623
0.059712715612355485 -0.12320315850341143 0.0889569065955842
0.05944754876516561 -0.12232155533630927 0.08918596758426993
0.05897894888805733 -0.12154690182938044 0.08840230418387392
0.05870517600982563 -0.12068793719760539 0.08860396417297446
0.058475827758039466 -0.1198724988165201 0.08882176842401147
0.05833568370675414 -0.11917030597315258 0.08913999022896135
0.058255475931196135 -0.11856178992953081 0.08956456945125842
0.06451932988952346 -0.1480048262427488 0.08952492413854841
0.06440419185314629 -0.147600925913836 0.08890259001143015
0.06437080982210522 -0.14683246358427807 0.08911415460182244
0.06436331410799474 -0.14595095534208444 0.08928171577916598
0.06439910110802324 -0.1450629857366251 0.08944618415759492
0.06443253100773848 -0.14417737049178084 0.08963283371825254
0.06442729417066179 -0.14329938934011452 0.08982677529333422
0.06422502251799082 -0.14250483535205097 0.08908494829546337
0.06414979865441763 -0.14163279013206873 0.08931312549365254
0.0640420897292296 -0.1406736137983776 0.08964185679150752
0.06384681867225196 -0.13978285992412415 0.08959462224913255
0.06356018146475696 -0.13900635399731753 0.08909873010142326
0.06333434254557688 -0.13813292511811553 0.08905709467558422
0.06323382972821807 -0.13743267328804643 0.08943186048584839
0.06306827756342767 -0.1365904335357201 0.08972950127416733
0.06273425639077092 -0.13587939941548552 0.08906333646679299
0.0625633431895739 -0.1351003735634614 0.0892795204414432
0.062387478712188735 -0.13435745817595168 0.08942850705479657
0.06222056294024228 -0.13357536470451675 0.0896250842064351
0.06205153242355657 -0.13274682993856654 0.08986096103441184
0.0617378315347649 -0.13194848712266452 0.08911556862323138
0.06158813385584704 -0.1310638906399831 0.08937072415909053
0.06146553460172645 -0.13018657965702118 0.08964917237459911
0.061396174532682354 -0.1294676035968867 0.08997661297090784
0.06085778298072283 -0.12759409151862747 0.08919535526037496
0.06118550871208683 -0.12844132286776866 0.08991298624654141
0.0609844117123489 -0.1274325013486516 0.08981963385624174
0.060643101837969254 -0.12659619071873887 0.0891158923906469
0.06042381090757788 -0.12558457129832562 0.08906636357873493
0.06033358330483865 -0.12488854368255327 0.08939899513728358
0.060146825988251384 -0.12403027434989203 0.08969547909750795
0.059915206383411676 -0.12313303431215226 0.08998156400982232
0.05963868610445018 -0.12220833708231649 0.09020864076954233
0.05915922263170837 -0.12141621814512564 0.08939119042101758
0.058858615064248054 -0.12051633994067004 0.08952355549864553
0.05861403233227321 -0.11967989973320271 0.08964908654423696
0.05841841709188411 -0.1188967494637389 0.08987634736611032
0.05832048468776291 -0.11816850216509868 0.09021654573661787
0.058254067671111014 -0.11734609670003415 0.09065578284408307
0.058206051833803236 -0.11681393576550658 0.09094371289198819
0.06461181407085129 -0.14791954798298168 0.09045620106036578
0.06451315831285515 -0.1475441603246822 0.08987499654664423
0.06449074995333395 -0.14674133602768372 0.09005901174017225
0.06450633867061321 -0.14587256940690194 0.09020284109263356
0.06454983868521331 -0.14500542588862397 0.09039503082569807
0.06458529377456126 -0.14410774223061854 0.0905904136332139
0.06457811860623064 -0.14320918074367683 0.09077691318580818
0.06438854877365253 -0.14242502932346637 0.09002841227364722
0.06432719807872561 -0.1415626063003687 0.09026201605234666
0.06428059618482886 -0.1408596342231537 0.0905506549973964
0.06381730489925452 -0.13922164879609042 0.0899974194321296
0.06409898503103556 -0.1399718116672445 0.0904902892893453
0.06397039395456695 -0.13897456737951022 0.0908105788639042
0.06360076128759713 -0.13830001728297017 0.09001240036317149
0.06344148270276478 -0.13724609586566916 0.09048806854554967
0.06320306416699893 -0.13643442915669518 0.09049983251178112
0.06289613772073926 -0.1357287484736163 0.0900621061677102
0.06265035269170272 -0.1349386796217528 0.09000170790515695
0.0625266056381216 -0.13430218931173413 0.09029688512356007
0.06235947585975693 -0.13350849477447815 0.0905585012837126
0.062195823994921705 -0.1326901226437719 0.09081372876113367
0.061894450034081304 -0.13189375500627862 0.09010124550728117
0.06176618632039215 -0.1310341623913939 0.09034799039924296
0.061653165403822964 -0.13019835368131852 0.09058887222009597
0.06153630952743956 -0.12936645832979107 0.09076213718797715
0.0614508758844833 -0.12865403740206277 0.09095615220847938
0.06095166982981657 -0.12686313770828817 0.09014210944275163
0.06124397257208426 -0.12771902191793044 0.09075763066433395
0.061086125249434 -0.12672375193138624 0.09098299793041403
0.06071475359354251 -0.1258980968794413 0.09004068441513016
0.06054187648965295 -0.12490887343731419 0.09041355221897748
0.06034673983213051 -0.12400087525558949 0.09073722562596068
0.0601107197045716 -0.12302648683839329 0.09114552343569624
0.059783709237146425 -0.12208101577034486 0.0910793975760466
0.05934697457239851 -0.12123100639622798 0.09047236966631989
0.0589732407023706 -0.12030342908814418 0.09029703429885766
0.058790370866379095 -0.11958366641451817 0.09050756549615611
0.05859071497744645 -0.118751293683531 0.09069905493871176
0.0584707835143247 -0.11792179929573174 0.0909669500710112
0.0583577127571526 -0.11713229619427017 0.09123190176987979
0.05831659470196138 -0.11662203804092104 0.09154049621628522
0.06467755826033579 -0.14780964268524083 0.09108325402617379
0.06461361088849236 -0.147370645161064 0.0908656312490344
0.06458227300201896 -0.14654459154217073 0.09082314503539732
0.06462190823531266 -0.1458144721829386 0.09111214545796363
0.06467119426322875 -0.1449325732535743 0.09134933641118102
0.06470766189163445 -0.1440109288412388 0.09156088467965257
0.06471981791331846 -0.14306623037598176 0.09172534737747791
0.06455382577648738 -0.1423010334986677 0.09096813843376896
0.06448916210649723 -0.14143912898378394 0.09113186851674687
0.06440407616907773 -0.14059712472598554 0.09128816170279186
0.0643150177741301 -0.13960450152985876 0.09161849888699926
0.06413487479312995 -0.1386949376538451 0.09161389949583226
0.06383746746389558 -0.13798477844534246 0.0911754900768676
0.06366890537496533 -0.13727097033741748 0.09126093494575713
0.06313922723584192 -0.13593015945976755 0.09087980523182655
0.06346087047950821 -0.13658914096640443 0.09129744993681489
0.06325095054943114 -0.13571299036535855 0.09160517534881803
0.06288308802619397 -0.13511507330864858 0.09087425221673752
0.0626797349957116 -0.1342278542992644 0.09120611991318527
0.06249606061311975 -0.13343625628423125 0.09146835334605266
0.062331765440658625 -0.13264821419589068 0.09176399787180983
0.06204399151616438 -0.1318533710586127 0.09107052824088241
0.06190979652784506 -0.13100560790582244 0.09130745066933191
0.06178910101278358 -0.13015712501409857 0.09149971888720634
0.06167627290553755 -0.12932298921442245 0.09165161393822414
0.06155214545793341 -0.128460286400502 0.09172283723928565
0.06139881621292695 -0.1275374043648346 0.09180912488228773
0.061235831060269176 -0.1266085824599614 0.09198493126793977
0.060906603439775074 -0.12577995218119936 0.0911743178451083
0.0607240762301907 -0.12487510041288354 0.09145217523023966
0.06053858834708893 -0.12402163306838818 0.09176392743816353
0.06040644054640606 -0.12333638451211779 0.09212336980097117
0.05966578119076115 -0.12152177067405101 0.0914258612963071
0.06010136963184713 -0.12235097810218683 0.09211931886910664
0.05977867229562889 -0.12136769033692635 0.09206934693307597
0.05932452247129172 -0.12051102074885742 0.09134834947739738
0.058975916257404185 -0.11945968624096702 0.09127984329830577
0.05886477928801218 -0.11872265427987001 0.09159877099964966
0.058713102777187366 -0.11784026176945495 0.09185893588343198
0.05857839924951664 -0.11700841656639357 0.09208524674237299
0.05850349884474153 -0.11633009348401527 0.09245314188190507
0.05847129704645902 -0.11577461000259347 0.09295121271398651
0.06469079277743371 -0.14744528505381327 0.09138024069270449
0.06468170309743515 -0.14661315003127284 0.09162835740449007
0.06472864032024787 -0.14569571224184055 0.09207716400628017
0.064777999793905 -0.1448241486735496 0.09230371847694366
0.06484134316962008 -0.1438423774297969 0.09262654212293117
0.06482725621911356 -0.14288909795628527 0.09252088964620823
0.06470367156111392 -0.1420879157835757 0.09194990191009475
0.06460128077831631 -0.1412009312854626 0.09183960478147335
0.06458321512662374 -0.14047457764136953 0.09217428798632592
0.06456195432653755 -0.13972116049228023 0.09250232325088165
0.06411099753695741 -0.13810829616864242 0.09199242234643344
0.06441333621668605 -0.13876885764472352 0.0925306817075653
0.06423298220022947 -0.1378628436362145 0.09260214260333972
0.06389120325912137 -0.1372319883945923 0.09208051071118442
0.0635933597192062 -0.13620985315532547 0.09224077130515379
0.0633571938514273 -0.1355091312163441 0.09232006368562475
0.06303819738276102 -0.13486114538601818 0.09196087141604684
0.06277190083450641 -0.13405644172124706 0.09199266672164616
0.06264215992712087 -0.13341437450546098 0.092379163588875
0.062470201269531435 -0.1326068254275478 0.09272327494239128
0.06217527054012384 -0.13181647546118277 0.09203184864759825
0.06203834317910373 -0.13096251473359358 0.09225221945165266
0.061913482552017986 -0.1301015438275009 0.09241930159506345
0.061795987371785606 -0.12923122044531654 0.09254325509339818
0.061671130379610826 -0.12834112647209295 0.09265280994927792
0.061528326079008745 -0.12743044384925267 0.09279770948242004
0.061371396484191654 -0.12652215345972262 0.09298103693761837
0.06106333018478001 -0.1257064946603018 0.09220153469920293
0.060885979543352176 -0.12483864085873046 0.09244477727883624
0.06071788119082298 -0.12402599915313327 0.09270180020556752
0.060538792966006866 -0.12323016857910131 0.09291226944146366
0.06039256204623519 -0.12254035378609258 0.09316125617042492
0.059698982024720106 -0.12077535370811548 0.09240323346603975
0.06009881148416606 -0.12161960689219024 0.09301535956023854
0.05986421584275251 -0.12057184725989054 0.09325764335303402
0.059375644407932256 -0.11975880975648258 0.09227434411105351
0.059162220721748524 -0.11868985988479597 0.09257839928614112
0.05897997509462952 -0.11774987289086407 0.0927770968013325
0.05882619294100189 -0.11688429825194366 0.09297783479779366
0.05865878290753318 -0.1160932137982637 0.09323751793686649
0.0585216691395901 -0.11542573731549002 0.09358485749020737
0.05844497801573028 -0.11489132043048848 0.09399329891201268
0.06481169818273147 -0.14607680000915305 0.09292963144202902
0.06481584169800123 -0.1454755567723693 0.09291889873147223
0.06487566058010691 -0.14480798265324507 0.09322620882861855
0.06492897701654221 -0.1441268896992737 0.09353276497203879
0.06484815812778588 -0.14231148915183692 0.09281915612272132
0.0649373573862421 -0.14311656280369575 0.0935164225276073
0.06492112657941962 -0.14207713540314504 0.09342670792320779
0.06478111692417787 -0.14139283548903053 0.09271769795880457
0.06478305950587081 -0.14033036313571687 0.09316275854138058
0.06467705259422847 -0.1394346595585186 0.09310066011947857
0.06467052179026761 -0.13884359318397388 0.09343510350414713
0.06419105447959284 -0.1373117874609262 0.09296588545721729
0.06449709290005093 -0.13792202878416113 0.093493810911605
0.06428584173931189 -0.13706961899129957 0.09357635495302351
0.06396062751849785 -0.13652473433843232 0.09311984741204682
0.06329005542776509 -0.13505847487420578 0.0927455912335832
0.06359238732092616 -0.13566306206299852 0.09300038421462224
0.06343487660183054 -0.13493423958801037 0.09353516927485217
0.06302257355464898 -0.13427091254648638 0.09286374035482077
0.06280477849505305 -0.13337672483430754 0.09335797967483121
0.06259853809873349 -0.13252335969572784 0.0937085200430228
0.06230193307206989 -0.13176095608656568 0.09299464055666712
0.06215157828990922 -0.1308939614220067 0.09319497024012664
0.062022412033725494 -0.13002237292361185 0.09333425132484997
0.06190298521658029 -0.12914664738023487 0.09345823556150612
0.06178382544827319 -0.128255222467283 0.09360037752561305
0.061649450166528834 -0.12734299984957834 0.09377462006171854
0.06149764446847408 -0.12642079180738017 0.09397019729175865
0.06120021630431941 -0.1256278656872707 0.09319031615311296
0.061029325369689975 -0.12476335433676672 0.09340094990622105
0.06085709897646249 -0.12393818957085029 0.09359809590258228
0.0606846053981804 -0.12314284725234685 0.09378975818780019
0.06048938533827295 -0.12230254412954084 0.09394233869475574
0.06027753354566115 -0.12134615917785933 0.09410267885704224
0.06005634760530914 -0.12032976329805146 0.09426120879792042
0.059632677650546154 -0.11953831615510918 0.0934048280074508
0.059409197652520666 -0.11853747283801909 0.09353148187301044
0.059218998189092736 -0.11763718116227756 0.093661381226623
0.05904233891655789 -0.11677546369731287 0.09385780040223445
0.05880704405604148 -0.1159231979986525 0.09405771465367091
0.058596031616696215 -0.11516504258043296 0.09427530394815792
0.05849340441312286 -0.11468941057774307 0.09454627144034425
0.06491294339685716 -0.14614075107595084 0.09379172791327568
0.06497090595124895 -0.1460292377894493 0.09426756618268603
0.06493300138410375 -0.14561071469772532 0.09390002735757559
0.06496018057358059 -0.14474745560142138 0.09398051202514929
0.06499761202121698 -0.14405412949915494 0.09428305338304072
0.06505414015235002 -0.14329297560801713 0.09454371715021753
0.06494900848413457 -0.1412866089386926 0.0937292874734884
0.06505360158523667 -0.14227811643008131 0.09438157027409488
0.06497639061362132 -0.14049901765514716 0.09405638262325568
0.06510939779390108 -0.14117686636827576 0.09468495287946059
0.06510258824088967 -0.14018923479476372 0.09481241418354386
0.06488150116865711 -0.13956760665308462 0.09394605304282642
0.06480891724465743 -0.13860291368610567 0.09417158640183795
0.06473028997131541 -0.1378997745552103 0.09439446100213861
0.06419731827307855 -0.1365223493173641 0.09396761062891018
0.06451221545486409 -0.13713155095868826 0.09437938747946947
0.06430434206484145 -0.13621856701245322 0.09477658978207971
0.06388457816731528 -0.13570913016677616 0.0940197379179424
0.06360955338069531 -0.13475047466451248 0.09456815417289223
0.06318755391740907 -0.1340908999031597 0.09397491253334857
0.06294361383924284 -0.13322596925746644 0.09439774982362119
0.06271402678626542 -0.1323628205267647 0.09469939791019079
0.062415442248000004 -0.13165396978489652 0.09396782434280294
0.06225581142809988 -0.13077439198867288 0.09411002683762101
0.06212863106892584 -0.12992283622154258 0.09421374617154318
0.06201903058295036 -0.12906884059486684 0.09436715318267365
0.06190771615385119 -0.1281703879066781 0.09455026158312098
0.061777306536519735 -0.1272286205009335 0.09477008424267268
0.061622573133429635 -0.12626460996761887 0.09496400127180202
0.061333247225447286 -0.12550172419144928 0.09417643511495649
0.061151438597086855 -0.12461821193319275 0.09432319466222094
0.06097391499242556 -0.12379936447787819 0.09446526106824119
0.060814595944643064 -0.12298972512119441 0.09465975191998365
0.06064373926810799 -0.12210902030947929 0.09488230414449034
0.06046534137291618 -0.12108005038440313 0.09519720372321597
0.060196180083967946 -0.12010357567820117 0.09508062728074004
0.05984604053272049 -0.11928107761205106 0.09445522538243038
0.05955624804448559 -0.11832176157138069 0.09427999609460577
0.05942480831045998 -0.11757682937859754 0.09454019979223843
0.05919352387420075 -0.11664600181062028 0.09476235768082107
0.058901581712389926 -0.11573419726644342 0.09489812624985744
0.058668611224551866 -0.11497422778460727 0.09502588986805173
0.058558489422930966 -0.11454215046772366 0.09525850292416156
0.06504188785747782 -0.14566748075465488 0.09478184888701371
0.06520642977796713 -0.14542074974827646 0.09582615844054766
0.06506072885819643 -0.14495220938349848 0.09487064718910775
0.065111580795518 -0.14397967454068458 0.09519237142845133
0.0651604081844486 -0.14301445114178624 0.09532028677906354
0.06520734582255774 -0.1419959978641066 0.09545320353752729
0.06528207560880525 -0.14088304167645696 0.0957062523779306
0.06524426015298578 -0.13990980154509866 0.09555155219873071
0.06506919191840457 -0.13916398699959753 0.0949791640774388
0.06492799059418103 -0.13831721755519047 0.09486718471943628
0.06483910616574017 -0.1376242460699585 0.09512124999944155
0.06467374782480906 -0.13675677351079676 0.09539972126529736
0.06446627470125234 -0.13588491825521237 0.09576405848752863
0.06405149567061819 -0.13533943269311507 0.09518296214112347
0.06377394471391316 -0.13446726561055453 0.09562740796090125
0.06334040475148062 -0.1338720241195026 0.09504444647658726
0.06307296544099145 -0.13295343503235804 0.0955080106816245
0.06280509274523 -0.13216637353619878 0.09550841128321952
0.06252973406444341 -0.1314429392056978 0.09499472258281227
0.06233256481398752 -0.13056602893074787 0.09486172934923624
0.06224829144078393 -0.129846792004202 0.09507473438490137
0.062144718835819054 -0.128981856403917 0.09525868219089743
0.062043448069018146 -0.12806756339926587 0.09551518440902358
0.061923347405257775 -0.127026448921041 0.09586384728556122
0.06172683907849435 -0.126070602505374 0.09579508198866564
0.06145461133988409 -0.12526935394316727 0.09522784579409335
0.06122883572654892 -0.1243803022152891 0.09509116798700651
0.06111109818191359 -0.12367576170589677 0.09533160510115715
0.06096047040146017 -0.12284970778697839 0.09553261182706234
0.06081584858390412 -0.12201605074097693 0.09580064950219695
0.060715643828916935 -0.12129641664265352 0.09611421806449313
0.06011251635822362 -0.11950159880334742 0.09535766261713047
0.060464309965578875 -0.12027400763735832 0.09605972023513695
0.060182487232822844 -0.11923583528871623 0.09593552604282302
0.05983561320614858 -0.11855657383303139 0.0951850991097346
0.05961159034706212 -0.11750924005605258 0.09549055959291801
0.05929252091121312 -0.11642161380215911 0.09578024338982374
0.058934848843114784 -0.1154878642519521 0.09559373256819541
0.05874256585639302 -0.11486864076291904 0.0957463180229738
0.058620706800307024 -0.11450870532026279 0.09578050561160514
0.06540742845124678 -0.14569748588480852 0.09672161251826704
0.06538526078396815 -0.14528391180433903 0.09677985742731217
0.06521890732559756 -0.14469134081675297 0.09596827529560775
0.06525361852906272 -0.14372979696488042 0.09609608395358497
0.0652938431507175 -0.14277437766467715 0.09620879736723856
0.06537490790867118 -0.1418332522402115 0.09639140704233423
0.06546445115073049 -0.1410356438429664 0.09661714268902723
0.065272631791956 -0.13929276633186682 0.09585292868446431
0.06543334139930981 -0.1400713246268726 0.0964402636920588
0.0654246071390249 -0.13900142274921684 0.09659303253357415
0.06513719824459971 -0.1383756561098628 0.09573442107992289
0.06501455129727947 -0.13735434856925832 0.09602038071559157
0.06487101899799232 -0.13639576042141313 0.09640062835633109
0.06462969662211528 -0.1356275139305347 0.09651920422663987
0.06427195016376695 -0.13496732634789416 0.09636887271227229
0.06389905608079871 -0.13416482723536124 0.09647080778844785
0.06350290168632225 -0.13359057823653678 0.09612590071246187
0.06326157888619323 -0.13295110063254226 0.09627623885991582
0.0627370158875176 -0.13162738507086247 0.0958533780501538
0.06304759441909043 -0.13223390033007085 0.0963981656544346
0.06282187069907336 -0.13139173101903956 0.09644003300618438
0.06254140458450785 -0.13069287767682006 0.09582748812937464
0.06236165029078294 -0.1296917750618079 0.0958197501275986
0.062308394762101114 -0.1289082684662461 0.096169289019838
0.06220638801260727 -0.1279712496238569 0.09645838561439385
0.06213125795026745 -0.12722761375691768 0.09675708999204764
0.06166381515247709 -0.12547676593746293 0.09614012032744193
0.061943421365219145 -0.1262351772416221 0.09678585590730199
0.061735935383906246 -0.12524443332546348 0.09678154878076729
0.06144195644557202 -0.12448150621156036 0.09611189971928549
0.06121860605345548 -0.12348510435849372 0.09609790865689928
0.061113048854915766 -0.12275821716893456 0.09638476107510974
0.060978807508362265 -0.12194542621838568 0.09662404038546332
0.06083168210775381 -0.12112061707010309 0.09682618618517255
0.06070218792406844 -0.12037286431471941 0.09702440297715155
0.06001332742185556 -0.11840583424549325 0.09618648912653978
0.06042587767591192 -0.11940322147166442 0.09685047595140771
0.05975658346193906 -0.11740735882620557 0.09647469307274689
0.060176589482412376 -0.11829427048801121 0.09715636787312351
0.05950840461790559 -0.11659943202457208 0.09671598054801643
0.059871116649450724 -0.11726100668655441 0.09745846428965937
0.059527311739759475 -0.11639882037864961 0.09725775060885643
0.05914945328958443 -0.1157222200031119 0.09643882447082798
0.058792585954429995 -0.11484574772901843 0.0961085753612078
0.06567511024535587 -0.1456854144743735 0.09768248888042484
0.06557950881201173 -0.14505979242639302 0.09753583849544432
0.0654194067406808 -0.14436126557992618 0.09697440177924045
0.06539221362486672 -0.14342200371572444 0.09682862849601517
0.06547979002901919 -0.1426131453194738 0.09707956570431943
0.06557611806111585 -0.14166654808823165 0.09722519018550668
0.06563030192911531 -0.14074045276995067 0.097293296864423
0.06569370861543912 -0.13967002504214746 0.09746372555489426
0.06560635857543987 -0.13868462602204187 0.0973183304475035
0.06535722941293176 -0.13795503755005606 0.09677791136851994
0.06517993612054446 -0.13707508659568274 0.0967581941350086
0.06517865085839011 -0.13649666921476022 0.09714975083267152
0.06460152784841287 -0.13526777638195953 0.09684458433321026
0.06494406557091606 -0.13560403501630122 0.09728586048645445
0.0637780897343803 -0.13362894758463015 0.0968866467385863
0.06421421006831711 -0.13404925186673336 0.097351360228512
0.06458412482301706 -0.13483759887901808 0.09725791363289267
0.06385466660027272 -0.1333182196841601 0.0974591800048658
0.06347611165761885 -0.1328724237662142 0.09701312218482966
0.06325568715460779 -0.13216903898800236 0.09716512738257603
0.06276729798046703 -0.13080494092723047 0.09673521694397129
0.06306904807785893 -0.13139578682972344 0.09728414750536761
0.06286456330831373 -0.13047557611912866 0.09732519467962804
0.06258918689563263 -0.12987676736364331 0.09669867948870664
0.06250582219726694 -0.12869895274798726 0.09721394742766327
0.062329842795510154 -0.1277628010977137 0.09720635966233723
0.06225045967479173 -0.12704052580402236 0.09745948867047904
0.06215981031005509 -0.12631819066602706 0.0977153636416848
0.06166904773590597 -0.12461406134284964 0.09710161234117697
0.06195958227116575 -0.12533553655910806 0.09774460991327115
0.06174463253035966 -0.12433896022582236 0.09774211383274467
0.061447902236463514 -0.12360138731034008 0.09707977203238705
0.0612300830977555 -0.12259055619161757 0.09711326567654326
0.06113542730133662 -0.12183844872044218 0.09743812800924043
0.060976499404130274 -0.12095479067115127 0.09762262251275579
0.060784899044670895 -0.12007325703861253 0.09769957881582494
0.0605614428189105 -0.11913022305687875 0.09785090133676927
0.06031051514983116 -0.11817816962369941 0.09808268741886354
0.06008485339045512 -0.11748740035232587 0.09829292729205104
0.05944272353856217 -0.11613332967507106 0.09733546620532033
0.05978426601337216 -0.11680351715125034 0.09794378603423697
0.06602359053705605 -0.14614573069376963 0.0984504778672543
0.06592238428386875 -0.14583175907284104 0.0983521098611681
0.06564478177238552 -0.14447420329761101 0.09780637555075379
0.06589507625645034 -0.14508309524383572 0.09839361452245118
0.06581747245868179 -0.1441251046472673 0.09833196828810228
0.06560988845427596 -0.14353978881119783 0.09768837190150213
0.06575973834364551 -0.1423651464314736 0.09801470020948216
0.06577017480029831 -0.1413853649738315 0.09786867402273622
0.0658670710906847 -0.14061390356867018 0.09807850901486806
0.06596923577857552 -0.1398298414830098 0.09829831691790075
0.06563084077702094 -0.13806006161028458 0.09757151837594301
0.06592125102522112 -0.13875387904185138 0.09819373146369698
0.06580434725128015 -0.13772354474825022 0.09809002852640691
0.0654847855110938 -0.13719546989544323 0.09750000650689244
0.06542937545235371 -0.13621996834668776 0.09787277836626561
0.06537237849330134 -0.13528184673122653 0.09832957384416714
0.06459130653758478 -0.13437129494827482 0.09775070111715606
0.06492276370380258 -0.13470216314094113 0.09801923758188548
0.06374065874886072 -0.13277971601895708 0.09779958378323535
0.06412833029353926 -0.13311059041836193 0.09823081649694529
0.06467314049524982 -0.13384942029682811 0.09841803379467282
0.06382902271944554 -0.1324282327327961 0.09835179727693596
0.06347906473352852 -0.13201444367128995 0.09790586401641295
0.06328784345724693 -0.13127384705771478 0.09804164522022624
0.06280969016355756 -0.12963690039319448 0.09769825641059265
0.06312395133953408 -0.13049244786620712 0.09812487701496833
0.0627546194181755 -0.12878826041558303 0.09808629186308424
0.06304297657796282 -0.12932129956526872 0.09866335090214426
0.06285940482707945 -0.128407095463611 0.0986959468472994
0.06255957490438975 -0.12777018330469786 0.09811603254617689
0.06236889701560716 -0.12681238701692452 0.098154369097773
0.062277055045728676 -0.12608238839527514 0.0984111486976134
0.062180048652429674 -0.1253555819890253 0.09866659194320734
0.061674427821593505 -0.12370016537365873 0.09803895826927561
0.061968585435140534 -0.124385541958007 0.09867983517517691
0.06174535258627781 -0.1233723034739195 0.09865686967279949
0.06145756962809609 -0.1227567237100433 0.09797028547822434
0.06130288938809561 -0.12161313765580263 0.09839765909546563
0.06106636741107814 -0.12066863490652718 0.09828191620107321
0.06091556205769811 -0.1198881688271077 0.09852958000085411
0.06068525376676769 -0.11894254918661416 0.09875524259579857
0.06042265561187718 -0.11808056210017376 0.09888178529725317
0.060169406934176474 -0.11747636267173922 0.0987533770847909
0.06635733054340814 -0.1464117575193692 0.0990542731290064
0.06672420481057285 -0.1466450092528344 0.0996502374625663
0.06654431256923732 -0.14627409488051243 0.09945234261405404
0.06622133018198277 -0.1458688468275818 0.09895306918902633
0.06633655347593266 -0.14496432241584203 0.09936273150226511
0.06592466816356951 -0.14328358264171448 0.09859209154218489
0.0661295050465122 -0.14409811216360505 0.09903970098366581
0.06605393736724216 -0.14245124191009292 0.098832656297813
0.06632612603568913 -0.14299534799576222 0.0994611771752626
0.06629415333027326 -0.14202743699634413 0.09931578045489946
0.06603708384165582 -0.14151051238759568 0.09864152073992637
0.06615879337100063 -0.14049956503464142 0.09881451947244421
0.06622553523715745 -0.13957261832188161 0.09890172444506269
0.06629702549514029 -0.138746549502348 0.09902717064707652
0.06582115264460964 -0.1368770472491168 0.0983532637602737
0.06619075898875522 -0.13773952662304637 0.09886677496602984
0.06580995928904149 -0.13588202271314698 0.09870305620067911
0.06623910235217502 -0.13652910718595085 0.09916170581861615
0.06574723659148468 -0.13507265636136923 0.0990343007086621
0.06625950569977737 -0.13536900466857305 0.09957560377653375
0.06589822216505901 -0.13465076945320248 0.09949908946171426
0.06539737440475764 -0.13424766877488867 0.0991583049117578
0.06496522117254355 -0.1334354701190386 0.09933021244004601
0.064544457141547 -0.13296785698107313 0.09914048108513786
0.06374979180379568 -0.1318714753905999 0.09868854323442143
0.06410816071136356 -0.13222743994802383 0.09909605133779956
0.0638581860346818 -0.1315045186691034 0.09924460695923774
0.0635225730971003 -0.131058240144914 0.09879398098647404
0.06332096820713506 -0.13008824697797963 0.09895542775905611
0.06332290457966093 -0.12936948226156883 0.09943857294679238
0.06281282201170048 -0.12774276589968314 0.09901110099555367
0.06312383504909717 -0.1283324883867434 0.09956653619120431
0.06291476727100308 -0.12737643543437546 0.09960552899911299
0.06260220048896022 -0.12677158834617544 0.09903904059306802
0.06239442050511207 -0.1258234741694127 0.09909486970010511
0.06229071943254802 -0.12509553141903543 0.0993467149360694
0.06218471071357088 -0.12436897370316853 0.0995907545085318
0.06164030391967794 -0.12253321360352895 0.09897998081301725
0.06197156591574312 -0.1234468827472356 0.09954071022268136
0.06152985213273928 -0.12171360931652522 0.09927097920493679
0.061814753410060354 -0.12227439098146504 0.09995921037797194
0.061581872168896275 -0.1213451367034612 0.099831426881001
0.061278521641861115 -0.12078480955975913 0.09912557305938786
0.06105713068376804 -0.11973484731935864 0.09943147345383344
0.06080107541184558 -0.11874657075676599 0.09969856396116066
0.060518209857858475 -0.11805389485230462 0.09946452003691464
0.06733724216361375 -0.14732263016045735 0.10047039195075003
0.06747440951486092 -0.14726679116909083 0.10077407526517158
0.06720333668123357 -0.14690835011756265 0.10040142416905357
0.06659908599412241 -0.14562685922410912 0.09974059488793781
0.0668916182446166 -0.14622789027413044 0.10008553216565905
0.06666041660210233 -0.14487422363839345 0.10003208783315742
0.06700020180794973 -0.14524231266064852 0.10054589279436328
0.06687938374518942 -0.14440715824860126 0.1004678026214866
0.06656543446420546 -0.1440125208301459 0.09991745030331968
0.0667246554928023 -0.14304350058317247 0.10021272195301575
0.0663882371171612 -0.1411868236277465 0.0994076355590593
0.06670245211018921 -0.14193331940443968 0.1001112575647938
0.06647203122977823 -0.14024499474284657 0.09947412201123321
0.06668485474917375 -0.14085819084578413 0.09996766973446446
0.06655623723313482 -0.13932334375463767 0.09956090717230047
0.06681435781965785 -0.1400155991042588 0.10011318495428947
0.06662127199227898 -0.13832517647226533 0.09961280011794223
0.06693233292485377 -0.1390219343992283 0.10020368901183326
0.06666008658355532 -0.13722078355715756 0.09969564692249953
0.06708741685456633 -0.13791654725769936 0.10035992053268673
0.06668997378226976 -0.1361385907195673 0.09988984310047146
0.06709828693478644 -0.13673655007936042 0.1003863011739001
0.0667031726300864 -0.13549319712702435 0.10006625121635683
0.06711459204817707 -0.1356307775803101 0.10059517460045529
0.06583565533578299 -0.1342642425035576 0.09969373228305443
0.06624348315743579 -0.13438840019413875 0.10013340314808056
0.0666936476216731 -0.13496572106461538 0.10030621484778131
0.06487840375739642 -0.13288553519757346 0.09979168257281465
0.0653749479972785 -0.1332119877767388 0.10017864647267294
0.06580094154075929 -0.13384661547256713 0.10004993592396082
0.06498231960597375 -0.13256482315801466 0.1003347805752619
0.06457527902568011 -0.13222634722510657 0.09998530655006385
0.06380660063137714 -0.1309218162931136 0.0995969821044077
0.0641477535134865 -0.13134243273857732 0.09999746593941497
0.06392951078395108 -0.13051417672711607 0.10019727784840674
0.06361027458764966 -0.13009843412663208 0.09970577660074613
0.0635176560646649 -0.12893642974031538 0.1002632248472532
0.0633468209512419 -0.1281394246732912 0.10034455265757973
0.06285387357222198 -0.12671534302200352 0.09991836215359186
0.06316857418707217 -0.1272896519719371 0.10045248087610469
0.0629432950624572 -0.12634856442472667 0.10050460900960152
0.0626240020320639 -0.1257696877070576 0.0999481387073639
0.0624038115339437 -0.12482954856132111 0.1000086970571665
0.062300582021775464 -0.12405259796034857 0.1002950841555355
0.062138545956573775 -0.1231055417639516 0.10051873842246124
0.06202822061259999 -0.1223354340787503 0.10077673873757569
0.061428493049322 -0.120524556446033 0.10007594843199107
0.06179592702766463 -0.12141801082498743 0.1006859428957618
0.06120397876502085 -0.11956448276681524 0.10035066942483685
0.06158426982710429 -0.12032899121780812 0.10099075718596094
0.061011230501684346 -0.11887831012616726 0.10056241786724833
0.0613258179549575 -0.11936114976601311 0.10129609504629777
0.061058400224812896 -0.11875689340212786 0.10107793018677791
0.06079861446313352 -0.11844279013194473 0.10025802122671851
0.06797751332982926 -0.14763955184343774 0.10168196820908312
0.06750296646722823 -0.14690379143599608 0.10098438204587186
0.06785294052786502 -0.1471934875440446 0.1015672254355897
0.06767373715600986 -0.14651243986317483 0.10145576691176668
0.06734000125741614 -0.14612564841927797 0.10093564810666619
0.06747958952800859 -0.14501611025231748 0.10138713922420454
0.06697186698681638 -0.14360001168378253 0.10065442271689899
0.06723492651621271 -0.14423931292553743 0.10107071196017951
0.06705316161672542 -0.14263425533639115 0.10080212576745948
0.06734584060727598 -0.14323879957004987 0.10133013025668205
0.06712534239069255 -0.14178732744733719 0.1008873814604704
0.06743753567475254 -0.14218299210668686 0.10149202365591833
0.06736117604167051 -0.1413081927419853 0.1012883939360384
0.06705358077429285 -0.14087352814013704 0.10065325152709262
0.06719271629431922 -0.13976145190128317 0.1007579249981534
0.06731777358695872 -0.13879669662891259 0.10082046487142159
0.06746232412892822 -0.13809607239487715 0.10096042986997462
0.06746974948234136 -0.13730765867853356 0.10092476784012688
0.06776874327734346 -0.13791213832574312 0.10145750920337204
0.06749317589750027 -0.1363501737056691 0.10097949847605996
0.06784322401888841 -0.13694688484738426 0.10151486356793289
0.06750405064504632 -0.13575231698681353 0.10106014124001371
0.06782236467140978 -0.13591780403543371 0.10154210697496766
0.06667067608296752 -0.13447775158371802 0.10056463063475245
0.0670949440503812 -0.13463358377685108 0.10104415735829197
0.067501264513187 -0.13526265581323235 0.10122964224654811
0.065813284527914 -0.13340397573071633 0.10053545086287859
0.06614615893805201 -0.13367122828421574 0.10067406539605822
0.06660487619119103 -0.1340584733977524 0.1008584983892254
0.06486672893790676 -0.13207220018357319 0.10071300295874976
0.06527840895834687 -0.13240105800011862 0.10100902519482151
0.06594253799125409 -0.13295197182261922 0.10126999352080461
0.06499836269045794 -0.1316632602721343 0.10141925893982606
0.06457633174804481 -0.13144741221108908 0.10080759145517244
0.06386008996679088 -0.12970019219477255 0.10063885321303458
0.06424663996333181 -0.13044068931290762 0.10101400377088691
0.0637814432815664 -0.12887958018545237 0.10103524919104012
0.06408607731115178 -0.12927192918973576 0.10158550411300696
0.06387025936422447 -0.12848074971467974 0.10158961452677984
0.06356377059869575 -0.1279817329365491 0.10107953881471522
0.06338442995975971 -0.12715064543381263 0.10119240332260188
0.06286996730803249 -0.12570535886055362 0.10079898389675834
0.06319611932775447 -0.12626113846407916 0.10134529489337517
0.06294129056165615 -0.12529999703562716 0.10135678317741519
0.06263554001487899 -0.1248370593451146 0.10077655485747641
0.0624738318803289 -0.1236946655410588 0.10123005618101677
0.06224743612608415 -0.12281102427172032 0.10120317108356047
0.06213456654315259 -0.12204747683749012 0.10143931959899999
0.06194199738718947 -0.12106397054911183 0.1016516333289561
0.06170846211178162 -0.12010216244533536 0.10186543761654067
0.061507643580492335 -0.11943192434355543 0.10211217258125169
0.06130441352459596 -0.11895314664466558 0.1020616271047914
0.06813262134425298 -0.14754647320219808 0.10202746816915227
0.06823797433969761 -0.14703088936543002 0.1023891571870995
0.06773927291949952 -0.1457000476236705 0.10174993748480116
0.06800399439897532 -0.14635421171948965 0.10210767275706262
0.06782303782669714 -0.14484187001947083 0.10203171572664652
0.06813166293671245 -0.14523839846222136 0.10256174184944462
0.06802110129065937 -0.14436453012104608 0.10247753794722267
0.06770820340879631 -0.14389433957390277 0.10193995443955545
0.06765186283820601 -0.14287832887287913 0.10190884113608217
0.06777034237514556 -0.14220236210416767 0.10214309113671487
0.0674572473347604 -0.1404491854020014 0.10135463485705701
0.06772065881003328 -0.1412614334826745 0.10197218775425433
0.06757051425036564 -0.13942112211940935 0.10136926628431826
0.06784710278611769 -0.14008107275683807 0.10201361535779585
0.0676258892803557 -0.13860613373205594 0.10130376466850344
0.06795579892840165 -0.1388698022828585 0.10195216564730672
0.06819371541497482 -0.13773349920435207 0.10217067744618465
0.06822341708722847 -0.13659568197193367 0.1021381287138913
0.06821895638105428 -0.1356568902707299 0.10224585718888562
0.06751657824018467 -0.13479219111822074 0.10147828218007711
0.06782270340599425 -0.13508959201122997 0.101806303316025
0.0664664476845035 -0.13350896542844115 0.10126504217772202
0.06696171490551292 -0.13384102423517183 0.10157019192116198
0.06755804816026983 -0.13434797761728026 0.10191904264385249
0.06625796331578261 -0.13245344828585057 0.1023826745965981
0.06559357874698515 -0.1319096395475311 0.10213391126465543
0.06666306867791223 -0.1331376373090992 0.10199611610519
0.06508580974499457 -0.13120366275096856 0.1021408894646722
0.06469801269835436 -0.1308638424632648 0.10168710005399649
0.0644787066107751 -0.12985598079706184 0.10215296899843634
0.0642813009750705 -0.12912049156309355 0.10227795957272343
0.06380789808144213 -0.12788256628560285 0.1018658038005057
0.0641034912336751 -0.12836401357447386 0.10237150435602721
0.063891468781169 -0.12750242298957293 0.1024076950925287
0.06359553165696885 -0.12707436978641723 0.10186975100234535
0.06348669118401083 -0.12602543147590647 0.10240172189042472
0.06282728311846048 -0.12448659068932319 0.10169679822392173
0.0631571611112742 -0.1252060363638749 0.10210091418969054
0.06271674136193595 -0.12370791793191614 0.10202447390433986
0.06303056719301982 -0.12418064008644832 0.10259185054028135
0.06277776087128294 -0.12332887822238296 0.1025586229963321
0.06246894020339856 -0.12284797593838906 0.10195743314613576
0.0622879065065368 -0.12179204290764407 0.10228659999648126
0.062061705754065936 -0.12071039141440776 0.10260526547150868
0.06175822257755236 -0.11984387850700744 0.10253450254614702
0.06155656629886905 -0.11922338984435188 0.10277873190317005
0.06140575994606115 -0.11875505747916497 0.10298590360877542
0.06845213525225777 -0.1473116403297214 0.10274683180216154
0.06854872236917624 -0.14688767263512723 0.10305157440879519
0.0688553755110358 -0.14693882036649714 0.10362211184612333
0.06877047554762768 -0.14644245460040514 0.10356358631853049
0.06843452714342528 -0.14613630740687028 0.10298120667597256
0.06854726614623641 -0.14505887535264514 0.1034043650052281
0.06806760656611023 -0.14370697034382188 0.10266042513658453
0.06834036163349493 -0.14415453411075535 0.10314817971648921
0.06826615672445704 -0.1432764724852108 0.10311926547192876
0.06797895671513063 -0.14288599138309477 0.10255661781291005
0.06805963000611608 -0.14183070458703514 0.10269540494891002
0.06813831919427259 -0.14078456037963577 0.10270206284976718
0.06825264989337407 -0.1397019788262364 0.10268428008551875
0.06838842116675972 -0.138696122879667 0.10268751909351817
0.06854817965987027 -0.1379920394507381 0.1028031113609595
0.06856805057060374 -0.1372043603085187 0.10272648718416659
0.06885664216944787 -0.1378256672737835 0.103285662629002
0.06859067756395956 -0.13625608181957896 0.10275105953676071
0.0689378920613618 -0.13688253123141794 0.10330761613723619
0.06854271827451444 -0.13547678824951248 0.10281023739735333
0.06895709275308486 -0.1358176521646042 0.10339669608323804
0.0686678226124746 -0.13498141943567424 0.10319504529714908
0.0681822312855904 -0.13477840479552733 0.10255952692786238
0.06787792261771139 -0.13399930187163203 0.10268374869544168
0.06732369989692959 -0.13353307098395095 0.10240539546533912
0.06602539853391944 -0.1320012947858991 0.10270633792907388
0.06637711774911334 -0.1320815449926775 0.10305756980296431
0.0670225395233563 -0.13264739640259027 0.10308893005296285
0.06489238403335845 -0.13048358425779089 0.10255033782899978
0.06535782966074055 -0.1310069721861692 0.10288079602437006
0.06595939641105643 -0.13152307842532973 0.1032064991495229
0.06473651036652162 -0.12976914547831847 0.10293436869791125
0.06511932269137198 -0.1300891547357742 0.10345494963002842
0.06480055940767261 -0.12937714761507813 0.10347924188442369
0.06447785861232494 -0.12894768720968167 0.10299026386735965
0.06429559362051128 -0.12819827981885715 0.1030849433451094
0.06380478194830805 -0.12672083359816833 0.10277161501820661
0.06412435000484346 -0.12745829987216506 0.10314957476438429
0.0637021975114623 -0.12591571704370416 0.10313382871256466
0.06399513403581258 -0.1263475264604078 0.10364304796745134
0.06376895667926387 -0.1255054337261186 0.10366680624936812
0.06343901739082995 -0.12499425521377613 0.10312846375588779
0.06323431337521096 -0.12415863554598813 0.10323454398554838
0.06263652743473737 -0.1225325649234119 0.10284073235910735
0.06301764377209455 -0.12337276425408131 0.10330153341797786
0.062442022955691776 -0.12154477365607566 0.10316101502347594
0.06280720304421197 -0.12228677908385707 0.10370655764888424
0.06224817268809017 -0.12073580284937241 0.10342349048522835
0.06254065446404611 -0.1211938185273453 0.10408161362257723
0.062213529965255206 -0.12034804168808522 0.10394529810771554
0.06192844740565444 -0.11990195229207386 0.1033063560069867
0.06165200089174276 -0.11907641565595106 0.10357479534481256
0.061439533456812065 -0.11865197156913816 0.10336946031991968
0.0693109979749516 -0.1469518614988094 0.10445741113781201
0.06881750667886036 -0.14566712777894206 0.10380300923185515
0.06920081022409558 -0.14621806354177444 0.10439273953240333
0.06883738716020459 -0.14490305361503383 0.10400810662610653
0.06911146172647069 -0.14512494905656434 0.1044843740867742
0.06899841490992255 -0.1444197455308427 0.104426895497915
0.06872152657502956 -0.14423290692076246 0.10390154596281723
0.06834556864786447 -0.1424394745232369 0.10330607802867875
0.06862154727720654 -0.14321568602092574 0.10384420356718481
0.06842828037179621 -0.1414177697803381 0.1033812269657598
0.06875852725227645 -0.14200918653605368 0.10412079595104369
0.06853862236929459 -0.14040551294997206 0.10338843055848146
0.06876303331170043 -0.1410346975298543 0.10397117248495834
0.0686620878860011 -0.13936817729143197 0.10333919384503966
0.06902029160882023 -0.1401062375742334 0.1041798903261762
0.06870964733931095 -0.13852586411332876 0.10319420554600219
0.06908700115765998 -0.13874232373235443 0.10387451141842172
0.06925584166271563 -0.13761256619277515 0.10388077780501012
0.06933959896684985 -0.13660597100404803 0.10390529687807806
0.06938811800391528 -0.13576398955074243 0.1040221484351235
0.06843769217227322 -0.13410239657384482 0.10337632934244244
0.06912139142029602 -0.1348276056658712 0.10391479683784094
0.0678062134827645 -0.1333663488867996 0.10320641011910123
0.06830646488158888 -0.13332146377394152 0.10381126252661738
0.06897748023293578 -0.13358784847807917 0.1043356524398237
0.06726598086077488 -0.13221373997963057 0.10388211489094384
0.06671572875013916 -0.13174778415444516 0.10384261899407954
0.06781248381597335 -0.13269371573267913 0.1038819990210382
0.0684341949904598 -0.1329179777854379 0.1042680679745209
0.06616548799138844 -0.13110291926400813 0.10398877921900271
0.06566003229740734 -0.13071110504580996 0.10373835227120273
0.06552104553349937 -0.12993553960197793 0.104320747495574
0.06470916904607993 -0.128803442529973 0.10376255542567536
0.0650599753195231 -0.1291782609979669 0.10419875719090549
0.06480074198945866 -0.12844042258175098 0.10427592496899381
0.06448847715509287 -0.12798999290949747 0.10380765741011842
0.06427904250032297 -0.12705533344302886 0.10392277061413341
0.06425347920942319 -0.12638284729025462 0.10434857263624407
0.06367592768122807 -0.12489006109500872 0.10392042687431949
0.06401426986562961 -0.12538466627684472 0.10446019883638816
0.06372510933967615 -0.12448123104942928 0.10442655710015179
0.06341138009478883 -0.12408703011761234 0.1038635570278698
0.06318666653930922 -0.1230312227344273 0.10422410023076474
0.06295290167518343 -0.12202451744033306 0.10460400919327868
0.06274780564760869 -0.12110471674081696 0.1050173228401598
0.06201955860989455 -0.11966053125555376 0.10419137352788957
0.06237170077728345 -0.12033347417420741 0.10465362551170025
0.06191689690638763 -0.11919070236255308 0.10445593677442776
0.06221392798678432 -0.11958358764915546 0.10498502204238797
0.06200562596413684 -0.11914735268114528 0.10481222103643663
0.06961334712367759 -0.14712744260593202 0.1049504370096385
0.06962392916357114 -0.14671502707020495 0.105034452796773
0.06993579536157174 -0.14688642333256977 0.10550137516592374
0.06964752267073572 -0.1460254229172404 0.10518914840010428
0.07006589121389677 -0.14620250443768895 0.10584458317470144
0.06983472292331258 -0.14549956709577494 0.10563575533090974
0.06949399866111704 -0.14529945031849056 0.10510461385279063
0.06898188844532724 -0.14366427637446944 0.10453651191908178
0.06936977520319981 -0.1441762810255064 0.10516566005856968
0.0689995339642598 -0.1427399462358595 0.10466210451755967
0.0692521280692894 -0.1432084868494002 0.10512726134409557
0.06909649533815827 -0.14199131840666893 0.1048328053170032
0.06936683711742031 -0.142343839342913 0.10536225151597331
0.06931786029962017 -0.1416399583245547 0.10519357455250314
0.06911114702249069 -0.14121948651421296 0.10469365187549282
0.06952348846314449 -0.140518795402561 0.10517126705448511
0.06951069137468514 -0.1393915514971565 0.10472929387399878
0.06987236024276527 -0.13973974166344155 0.10541786049266041
0.06959498730131121 -0.13830865050163563 0.10452783767627076
0.06995146730682705 -0.13887750356258657 0.1052112329552524
0.06969128419493993 -0.13727255343633418 0.10446016518081334
0.07004807191286187 -0.13789088996775617 0.10507001005491205
0.06974685299030735 -0.13627981027363675 0.10447101933326287
0.07012356983292294 -0.1368756457401689 0.10501384179264503
0.06970587260436295 -0.13529828346104034 0.10452039755742833
0.07015317550045713 -0.1358415477647513 0.10503389421059398
0.0696009746045638 -0.13429864559212637 0.10467175654305268
0.07011914394345573 -0.1348008361077938 0.10513553101940462
0.0695320689193345 -0.13363890433768047 0.1048528651902712
0.07003483180248361 -0.13368082134766765 0.10537966879252965
0.06720744137029037 -0.13188619308461294 0.10418858149423432
