# .PCD v.7 - Point Cloud Data file format
VERSION .7
FIELDS x y z
SIZE 4 4 4
TYPE f f f
COUNT 1 1 1
WIDTH 790
HEIGHT 1
VIEWPOINT 0 0 0 1 0 0 0
POINTS 790
DATA ascii
0.17270106255760997 -0.09286086672749441 0.06562768777673839
0.17239773520892487 -0.09210796086018533 0.06566889227182365
0.1721325335188009 -0.09144678909391246 0.06568253552741621
0.17176764812050258 -0.09027434020910292 0.06549816113881213
0.1718725150550742 -0.09098242665709783 0.06575028392073506
0.17143121418722826 -0.08944291663258247 0.065597507067938
0.17118033157908435 -0.08867370442027075 0.06570728306492879
0.17094808242544762 -0.08790501935135332 0.06577118074422159
0.17068598571656265 -0.08708939418236335 0.06585534434249456
0.1705453424442484 -0.08571685227196515 0.06540223888823514
0.17037535360984404 -0.08629992177219906 0.06598160070658221
0.17020650274769425 -0.08501317278387788 0.0655497727359845
0.1698349669057596 -0.08435499975082071 0.06571332035764801
0.16958265984571078 -0.08305016281411276 0.06546316031908815
0.16939708002306872 -0.0837048083498428 0.06598189438655908
0.16914718391875688 -0.08238244244326885 0.06570423717850583
0.168690901629481 -0.08177099932613932 0.06588421474867996
0.16838792571414588 -0.08055800836671229 0.06561987096927097
0.16819614001774197 -0.08123987126538515 0.06607382800192738
0.16786663299285537 -0.0799657603392634 0.06590328339110592
0.1676936961065036 -0.07864315572895188 0.06559629344732834
0.16741396427195918 -0.07931667001248327 0.06612440772075483
0.1673458940825755 -0.07804115578065826 0.06575281992896244
0.16699637208603535 -0.07745306753467102 0.0659005336140186
0.1667482861808618 -0.07623350147223654 0.0656543094964654
0.1665243352177522 -0.07691127088932495 0.06613794074112209
0.16622641722494577 -0.0756611240435527 0.06592489992441573
0.16590835069596546 -0.07442520922577878 0.06573152876567778
0.1656887032410674 -0.07512193422689345 0.06618594069200426
0.16539219016636258 -0.07389388659610704 0.06600184517814231
0.16511821460011397 -0.07272893475078662 0.06574813283738523
0.16490773132420977 -0.0733871987304002 0.06623193291940378
0.1645991240610671 -0.07221315099975129 0.06593981683566759
0.1641587188744584 -0.07103631399654355 0.06564341400258096
0.1640001563469747 -0.07174586333048644 0.0661583990776579
0.16367816934518933 -0.06983436836578441 0.06541275045752148
0.1635503444249211 -0.07056931999357514 0.0659414056587852
0.16319827575106438 -0.06935187453298432 0.06566756331876905
0.1630139090097941 -0.06811730808215621 0.06544848418340364
0.16278030731529353 -0.06887298785526184 0.06593277077057191
0.16257601729867888 -0.06761585070056392 0.06571350873280206
0.1623763773993966 -0.06636261169127712 0.06553985268402934
0.162161746583252 -0.06711159289608984 0.06598920297473476
0.16222803070360967 -0.06510838421264087 0.06537504666366623
0.16200228365928365 -0.0658337688595197 0.06585979778616999
0.1618826900033259 -0.06455484744431102 0.06562146983084677
0.16160319399730486 -0.06321793918276981 0.06551335340225338
0.16151013273156967 -0.06402540880965063 0.06592333455390671
0.16149558107769427 -0.06188257007028995 0.06528032545228249
0.16145367500998747 -0.06254189430257434 0.06558259383006206
0.16139044948549466 -0.06119203419829962 0.06532010605644645
0.16126119846585923 -0.059841351676534225 0.06539509115501349
0.1611514939499722 -0.060732533078435326 0.06573665834539252
0.16131667358815438 -0.058212973108896934 0.06517092703126504
0.16117453753111902 -0.05906298586163985 0.06551633697129348
0.16134683359571278 -0.05737670511335743 0.06519966990668778
0.16153634101343423 -0.055856415095781486 0.06505332092699347
0.16121404253000607 -0.05684697984599924 0.06556726591284097
0.16135332092072804 -0.05516775648542833 0.06536584917572702
0.16130134086746042 -0.053652049344434266 0.06523427095796136
0.16113063035348815 -0.05452561449588724 0.06570454341927989
0.16093237057611492 -0.053219411704003995 0.06573191367297428
0.18239048526217355 -0.12457398263061081 0.06894078322127414
0.18249553052673367 -0.12428083947779721 0.06824348432960947
0.182338423949545 -0.12335918291439885 0.06861766045905304
0.18219222241422184 -0.12222594131885252 0.06875529253075664
0.18225175479381955 -0.12160929652563618 0.06804075135665126
0.1820010127848204 -0.12061171167151473 0.06824969356978337
0.18173177054324993 -0.11966932491073266 0.06801618292382781
0.1813876573255891 -0.11888168197658028 0.06812314371283061
0.18094116261991902 -0.11791266953908125 0.06809713190459607
0.1804841416956316 -0.11690599931133722 0.06801846080564003
0.1800049500958368 -0.11588444944318446 0.06791489153738353
0.17956583100160659 -0.11484984526450251 0.06782370559834698
0.17915643197637762 -0.11384984372906568 0.06774059202727838
0.17877842149125384 -0.11284637898228733 0.06768484838241198
0.17848976938512945 -0.11186787608871486 0.06766828983161498
0.17831456725720493 -0.11101614927225177 0.06763737809209495
0.17828430847287507 -0.11027314640960371 0.06695528201443456
0.17820085994958695 -0.10953767679162345 0.0673024188818659
0.17818392999526264 -0.1086054587084351 0.0674574440857151
0.17823711161091177 -0.10779258554902449 0.06680614815753712
0.1781554995217286 -0.10708249015597365 0.06693422415689927
0.1780219613957205 -0.1062441678133561 0.0669674782103443
0.17784039176193797 -0.10534028365042308 0.06695307501530992
0.17753616468865735 -0.10441375289534816 0.06689194895243103
0.17719814062409575 -0.1034700828141309 0.06683488281083472
0.17682642338839957 -0.10255278200367605 0.06678631401575491
0.17643517019836086 -0.1016363696428267 0.06675313723153833
0.17604758310432217 -0.10075929649572472 0.06676513733166768
0.17566279711520513 -0.09990577100859196 0.06678020204967525
0.17532260176968 -0.09916784944129692 0.06688993600327124
0.1745482588242708 -0.09759017970862756 0.06609195367797464
0.1748574140685985 -0.09820469470720682 0.066752372792185
0.17410424298545288 -0.09666745306814621 0.06597118011806935
0.17437003160247758 -0.0972770658175333 0.0666186591333017
0.17367632888685597 -0.09576363397667931 0.065868471798941
0.17335336523899755 -0.09507985712069186 0.06602174684683272
0.17301256777934343 -0.09432293729623403 0.06611602156732883
0.17264122628350026 -0.09358084053317728 0.06623750616463268
0.17227316130453296 -0.09280470633755007 0.06630918604870292
0.17191554336996104 -0.09202987534490431 0.06628319710321373
0.17178047169616498 -0.09142287257857885 0.06609660421624454
0.17149309595376558 -0.09102209001683226 0.06630659677041774
0.17159399137618936 -0.09164699479154476 0.06649136488029032
0.17123023034573293 -0.09020083744253661 0.06629126067606333
0.17096977741309485 -0.08940175681329038 0.06635097908683968
0.17073828998635926 -0.08860012526323657 0.06642935670912106
0.17049669182170932 -0.08778662193256391 0.06652662161817494
0.17016149660376295 -0.08692474732032363 0.06667350614266607
0.16998265156427872 -0.08554135756848608 0.06619720350777897
0.16996618182586581 -0.08616961517592449 0.06657085918539803
0.16971970098361044 -0.0848642267514368 0.06613383379669314
0.16929508287136383 -0.08435963051112737 0.06642491751340415
0.1689460492261959 -0.08305068782048912 0.06621854625422827
0.1688246186319629 -0.08372366901203956 0.06672009990017494
0.16846901636255446 -0.08240887861749825 0.06641408362899162
0.16806851013553656 -0.08182734145017712 0.06653438140174564
0.16762100480092046 -0.08075878722576124 0.06646278892152853
0.16775585951064434 -0.0813827822557895 0.0666443350440103
0.16707124973078266 -0.08001698307930417 0.0667516758855743
0.16696188816959825 -0.07867102482681726 0.06639064458916513
0.16684332554276785 -0.07932729716873844 0.06673631172920955
0.16676968608169673 -0.07800724800949949 0.0663541557035125
0.16633777405145336 -0.07756921503919842 0.0665983454180347
0.16602384393536598 -0.07635031297197352 0.06640809847297881
0.1658065525681029 -0.07703520312618672 0.06684794092569418
0.16550898143056494 -0.07580261412816316 0.06665301681698019
0.1651567877524537 -0.07459407847293495 0.06645975256550837
0.16499347361149608 -0.07527616222196729 0.06690145813858035
0.16466500146726754 -0.07407204140466864 0.06669151435569413
0.16437481025760017 -0.07290311720899448 0.06643614570297968
0.1641603790259355 -0.07358287860588184 0.06688483154613936
0.1637920168160597 -0.07244499300235581 0.06664150077293604
0.16341980985565588 -0.07127966784833309 0.06640729052254643
0.1632416494436299 -0.071978521165048 0.0668737724744197
0.1630175638973349 -0.07008466403634088 0.06618787568555658
0.16287303508603337 -0.0707990261367205 0.06666556868442042
0.16256504428739227 -0.06959592230740932 0.06641492191431575
0.16241252222567562 -0.06836425088755749 0.06622343626385392
0.1621952464494914 -0.0690917294575778 0.06666878902194165
0.16200577073288858 -0.06785279125783719 0.06647804246492302
0.1617981728119456 -0.06658080248197802 0.06632616558724187
0.161636001570502 -0.06733033405495213 0.06677727180634338
0.16165255939225628 -0.06527754715135939 0.06612077482580983
0.16145151831887972 -0.06601474652911299 0.06660871648235402
0.1613783909064447 -0.06470099908616415 0.06637624537915747
0.1612149501863741 -0.06359624407903838 0.06622165048079376
0.16110497634828339 -0.06416545890644387 0.06661033165871633
0.16118469743708724 -0.06225654967157046 0.06593992104453471
0.16113134131239917 -0.06293668663126394 0.06624035258121619
0.16105403320608483 -0.06158842573666022 0.06604249815067516
0.16086918840213174 -0.06233502782373801 0.06660533121809652
0.1609127029016854 -0.06029114406310772 0.06614005509682316
0.16077319583361946 -0.06098898104102288 0.06650344465872457
0.16098937922438386 -0.058717259929648706 0.06591961685426917
0.16086303199556357 -0.05953483925373705 0.06622742605534093
0.16096178081358573 -0.0579037783713043 0.06598961632723452
0.16070498296744054 -0.05881254644568259 0.06662523661928386
0.16103717788694183 -0.05617260237327082 0.06590122826680048
0.16077684396649453 -0.05714394328313639 0.066412310939888
0.16083915221851755 -0.05550066743439052 0.06620248216194355
0.1608184381485225 -0.0539582712639446 0.06609533573291754
0.16062618344131369 -0.054893082498488247 0.06651446223167735
0.16048353018686162 -0.05274808181185955 0.06632435750703032
0.16047652923579483 -0.053387519706576216 0.06650895958804831
0.16020474337351695 -0.05242763803159797 0.06671472827075085
0.18219357762069013 -0.12457551342580234 0.06971548947804868
0.18232930291652533 -0.12408768715665949 0.06900314254580711
0.18215780215109975 -0.12414213977169017 0.0697943977761156
0.18219545225414022 -0.12357356133699021 0.06942504601906697
0.18203884038111753 -0.12270457242369073 0.0695191156742086
0.18207119970943825 -0.12136735492171379 0.06878448900104016
0.18183935232825987 -0.12151728988813254 0.06959088273132269
0.1818694055528575 -0.12078594017041813 0.06910774246774504
0.18157186751305146 -0.11983055107302604 0.06891468219613003
0.18113767807261938 -0.11873047160756184 0.06897321476126447
0.1807258465326081 -0.11776874548234766 0.06891775897714918
0.18026910200474322 -0.11677914161041097 0.06885863323387498
0.1798286233796302 -0.11578677562041542 0.06878632263852973
0.17940033558497243 -0.1147860062718759 0.06871647959925306
0.17897789887858317 -0.11375298722657516 0.06864248746541715
0.1786112163323209 -0.11271060968356565 0.06858649129223099
0.17833993513852683 -0.1116338687942816 0.06857579880125843
0.17821953966379475 -0.11082187209878261 0.06818110181822264
0.17821786977170134 -0.11038171602789111 0.06765124787003918
0.17813710220956647 -0.11017193763064245 0.06820832030518958
0.17812506789081753 -0.10936078980952985 0.0682226119686253
0.17809907810870745 -0.10857379514813356 0.06833165537857638
0.17814417632034127 -0.1078294582816737 0.06763527558403329
0.17805681402143697 -0.10700593350364192 0.06773809991230298
0.17792541834802703 -0.10612084807788931 0.06777701244873537
0.1777082464810625 -0.10520968590547618 0.06774595930779488
0.17742102641326066 -0.10427888153138522 0.06769896670326418
0.17709799819625963 -0.10333914729149725 0.06765443091868091
0.176704296417827 -0.10240962045588727 0.06759204888453084
0.17633663045294032 -0.10147851912941941 0.06755163775433361
0.17594021775819305 -0.10058516121511728 0.06751910322652167
0.17558818458917588 -0.09972746837370426 0.0675261822574258
0.1752059599821619 -0.09889976430906332 0.06753247626802755
0.17487004903579176 -0.09817479628679565 0.06763924191772576
0.17405322885676303 -0.09668358145813694 0.06681060619732797
0.1743897694136901 -0.09728898746287072 0.06746704489903387
0.17358227655306047 -0.09582384290549688 0.06668628499889981
0.17390205481606172 -0.09642884302781701 0.0673114206271709
0.17313307534293215 -0.09492904735492173 0.06661243714387009
0.1727443005273948 -0.09429675646157312 0.06681381170473318
0.1722698411899541 -0.09352548747952476 0.06694086297308288
0.17179907510240028 -0.09271781526545478 0.06696261208284975
0.17158142649943062 -0.09208234804001261 0.06678443977989862
0.1713214895724471 -0.09170008653380002 0.06701206717718074
0.17146270781668171 -0.09231447433809598 0.06718581908190208
0.17105839857109806 -0.09094595764525903 0.0669966958748061
0.17079170365521645 -0.09016843881957579 0.0670187355555824
0.17055665681096896 -0.08936321356479732 0.06709074105810679
0.17032730090442025 -0.08855547874626035 0.06716054481531765
0.1700665806081711 -0.08776265237730865 0.06724070737426148
0.1698134824830114 -0.08714410967098464 0.06737541785651754
0.16963042574493364 -0.08577799227353063 0.06683025007354108
0.16963772008743466 -0.08641530780740357 0.06721200323175988
0.1693224048377273 -0.08511625280013492 0.06683130675962137
0.16925017943738865 -0.08575352573642525 0.06740026176080312
0.16876381738157248 -0.08442917026033814 0.06719940071826777
0.16832175653667292 -0.0830722622581805 0.06696312602544882
0.16826224870661707 -0.08376355586854535 0.06747759784543697
0.16780632722832378 -0.08236989363559755 0.06717392745354424
0.16763623449725418 -0.08176411055171444 0.06700605054658003
0.16732513092717177 -0.0813240013915555 0.06710076853309974
0.16723508525924108 -0.08189659251393468 0.0675242704308384
0.16696851173986627 -0.08076921104935539 0.06722301727104711
0.16663222290039706 -0.08028927049693631 0.0674540811200686
0.16648104259451033 -0.07899138603070589 0.0670356470941278
0.1664353037336421 -0.07963104222560781 0.06739439537733083
0.16625442201469573 -0.07832306202261617 0.06702323538061497
0.16600855508578402 -0.07898461470046966 0.06763064930637586
0.1656942522858154 -0.07770461122197127 0.06729941169395069
0.16532199329056121 -0.0764725277101136 0.06710930115706788
0.16521442945355258 -0.07712986328532905 0.06756300678821252
0.16482795814409468 -0.0759394206728799 0.06732980864210869
0.16451164395760218 -0.07474672121754894 0.06715268421936481
0.16435020658754218 -0.07541660738749896 0.06756409796649655
0.16400754145475235 -0.07425213072853491 0.06734195962957548
0.16364066620825332 -0.07311809538649099 0.06709886498195848
0.1634958733833482 -0.07377949565471555 0.06753131272222467
0.16313813602564395 -0.07264577984592359 0.06734582189431611
0.16271832906936798 -0.07149730343728439 0.06712289608173223
0.16261246021758152 -0.07217405907946338 0.0675762408946483
0.16240054986269659 -0.07029280054839875 0.06693375493999745
0.162286931340481 -0.07097260312246911 0.06741048120516331
0.16202203668676204 -0.06975925279448268 0.06715774561348367
0.1618657636690326 -0.06857823246943805 0.06695410451473653
0.16172564382367186 -0.06924351702500119 0.06739262851429181
0.16152896220206012 -0.06805111152301022 0.06723416308493861
0.1612682270993653 -0.06678216335578059 0.06718408809594434
0.16123476690711422 -0.06754983350973014 0.06752159785040715
0.16110524540405236 -0.06541944445015437 0.06695077734139768
0.16105164609753306 -0.06613953028105252 0.06725744649382831
0.16097352728227743 -0.064753125899036 0.06698702531772562
0.16089972695250418 -0.06361210671574304 0.06683563638101239
0.16072693434336852 -0.0643136545387961 0.06727525994329842
0.16075750751177276 -0.06299378641710743 0.06707293008641868
0.16066197575084926 -0.06172533840653063 0.06693397443925654
0.16057422581275152 -0.06240360056161824 0.06737380057911939
0.1605805252915086 -0.06036946448047417 0.06682683877217412
0.16046418523265313 -0.06112345822717706 0.0673030787588209
0.1604545832270479 -0.05967800667981251 0.0671227850831332
0.16055515955902602 -0.05808465122162429 0.06693388249056072
0.16033798888941075 -0.05896934579130867 0.06745258596949498
0.16059382437477046 -0.05641641046789865 0.0667367960426335
0.16035110973563027 -0.05735383854533772 0.06727473166803487
0.16042617670426154 -0.0557294269627563 0.06695136851540753
0.16028956854172777 -0.05440576483619235 0.06699259069288983
0.16030444412272796 -0.05520263923735844 0.06712917138851246
0.16014575649036442 -0.05285514139732537 0.06692621744635767
0.16005271178931804 -0.05366779865723635 0.06730325936275224
0.1598786612929124 -0.05256571476998264 0.06734233941272448
0.18193979553563616 -0.12434345200460481 0.07040966896841985
0.18171044018606072 -0.12367450315712523 0.07083147268845083
0.18192199950511972 -0.12323139317527741 0.07016619037723916
0.18160094703024734 -0.12209973877235362 0.0704808350943021
0.18131796688102678 -0.12091129177684036 0.07048263113205268
0.18151113384393294 -0.12045589858935261 0.06977035937567205
0.18111554739531346 -0.11938594896967916 0.069878331741287
0.18084990186869204 -0.11843535010301902 0.06963741088795002
0.18046675242772192 -0.11761943102217538 0.06968121995260566
0.18005719419716773 -0.1166484429739034 0.06965312488929523
0.1796326191431122 -0.11568515374512377 0.06963993162755822
0.1791773549292703 -0.11464822372874402 0.06962536927612317
0.1787631738205376 -0.11357264486734805 0.06953817983056422
0.17843057467888065 -0.11255666147008032 0.06947291511472149
0.1781491177994756 -0.11157914916356139 0.06964141750000662
0.17814373724349955 -0.11084171514495228 0.06886476057118533
0.17803405053409402 -0.11000522763271348 0.06906438104543994
0.17804092403524027 -0.10919329543777928 0.0689374971866298
0.17798120852580732 -0.1085229150945114 0.0692017814022162
0.17803670387743972 -0.1077602655651746 0.06848909537279257
0.17795850529467952 -0.10687305665204432 0.06859987663026114
0.17779786919998175 -0.10596984365591774 0.06858895470144213
0.17758111439206067 -0.10507273730185038 0.06854363950521973
0.17731521392631627 -0.10418296342182355 0.06853394181587834
0.17695923170606367 -0.10326553136813875 0.06848328342848488
0.17657713561395014 -0.10231827245220362 0.06841840109187694
0.17621401189681946 -0.10137317454691315 0.0683631673975698
0.17584913883221315 -0.10046290019871552 0.06832019908204597
0.17549443918274887 -0.09957978550530859 0.06829302329749946
0.17513318798222802 -0.09874813522527523 0.0682944762105516
0.17476888055298456 -0.09795510659395297 0.06829419775998782
0.17442016967310117 -0.09730221310918964 0.06837281488287719
0.17357439280455073 -0.09591763107331146 0.06753600586004552
0.17397910731538274 -0.09653589947816592 0.06812045533074186
0.17308689040187805 -0.09512217995703803 0.06738887754151263
0.1734182563562575 -0.09572559252848123 0.06822184486180026
0.17249795628113823 -0.0942613715269857 0.06759977695114054
0.1718904614003734 -0.0934269612096127 0.06774481157432032
0.1715294681477169 -0.09273246105112773 0.06752244370733589
0.17125118310641824 -0.09227944444510049 0.0676185415128806
0.1714125434768733 -0.09288921197537262 0.06810521055084193
0.17096021601920874 -0.09164536510215808 0.06763645664979247
0.1706662841433005 -0.09091970246537304 0.06766396612827784
0.17041892784508927 -0.09014208055960961 0.06772561795450553
0.17018465978353856 -0.08934557627997373 0.06779199381939312
0.16994547504392712 -0.088540506042347 0.06785511633275422
0.16971967269590754 -0.08775326517034006 0.06791633111736917
0.16947660489258987 -0.08700313737500721 0.06789502715173958
0.16923394469422953 -0.08632605253513252 0.06787471754411041
0.16875736616808812 -0.08520867387764863 0.06777087019721921
0.16897691667467188 -0.08584761848264442 0.06797012634338453
0.1682448932354338 -0.08446314111808992 0.06800553690558647
0.16775945655708566 -0.08313003066286356 0.06772757078324777
0.16774790157018052 -0.08382171053929263 0.06822571978627973
0.16722967508781458 -0.08253387697313302 0.06797649393255167
0.16682109078082383 -0.08135930677382029 0.06771427078762715
0.1667659314647125 -0.08196952460059485 0.06818770243637456
0.16648744238911933 -0.08079795304331243 0.06785218083841044
0.16620521193534885 -0.08022357364687141 0.06796656474463088
0.165888300640159 -0.07961672227966465 0.06812876106609932
0.16559416945025646 -0.07835372776105251 0.0678044957327116
0.16551603871684026 -0.07899433247098617 0.06832529635149262
0.16511695305096108 -0.07777008719340045 0.06801335915047617
0.16472906611396382 -0.07658136235563934 0.06778642746117867
0.16464792827760683 -0.07720318086580381 0.06823060849760537
0.1642468489509119 -0.0760580930757337 0.06799869844157191
0.16387156070992528 -0.07491182679112977 0.06777926969005868
0.1638091111450226 -0.07553483664054206 0.06823188962758207
0.16339706022836337 -0.07443204002744643 0.06798011319107886
0.16301576396912185 -0.07330501198216163 0.06775398797456605
0.16295044283986646 -0.0739391758318351 0.06821143254106551
0.1625433713939678 -0.07283603303750352 0.06798010208613396
0.1621031867840885 -0.07165635282213653 0.06792648209238923
0.16211742897940704 -0.0723757793488979 0.06825045976957944
0.16185912777658024 -0.0704118173565879 0.0677742174303612
0.16187289203877606 -0.07105335012506545 0.06803732948229876
0.16162126638883964 -0.06980176188996844 0.06779032595327408
0.1614287049363928 -0.06873435344948099 0.06768825095061554
0.16131122119406735 -0.06940170241559186 0.06805910651905298
0.16112193898375693 -0.06820628054762781 0.06790964548970098
0.16096541668339734 -0.06718157203796446 0.06783053713191217
0.1608494763350174 -0.0677375994073068 0.06812096241218438
0.16079134860508099 -0.06585920940158017 0.06761454338900139
0.16078799799066162 -0.06656355888409232 0.0678824424645855
0.1606323523114032 -0.06515407191751081 0.06775507789952734
0.16050151858642805 -0.06599886025531054 0.0682188274190077
0.16052298033418008 -0.06369796659339146 0.06763748976544566
0.16045658464878673 -0.06443410962985488 0.06791305471958525
0.16048601913801167 -0.0629987679620037 0.06772290584978678
0.1603638440783026 -0.06183479003500433 0.06771619640250857
0.16027850600239787 -0.06256085012317854 0.06809624441872215
0.1602739018060469 -0.0605018646640649 0.06762828631166191
0.16016992245181408 -0.06124255745272002 0.06807385252316972
0.1601187239622483 -0.059835891954239835 0.06794818599460167
0.16017841710043393 -0.058269885643122604 0.0677815542540724
0.15999641070034698 -0.05915163371966938 0.0682664958484985
0.1601162789114632 -0.05654999264090044 0.06759167533521226
0.1599471564261779 -0.05756785060992046 0.06811254884449644
0.16013784152205754 -0.05574141700325483 0.06748950108957678
0.1600031101535963 -0.05519147641376142 0.06765451406300722
0.1598202555807351 -0.05599583472618088 0.0680870464414798
0.1598565044885494 -0.054491023757701894 0.06775704020431077
0.15969155773128885 -0.05319927723686063 0.06780074503342853
0.159711177656582 -0.05394205259054419 0.06791283071192847
0.15945268970426676 -0.05264741629048854 0.06824681100248198
0.18158489828165528 -0.12401406194205473 0.07126236451788155
0.18142478478650056 -0.12361461186563025 0.07150827960704523
0.18157270779565188 -0.12280663496048629 0.07089841199573253
0.1812203474554317 -0.12278592445835132 0.07171180251118621
0.18131640750583483 -0.12214353202757025 0.07126369339298916
0.18100959121863247 -0.12118755349799938 0.07134792376418587
0.1811415760292098 -0.12006824517818981 0.07042153050112714
0.1808087707436409 -0.11998084148666927 0.07116031795690547
0.1808813085088355 -0.11943891011200843 0.07065285515007542
0.18057965283241834 -0.11846232754451959 0.0704894240100915
0.18021874950835634 -0.1173943056726503 0.07030122093368214
0.17982654275668108 -0.11656346711899569 0.07042238519082496
0.17936595965247848 -0.11554244659430957 0.07049325479362777
0.17882819017303925 -0.11438574649613657 0.07066770227686532
0.1785005261539313 -0.11326683334347033 0.07022566761313628
0.1782396319740418 -0.112467206630773 0.07031477030322268
0.17805121791434736 -0.11178693747012122 0.0704652984631457
0.17802737318874806 -0.11073857972572783 0.0695450266855989
0.1779476506473092 -0.11098020712794547 0.07034081739921873
0.177947335887377 -0.11025568064806643 0.06986643695997298
0.17791272624439716 -0.10940771033722305 0.06981404835123291
0.1778467420377606 -0.10838304584932495 0.07022455137023637
0.17792358928820956 -0.10763875526673126 0.06937445477330309
0.17780456307816234 -0.10667857298209416 0.06952635496480007
0.1776733855586355 -0.10575678086894652 0.06926581062472408
0.17748053555657864 -0.10501526643874955 0.06938589579375792
0.17719249589392183 -0.10412359498464963 0.06938328249202125
0.17681640605306118 -0.10320368221053591 0.0693249714717346
0.1764482049866432 -0.1022449298840586 0.06926395411490775
0.17611815238866105 -0.10129112382912221 0.06921271334223605
0.17575346121389046 -0.10037449276459495 0.06914761239546743
0.17542654199699673 -0.09946951487503707 0.0691076923637994
0.17507101280524542 -0.09862031660682923 0.06907916510950034
0.17471134192524318 -0.09782542597395186 0.06906394654878031
0.17429465026564148 -0.09707285999081078 0.06901465898455257
0.17380480793205055 -0.09631574370249853 0.06897663242106813
0.17286691807144827 -0.09496086300340816 0.06830892998776414
0.1732670325899907 -0.09558720906919488 0.06902302813972307
0.17228033786544805 -0.09423486205184138 0.06844955900258394
0.1717220928170483 -0.09357134931165342 0.06863915847862254
0.1710075392570968 -0.09230625582757003 0.06823073523801204
0.17123381189770248 -0.09294153554951343 0.06881999565017667
0.17066064642267903 -0.09162353214450848 0.06830045833559945
0.17037439816755126 -0.09087741840783144 0.06836615546890286
0.1701077890211953 -0.09011156030390044 0.06842227638902568
0.16985570180794873 -0.08931544347513538 0.06847381856746619
0.16960785769143777 -0.08850761396168774 0.06852096846205956
0.16934623877136776 -0.08767954769996075 0.06853454058515987
0.16908146142746092 -0.08684049472357945 0.06848724522301163
0.16894655553241647 -0.08623442168596233 0.06828854764816514
0.16862828000329969 -0.08584821684430283 0.06849845735324903
0.16881054977838372 -0.08640855132250745 0.06867050623587961
0.16820754431010462 -0.08513937448420224 0.06856839906323108
0.1677535303470649 -0.08448420616392424 0.06872714903439843
0.16724703371802263 -0.08322615555844565 0.06847291024865071
0.1672897336608896 -0.08388898625783348 0.06892133361905363
0.1667110588504525 -0.08261147602744193 0.06876224069437815
0.16632632336872427 -0.08136945862184959 0.06840432203244395
0.16637427055347143 -0.08199378553983491 0.06872734144390039
0.16610794608110807 -0.08074064263120861 0.06836462178626752
0.16580992028063254 -0.08025991091999561 0.06860851997289746
0.16545286635804846 -0.07964252747941716 0.06881191525569191
0.16508062967532355 -0.07839465711805595 0.0685076513653521
0.16505351659568684 -0.07902638239647156 0.06899152261431067
0.16463919064469595 -0.07780547437586581 0.06873314096357826
0.16418431477496334 -0.07666839206365425 0.06844500760618773
0.16419716384290503 -0.07724091840044366 0.06892035354063387
0.16376769387155252 -0.07613632399030203 0.06865834893867508
0.1633524372576213 -0.07505068653123141 0.06842812112572576
0.1633538948405082 -0.07564305244787796 0.0688563033060424
0.16292698415892057 -0.07456606344140176 0.06865743151510151
0.16250403819185502 -0.07345722989379654 0.06841770686122836
0.16251199601088123 -0.07406743250316457 0.06888587097390964
0.1620939991655998 -0.07298341778945082 0.06864196023902085
0.16178761355040658 -0.07200569652192516 0.06857593184413757
0.16176987726746614 -0.0725124226914386 0.06892012619771518
0.16154180144487482 -0.07079347733033138 0.068373451920923
0.16156781906818213 -0.07141684269322028 0.06861855504570182
0.16126143644696614 -0.07016231926534985 0.0684893708356705
0.16120804034267264 -0.07089748431948033 0.06891257211485079
0.16094982655991177 -0.06887256833821291 0.06837749293377772
0.1609670029159751 -0.06952761429323641 0.06860828290960068
0.16076784906717956 -0.0682855052042551 0.06841912691140661
0.16061830770096255 -0.06725027269748979 0.06836572091880075
0.16051949241658822 -0.06790321772592636 0.0687223543004001
0.16042001698003355 -0.0666921049716083 0.0686345084807109
0.16033492464485974 -0.06553353453498742 0.06853953638844872
0.16025106256933963 -0.06612748823647967 0.06894721396466336
0.16027947950551058 -0.06410538193732386 0.06829881075217356
0.16027045178679591 -0.06482523165316681 0.06858991519249887
0.16020315555903758 -0.06340199675890736 0.06839906717081487
0.16006905021332718 -0.06416088659014338 0.06894435809757186
0.1600492762227975 -0.06198569705010551 0.06847090059683594
0.1599687642153329 -0.06275911211814782 0.06886189342969043
0.15998549124787342 -0.06062784155979018 0.0684165889456688
0.15985260839861098 -0.06138447489337021 0.06882684826001674
0.15982475396388493 -0.059980996979588155 0.06873281835703365
0.1597867218587142 -0.05849452644323011 0.06859495484246005
0.15967297174599732 -0.05932479710539864 0.06905726947674179
0.15968483203282066 -0.056903124441336266 0.06848801166303663
0.15955800293379865 -0.0578302193571441 0.06894706767876446
0.159565907854938 -0.05526885621066647 0.0684094885588258
0.15943774439040903 -0.05624791873538882 0.06888406062205292
0.1595650164901456 -0.05446668720568549 0.06828719652383167
0.15940756012075924 -0.05392074113798727 0.06845868863561272
0.15924745874843496 -0.0547115626035182 0.0688991117390403
0.1592489146105028 -0.05324115236059627 0.0686000918448941
0.1590911126503886 -0.05234253987470345 0.06891773436334327
0.15912493034763475 -0.05270630560274809 0.06881056234972284
0.18118792493722982 -0.12353252666397119 0.07218785473220429
0.18088521887229944 -0.12281576615750468 0.07255316462381269
0.18097541847121798 -0.12180816503979278 0.07180401254545567
0.18058176020666802 -0.12174884412961567 0.0725855888939642
0.18064367848374363 -0.12113172433488999 0.07208154164048827
0.1803802077837255 -0.1201382800320111 0.07209143980930675
0.1805825006038869 -0.11909660975340301 0.07111117815973665
0.18021196081929244 -0.11896968967556719 0.07179971430966019
0.1802813626680446 -0.11844656399522818 0.07126393394541196
0.18002729910799672 -0.11752535949086054 0.07106154645813889
0.1795320182480918 -0.11644421789121251 0.07118734873430674
0.17911837235894826 -0.11549460598301371 0.07128839795505958
0.17878277680830104 -0.11485912563879021 0.0714907050392113
0.17853360439496815 -0.11473501409869905 0.0721279908776287
0.1788854587263941 -0.11542431372353774 0.0718806078364599
0.17855430331497815 -0.11423206235347455 0.07147517554129659
0.17829861119651158 -0.11328014513629221 0.0711798047007938
0.1780845724505118 -0.1122995239382264 0.07098448983606052
0.17792543143415102 -0.11161970065184798 0.07110922692297258
0.17780178499021088 -0.11081335615373474 0.07122297382298837
0.17784713599440297 -0.11012354102871656 0.07058787789316325
0.17778043472715357 -0.10928222250865563 0.07082428819176737
0.177733128848787 -0.10858674220806444 0.07114334336461929
0.17782214471995914 -0.10748324933201236 0.07012969109854643
0.17771265677177925 -0.10769687273420438 0.07102378483235945
0.17771588060043012 -0.10691720491630584 0.07042402621912656
0.17760542904568585 -0.1059623222160163 0.07020051106396724
0.17736452452325902 -0.10494768577382571 0.07025412982440696
0.17703943461531807 -0.10404906633572188 0.07020290302646907
0.17668698307427233 -0.10313161555192991 0.07017249951768632
0.17635347964256717 -0.10218229926030929 0.07012928633739461
0.17601349119886 -0.10125677402003257 0.07006992680470371
0.17567987221262804 -0.1003199844575887 0.07000347029213659
0.17536364266967752 -0.09939680661124937 0.06994983468982749
0.1750195209171702 -0.09852606277914093 0.0699005232805138
0.17463603963329818 -0.09770657594947148 0.06984601774790446
0.1741650618694097 -0.09693594005727497 0.06978313055252625
0.17364858728672647 -0.09618716034045507 0.06974415841763355
0.17271329919287312 -0.09491793247604251 0.0691522360907199
0.17315556015132064 -0.09552462300629516 0.06979829875810105
0.17214243641177834 -0.09425164592929682 0.069312478680386
0.17160950957327634 -0.09356021997348232 0.06946536531118576
0.17081507485209454 -0.09226917727982606 0.06893730911533852
0.17111510191584053 -0.09288091176588316 0.0695997909661288
0.17045926138238177 -0.09156320096513146 0.06902030558325645
0.1701556788033585 -0.09082421006534779 0.06907618016108025
0.16987616472004144 -0.09005484084119982 0.06912522843082358
0.16960268469113232 -0.08926218586170973 0.06916715443078993
0.16929881832821253 -0.08844860282729519 0.06919466553464905
0.1689874151913093 -0.08755714650965096 0.06923535509899618
0.1688272057236157 -0.08682471100709166 0.06901508521398009
0.16856603587577618 -0.08638975574519735 0.06911648137428716
0.1686410434642824 -0.08702271725846601 0.06952843091774755
0.16819845900923855 -0.08579721172592897 0.06917850147294838
0.1677830310623189 -0.08513037210823361 0.06927359316384746
0.16735831776767693 -0.08451062566119735 0.0693945351888019
0.166846562758664 -0.08334296151180084 0.06917123952359266
0.16696052320301955 -0.0839642739782482 0.0695705517399321
0.1664338347189833 -0.08292181220029901 0.06940679086724967
0.16606107994136263 -0.08167204133554246 0.06899702324013555
0.16614095017135744 -0.08227904309147172 0.06932366964417082
0.16581756889259627 -0.0810164082856417 0.06900271655987773
0.16576625622414348 -0.08166637011377485 0.06952919146268233
0.165405988936892 -0.08033767756061243 0.06928287293710485
0.1650395214965517 -0.07968225598984838 0.06948263699280312
0.16465354472811342 -0.07842177676160325 0.06921078851017871
0.1646787333030379 -0.079056709007582 0.06967970167769227
0.1641875755140374 -0.07782083082521386 0.06947114414372695
0.16371739492882545 -0.07671947545142227 0.06918609000064971
0.1638753418204625 -0.0772610282482084 0.069462965298822
0.16337722856823403 -0.07616075025410117 0.06921722365018458
0.16291717155867513 -0.0751800454603307 0.06907719054820202
0.16298575550999758 -0.0757899024591459 0.06950261033718638
0.16250568863607107 -0.07468085660068306 0.06932043626623799
0.16210474170647005 -0.07358131114384046 0.06909045758900503
0.16211787805231007 -0.07417926929786138 0.0695469498915077
0.16174503557913564 -0.07308592047566664 0.06932254784702212
0.16149172678447052 -0.07200709660497145 0.06915354769536156
0.16144444018858548 -0.07257224699464669 0.06956731157989533
0.16118734051920156 -0.07148284536638203 0.06933305413728326
0.16094533674375752 -0.07049303910473383 0.06917908676576992
0.16091734122935153 -0.07098725875993701 0.06955735359452275
0.16068125607945496 -0.06925635307151193 0.06894470778529697
0.1607555256742973 -0.06988607252727837 0.0692217050952756
0.16051318616473934 -0.06863969462418584 0.06902655429800449
0.16042941353971968 -0.06929042255849394 0.06955286842691367
0.16031204383921985 -0.06736387765688133 0.06904922690328603
0.16026392061878467 -0.06804299697376319 0.06944258635798078
0.16017255322600865 -0.06677925808591471 0.06937671393598346
0.16013376796805898 -0.06551656698610912 0.06918773486926669
0.16004954322619308 -0.06617800496443443 0.06966191648334731
0.16002216554525533 -0.06487401060457565 0.06942569822663186
0.15988696342544803 -0.06351283305611223 0.0692683244484215
0.15984080212174132 -0.06423933413400128 0.06973461987678393
0.15974520675698808 -0.06213991363415939 0.06923046921809257
0.15967157857717557 -0.06288169535051948 0.06963146321982396
0.1596638853608946 -0.06077557814352803 0.06916338562259639
0.159564137321689 -0.061532297971615864 0.06958128691605053
0.15951327838500523 -0.06012624314403332 0.06948868421879488
0.15947296416172 -0.05868676962983609 0.06940607212393074
0.15937708195286504 -0.05948747867974831 0.06983067335930024
0.15930601677995582 -0.05718563120030946 0.06932196994159356
0.1592521977064343 -0.05804676750110831 0.06976770831692923
0.159155197331211 -0.0556130528806594 0.06928730745824337
0.15905845206149444 -0.05652392204003148 0.06971262418528094
0.15897681826458349 -0.0539698225809353 0.06923583008192492
0.15886677562534074 -0.05497009997517751 0.06970751553274457
0.1589248098201427 -0.05317876459316579 0.06912751229809168
0.15884566669775863 -0.052642530017843824 0.06934186329525266
0.15869239965877058 -0.05336562054621971 0.06974429254324448
0.15880082592788117 -0.05219191273598453 0.06956984656244831
0.18103281116406023 -0.12373637900514285 0.07298395229927504
0.18090269884406132 -0.12332434282304135 0.07310187531918444
0.18058776824488418 -0.12247851705808142 0.073237443882304
0.18028126728919494 -0.12165117427031821 0.07341579327806273
0.18030172562278854 -0.1207211223160378 0.07259256044914526
0.18000533494923657 -0.12061850628888345 0.07341027482541068
0.1799907624004376 -0.11997484176944848 0.072836195138286
0.17977184732415208 -0.11898744810492738 0.07277281453372977
0.17996006577091833 -0.11803809683067153 0.071686968450744
0.17965056371207458 -0.11796901864056514 0.07234860929231167
0.17959915373241658 -0.11719603550917546 0.07181077680988406
0.17919067753451823 -0.11688936809013623 0.07254317186201956
0.1791958940581089 -0.1162192265891604 0.07189491456962545
0.1787707746987517 -0.11577984995891645 0.0725542149062751
0.17839574396829072 -0.1149987826151422 0.07284296340951288
0.17831833613194417 -0.113914173755648 0.07191172830134629
0.17812756704594201 -0.11402472339422573 0.07273655355393117
0.17809228970254923 -0.11334195270715686 0.07204652638791033
0.1779274071199127 -0.11240104817417276 0.0718896364964463
0.17779236765288567 -0.11145052152055374 0.07179150429053598
0.1776808297240927 -0.11075125814255228 0.07207725693121758
0.17771763786437272 -0.10999821785214059 0.07145694953853905
0.1776749688201998 -0.10919744146595398 0.07170559224682416
0.17763135591580925 -0.1083669538012495 0.07188710416260737
0.17754919850544904 -0.10739837736750228 0.07209216264255273
0.17759774845844178 -0.10669476760276433 0.07116787235248978
0.17740794905247667 -0.1056817541686032 0.07124169931382865
0.17719574097057655 -0.10475027857842557 0.07095016262583527
0.17690272504189933 -0.10398997834238491 0.07104577613456359
0.17657912306985815 -0.10305004758267565 0.07103740820173919
0.17626741273036706 -0.10212551087547457 0.07099070434464305
0.17593819673503872 -0.1012056344204263 0.07092624382020078
0.17561769901774543 -0.10025886416475457 0.07085937901148943
0.17530789016663065 -0.09933106514436446 0.07079216262030388
0.17495366653426334 -0.098466949863929 0.07072080913765615
0.17451652981256702 -0.09763948817093489 0.070636798714279
0.17401008379076344 -0.09683377530450406 0.07055098128134843
0.1735202083193243 -0.0960984207508675 0.07045549200842295
0.1726573822055276 -0.09497130364209144 0.07009133680195599
0.17314458724486811 -0.09557641776189034 0.07043645868793336
0.1720390082669747 -0.09421679096873478 0.07017656983865621
0.17152374034364548 -0.09347989871371606 0.07030609443773596
0.17068776267933794 -0.09216247113757872 0.06970004614349536
0.1710256726465459 -0.09273986147340338 0.07037694149768868
0.1703106966162163 -0.09143719086519274 0.0697260555845203
0.1700087510299554 -0.09070956286531076 0.06974657280596054
0.16971095653073992 -0.08997044426999014 0.06979747662887126
0.16938152506390064 -0.08920202652948143 0.06983894175583485
0.16906382906686893 -0.08838824038619426 0.06991161578495043
0.1687616017554811 -0.0876643026194519 0.06996838739607023
0.1682646886069688 -0.08651509836079065 0.06979647346813365
0.16848671961979628 -0.08717561736368176 0.07002498602360815
0.16784646714994497 -0.08576784709215408 0.06985104619307247
0.16742218275809614 -0.08510422836554149 0.06992374413707796
0.16705483021116826 -0.08449245690708584 0.0699789798126328
0.16652086607951008 -0.08349619394421237 0.06987095503097542
0.16676724985535663 -0.08405129078402834 0.07005183741508668
0.16610811395856817 -0.08283451063477472 0.06995649124712817
0.16578647131220453 -0.08220633172937646 0.06998599007912286
0.16538052764509695 -0.08110414928605915 0.06982611942796188
0.16552348950133122 -0.08173106026663084 0.07003324320904765
0.1650196757263372 -0.08035659562799616 0.06998456227012587
0.16469875407587928 -0.07969713230409688 0.07016131592482408
0.16429932057756397 -0.07849427490210817 0.06988000447896488
0.16436257211072272 -0.07910384009645471 0.07033193304212372
0.1639503318349501 -0.07806305896419907 0.07009974912642622
0.16358706227673772 -0.07701627216843451 0.06975306383590278
0.16370879277422024 -0.07750393422491607 0.07000283989288836
0.16320785440656185 -0.0765090854962389 0.0699333960900992
0.1634108026245483 -0.0770732483192614 0.0701524292036197
0.1625623827617615 -0.07529128826514757 0.06976904109253641
0.16265994061158634 -0.07590357713233231 0.07021297841940714
0.16217778438801575 -0.07476978914623865 0.07002388116252999
0.16177552510739418 -0.0736779646811545 0.06977907724271076
0.16181960898023337 -0.0742643327009054 0.07024390253765378
0.16145691554989478 -0.07315380251211788 0.07001551329013712
0.161152283408475 -0.07205941400733515 0.06976586696949383
0.16114727019400396 -0.0726314065394127 0.07021157377853599
0.1608931879659006 -0.07154432971355437 0.06997175546045618
0.16069920360721718 -0.07046621253226301 0.0697764428966081
0.16067840897914337 -0.0710158996279379 0.07021299108671666
0.16046356722665187 -0.06988930531121881 0.07001956410493684
0.16021706998529103 -0.0686979391360743 0.06984229162525211
0.16021749816921507 -0.06931206661484063 0.07028647619874584
0.16007036032326577 -0.06744714165438344 0.06978222078525985
0.1600329401277729 -0.06810441913942782 0.07018152937422027
0.15994015008775633 -0.06685112202711238 0.07007912848407069
0.15993995765385863 -0.06556410467436835 0.06991369977728289
0.15984479926851392 -0.06625117592600363 0.07036228457116107
0.15981023624849416 -0.06493442625057796 0.07019988237005019
0.15962917774304342 -0.06360737795067749 0.07005494329258467
0.15961935645012562 -0.06430690591332197 0.07050339093500199
0.1594687358765732 -0.06226463353984337 0.06998686735679484
0.1594228533736802 -0.06299368161808211 0.07039920948430978
0.15938141833899241 -0.0609089078036726 0.06992501569046997
0.15928384737075538 -0.06164526908500395 0.07033772709829617
0.15925024684057137 -0.060260894519271364 0.0702477079953978
0.15917386598977612 -0.05887032127247393 0.0701893363012814
0.15911136462626477 -0.05964663587067721 0.07059633028341522
0.15899892317957526 -0.05741130975106008 0.07014396042898101
0.15896083803205024 -0.05823617181775923 0.07056042121506861
0.15881410692217243 -0.055875057146896674 0.0701296005690961
0.15875044142577052 -0.05676511760760203 0.07053914802553955
0.15862222038865942 -0.05427407777490766 0.07012590212253841
0.15856559106658652 -0.05521378242421532 0.0705440106628748
0.15860215423196958 -0.05256172543077923 0.07012025837462545
0.1584338497043483 -0.0535436825452203 0.07054222755203074
0.15859900960985485 -0.051928605221967315 0.07016401388516477
0.15845967037800984 -0.05156994516236869 0.07057565911203154
0.15843533084537165 -0.05195407383805549 0.07070022518165847
0.1808932730268628 -0.1236070042470361 0.07366991715931281
0.18068881090381805 -0.12302896790185396 0.07399786547519424
0.1803911014259188 -0.12217232737565653 0.07388173752141149
0.18012095976014886 -0.12140816140412988 0.07407028129888225
0.1798170946889857 -0.12061068255721537 0.0742832974329286
0.17968945468518174 -0.11953779310726444 0.07335758842612365
0.1794897685781562 -0.1195299886960699 0.07425123695076243
0.17943099026819878 -0.11879974329311356 0.07357174220785932
0.1791734999374405 -0.11771429066984242 0.0733813823696853
0.17880279609494745 -0.11651394004846087 0.07319704869049433
0.17846787112476248 -0.11567141217886219 0.07336370233818573
0.17817211933204863 -0.11480679766434364 0.07344844081178245
0.17796005678889631 -0.1141131223176288 0.07359630710577303
0.17790497510443787 -0.11310368931714262 0.0725639531388269
0.17780825366131905 -0.1132851228241377 0.07340216282849325
0.17776277275876284 -0.1125369546951174 0.0728130910952012
0.17770056151496777 -0.11166274819592166 0.07269101892483473
0.17758323468329715 -0.11071010079672758 0.0729930258387765
0.17761089438365313 -0.10991598523807794 0.07233514777412772
0.17757295768218687 -0.10908548024120773 0.07255576463543884
0.17754420387117456 -0.10827763609905017 0.0727654279355176
0.17744599371706152 -0.10760086894658227 0.07299004818947259
0.17746589197650092 -0.10648065024463965 0.07190961426183243
0.1773489739987746 -0.10668737351329402 0.07280174613477544
0.17730118421827734 -0.10589598949309877 0.07215542309613855
0.17711287600892786 -0.10494014375540706 0.07189390817569918
0.17677870046516672 -0.10388587898591486 0.0719158476463905
0.17646465245295703 -0.10295085797983097 0.07185465005086353
0.17617450281390679 -0.10204899509956022 0.07181587061558795
0.17586925980525622 -0.10113802778269637 0.0717650881884024
0.17554723587947763 -0.100217764663903 0.07170026392184044
0.17522332054319814 -0.0993019906448847 0.07162628684900799
0.17485447877741858 -0.09842189934365167 0.0715417142917638
0.17438729340724948 -0.09756153600650175 0.07144441375345237
0.17384029611987828 -0.09668681503021755 0.07135064218758337
0.17338000501285022 -0.09597553431165837 0.07094283842348503
0.1729993561674424 -0.09550118910261568 0.07093562754634414
0.1734103751845927 -0.09612626983679266 0.07158826281777592
0.17249400162269132 -0.09488365928221115 0.07093293624733346
0.17196508489305834 -0.09416237938354378 0.07102510191206796
0.17144861811946877 -0.09331599196470504 0.07119788904039155
0.17057123156830842 -0.09192632178144122 0.07048502985108888
0.1709750012434675 -0.09253869693265367 0.07102545033220724
0.17020230299871297 -0.09119463169865506 0.07028917247413509
0.16993525072310217 -0.09056758069387844 0.07038694583191223
0.16958654304960208 -0.08984690357936308 0.07042149514945605
0.16923909629732745 -0.0890946346335233 0.07051587691612438
0.16885378063668702 -0.08824890766727472 0.07062946831718933
0.1685614595027175 -0.08756985979632297 0.07040227579158324
0.1683009709043014 -0.0870519452039616 0.07044502890860167
0.16849442870390904 -0.08762775176136868 0.07092203431488761
0.16796841823504496 -0.08638716513880715 0.07046861934504528
0.16755905710368446 -0.08570097219285108 0.0705142432283254
0.16711473972626453 -0.08498230970612701 0.07060815231391991
0.16683030897693965 -0.0843796620241448 0.07040295772882216
0.16653502011988336 -0.08395184673359385 0.07046157590441349
0.1667212701201044 -0.08445790725921211 0.07090241520076979
0.16617482028566286 -0.08337033157048113 0.07052619015666206
0.165758544283526 -0.08268067398654126 0.07062821291671874
0.16552153193662306 -0.08208369778903601 0.07040516925287953
0.16528591672614015 -0.08161632910411472 0.07046113033731265
0.16537456124343897 -0.0821641287518194 0.07092401515511126
0.165014567556044 -0.08100030397657869 0.07053589236461387
0.16471477175459875 -0.08034829770047094 0.07067488261420227
0.1644076292254086 -0.07972185097691852 0.07080018628287996
0.16401412544922894 -0.07856768370657875 0.0705391136425864
0.1641005099398918 -0.07916530659316168 0.0709558678000693
0.16362590304798905 -0.07794944111168103 0.07070153979501631
0.16341549416883652 -0.07737665314270574 0.07048698542710925
0.16314001575802714 -0.07698167804253911 0.07058563722778434
0.16321124308548313 -0.07747827072894349 0.07101319848480284
0.1627607676534327 -0.07648277999787143 0.07070966384118864
0.1622520075426306 -0.07536976387255286 0.07047348524506984
0.1623532196961645 -0.07595182037113637 0.07093957797631295
0.1618951186094834 -0.0748561319569019 0.07071315601577853
0.16150465975136066 -0.07374910103656948 0.07047272087825175
0.16156542721446504 -0.07434481966588664 0.07093118887631292
0.16119817902911618 -0.07322160136604391 0.07067630391051705
0.16089539190756943 -0.07211262073293027 0.0704146225961741
