# .PCD v.7 - Point Cloud Data file format
VERSION .7
FIELDS x y z
SIZE 4 4 4
TYPE f f f
COUNT 1 1 1
WIDTH 787
HEIGHT 1
VIEWPOINT 0 0 0 1 0 0 0
POINTS 787
DATA ascii
0.17706552678620868 -0.10274308512936002 0.05481840476269631
0.17713943011691233 -0.10331917463490396 0.0552789989701026
0.17681709304509602 -0.10209344303209748 0.05457542706899552
0.17636529673935614 -0.10147588110286672 0.05457340146027606
0.17591947936586289 -0.10071983285287549 0.05452033458242771
0.17557494033963214 -0.09990606215655252 0.0545390792827455
0.17526941713399463 -0.09905090049753418 0.05457884564318719
0.17506089873520045 -0.09816305489837517 0.05464725754701419
0.17490635024669335 -0.09725878104741416 0.05465432963595688
0.17477131773808416 -0.09635393035482531 0.05460335716013379
0.17462408021754278 -0.09552902530414786 0.05455002427914363
0.174517778047044 -0.09475909796768192 0.05452914736973722
0.1743479590387829 -0.09407371257899676 0.054658277075281717
0.17496740764794338 -0.09256466764528096 0.05390541861917835
0.17438278667437168 -0.09314007075748007 0.05450724890219695
0.17513569428383782 -0.09172307821501358 0.05377103143428079
0.17453651681996743 -0.09221790510556502 0.05436519864857473
0.17494886630994022 -0.09064596512976665 0.05410936804942858
0.17506189278837006 -0.08992247639404227 0.05412740115065887
0.17493089879911147 -0.08935968531729115 0.05443532347626203
0.18340168722647637 -0.11751955254902087 0.05673614659386796
0.183080664753018 -0.11674181594195926 0.056532293507699165
0.1824999031017496 -0.11568832267444197 0.05640609758957976
0.18193435237324634 -0.11459778146252213 0.05629872831245298
0.18136519604685244 -0.11354667521554895 0.05622840362155358
0.18087203899033272 -0.11249901482554434 0.056258165292305186
0.1804054173945144 -0.1115572295523393 0.05636576958575164
0.18061726537782322 -0.11078675410978173 0.055733783575278834
0.18020529225930884 -0.10999763195316095 0.05592398251973687
0.1798367385420149 -0.10910890823655191 0.05603221535054736
0.17948215195937722 -0.10815797159989725 0.056066587955547344
0.17905454524978923 -0.1071961573231459 0.05607488659041767
0.1785701728718393 -0.10620291641587726 0.05609671459527386
0.17790967641025257 -0.10519640878149643 0.056138579911916175
0.17726544543415151 -0.10441977924255935 0.05627591808810391
0.1765503805522968 -0.10284489173253351 0.055458899265078104
0.17659746113116706 -0.10345531440867808 0.056075992064427975
0.17608805638079883 -0.10204845029264827 0.055251431011708076
0.17601989898822326 -0.10261480877289025 0.05587277183902658
0.17565682415560352 -0.10123093447522567 0.05502396444086255
0.1751947316342134 -0.10055300902618078 0.055097253506684866
0.1748196052618212 -0.09976679162842829 0.05515321361048822
0.17449721601225934 -0.098931352933352 0.055249295072972056
0.17423844489016416 -0.09803422870036675 0.05538873151277771
0.17417923515257694 -0.09703308310518449 0.055302946370252355
0.17405251700629687 -0.09607173765169044 0.05529370566571293
0.17412966556433307 -0.0952679065456424 0.05503236437706984
0.1739601843564381 -0.09460154078443553 0.055150991507709655
0.173821624192155 -0.09376976225074028 0.05523156262149736
0.17369253490072897 -0.09301881953881452 0.055319355207215586
0.1744532257614175 -0.09140285251010358 0.054590368047057636
0.17387601642170164 -0.09218556561550445 0.055132273591416564
0.17441462989680903 -0.09057850880010755 0.05482526092892304
0.1737887302858183 -0.09105570509987697 0.05542676789007387
0.17453675050103606 -0.08966278490669452 0.05474094348216061
0.1739845242495903 -0.09018673095811917 0.055282283260609265
0.17454680837224018 -0.08886004102667927 0.05482061048175923
0.17419210466416435 -0.08810773002266643 0.055088699739044615
0.17402720925503298 -0.0873683702358967 0.05524157010082183
0.173872357522276 -0.08682760251841942 0.055467327729461516
0.18352416018626727 -0.11844597079498997 0.05751737116069146
0.18322679896124064 -0.11766600727361184 0.05731344168874175
0.18263165972564097 -0.11662425408234209 0.05722841207189852
0.18196443273281254 -0.11550874201127126 0.057182195672818105
0.1813536377185939 -0.11444221461069223 0.05712889609548103
0.1807327124645185 -0.11337978038197663 0.057115418993660357
0.180217680456581 -0.11233526040672522 0.057165251968064004
0.1797961470896719 -0.11140633689762214 0.05716074694898271
0.17995733491058064 -0.11072766167949044 0.056530979311943744
0.179568199199848 -0.10991410609982824 0.056806348359542395
0.17923881322411145 -0.10891851654634156 0.056786066950214105
0.17882985450145805 -0.10797516783549385 0.05680856885535487
0.1783403006965688 -0.10700840487334459 0.056818213929545
0.17778634367233723 -0.10602799751740442 0.05684674849790113
0.177212356071721 -0.10510772120994956 0.056887776661439314
0.17661958689133272 -0.10425172919017647 0.05687217631023424
0.17602171503358718 -0.10352552307849164 0.05690345733914145
0.17545796466010102 -0.10205960245236737 0.05595749964105705
0.17546120589998343 -0.1026073240995841 0.05663941711543223
0.1750365060576305 -0.10122820300011236 0.0557501923344625
0.17492907743489627 -0.10175074143006226 0.05637602369071332
0.17463426511395314 -0.10035775605905253 0.0556195895881168
0.17417403662809888 -0.0996819782475559 0.05583378726695865
0.17393558849589358 -0.09883193268953437 0.05585915908817353
0.1737285462619796 -0.09828263172975255 0.05596696314243689
0.17370787617082364 -0.09763097495939982 0.05591914160780254
0.17333077579618286 -0.09816758514726108 0.05637871285852296
0.173610105937602 -0.0967942395942551 0.05591557035584711
0.17317681260433315 -0.0974022025983062 0.05643992866609327
0.17349413065577057 -0.0960894438648057 0.055960193941549746
0.1730280408131653 -0.09651263973636447 0.05655089565317422
0.17361234728483482 -0.09531012459793084 0.055719959905131046
0.17315652801077316 -0.09572797548065852 0.05633669563295198
0.17337768102077888 -0.09435887352407267 0.05584744210071117
0.17314574734566285 -0.09336230790780291 0.055990242260671466
0.1733282269930774 -0.09256799644204618 0.05580382398040108
0.1732627625509038 -0.09180249381615216 0.055940063014902605
0.17316267088447115 -0.09107174531909255 0.05614860598167387
0.17383632937983134 -0.08955303088971549 0.05546251119509894
0.17322234857417498 -0.09016718857340285 0.05608786543368806
0.17392352489367519 -0.08865599768992873 0.05544859153954302
0.17339158488421047 -0.08923885238808446 0.055983967241715206
0.17382060499672589 -0.08775557056620137 0.055443090719010484
0.1735131794811195 -0.08705003813962994 0.055767579855262074
0.17341943673938962 -0.08644742275702791 0.05589869235401245
0.1835902705168756 -0.1193900681720208 0.05830881526050398
0.1833511113816188 -0.11862130978043486 0.05814615740809525
0.18283707453445147 -0.11758336191181719 0.05810468217097368
0.18217440907375523 -0.11644421498982084 0.05807704103863165
0.18149485386259182 -0.11534594718979908 0.05803281240354589
0.1807666364277227 -0.11425538149524436 0.057987317592462874
0.1801486849960749 -0.11317109157539562 0.058000741915946855
0.17946678705226973 -0.11193584333051762 0.05809797504645527
0.1793837738445324 -0.11109286385265493 0.05764435680065368
0.1795524057915767 -0.11070861153842843 0.05717951940282527
0.17911800835050712 -0.11032232395219403 0.05768281073458261
0.17901951368681615 -0.1094949837144828 0.057398158644235295
0.17860549437021894 -0.10868850186741541 0.057492416860187696
0.1781367426969636 -0.10771326318268751 0.057539736611571676
0.17764890903181116 -0.10675793902334735 0.05755553991741409
0.17711939760731946 -0.10583129406953208 0.057566436762939516
0.1765971407612432 -0.10493285320368752 0.057563891567054444
0.17599874425676995 -0.1040858148755164 0.05751657831834186
0.1754452491646789 -0.10325787767542728 0.05744992359687341
0.1749105455607809 -0.10253601838995222 0.05745260586488266
0.17451382643672336 -0.10119694456764401 0.05646669163803646
0.174473409637853 -0.10166055694112636 0.05714436868139898
0.1742501028903603 -0.10053267732417649 0.05623013733341422
0.1740975800783619 -0.10087286311720574 0.05681191814312993
0.17378467362751382 -0.09994936909635879 0.05637817966103035
0.1735995369480214 -0.09931933952589102 0.05631652042323258
0.17341241040704705 -0.09980198757985671 0.056849006285298744
0.17351534299276153 -0.09870614528070087 0.05625882583138305
0.17314807895959664 -0.09890374014688828 0.05680957855721004
0.17286855422647596 -0.09805080361268938 0.0569531455733926
0.17267360816153984 -0.09724434305867581 0.057039376688434264
0.17253196481555774 -0.09657452141545962 0.05717619735325647
0.17301071243243707 -0.09499971481586644 0.05644272110397567
0.1726386515697563 -0.0957530730248477 0.057029706363195445
0.17277185691534036 -0.09408972856123134 0.05657777967949783
0.1723795640214462 -0.09475863614905299 0.05718009957148871
0.1725374322304021 -0.09330957592785925 0.05672029747664639
0.1720713836291638 -0.09376801767209268 0.05735733102764226
0.17263277281883457 -0.09240564667506691 0.056597466750782734
0.1721472607924148 -0.09294351623727286 0.0572083825631464
0.17277582011860024 -0.09150963782713015 0.05653819303133015
0.1727057549308703 -0.09082318919853596 0.05673901779064604
0.17249440791789228 -0.09015683522524993 0.056886236349312905
0.17316228666427264 -0.08866212840844472 0.056243595297309976
0.17245377997983102 -0.0893093220914013 0.05680815212361547
0.17304469841853123 -0.08782663203951617 0.05624784004328762
0.17252572228667265 -0.08845788326489078 0.05679900399033693
0.17289768972333652 -0.08710773263520363 0.05634222533015596
0.17292697765162923 -0.08586138822827209 0.056351962646784694
0.1727858833111412 -0.08647426607521475 0.05649401057883126
0.17257517097992808 -0.08518420865546533 0.05664859233770331
0.17227224989136106 -0.08567834176096473 0.05689543196999676
0.17233467185959048 -0.08467182355499259 0.0568715326996555
0.18356849925223415 -0.12197528706332444 0.05975785531415942
0.18355445449743632 -0.12128969203127304 0.05967601826659066
0.1835835026241317 -0.12030426204156563 0.05904636575106804
0.18344226175050488 -0.11956604189516658 0.05896989230238372
0.18302473236543634 -0.11854695907750509 0.05899810150667883
0.18246240350606677 -0.1174143672470478 0.05898539555183635
0.18176411999524972 -0.11628730555308006 0.05894581945448028
0.18098290438393969 -0.11517374755839269 0.05888004766974737
0.1802687733265656 -0.11409937007276032 0.05884098972525445
0.1796471227455287 -0.11306581908542661 0.05886538470030114
0.17909190862616198 -0.11222214395462549 0.059020105104310557
0.1790718679413518 -0.11099174013683047 0.05813952212228649
0.1787088595145002 -0.11119283835089896 0.058877796658466236
0.1787095852404915 -0.11042213521327042 0.058381594116312295
0.17843240792590062 -0.10948130399561452 0.05818355954281261
0.1779446188870764 -0.10837851268829682 0.058244473977474426
0.17750659886682726 -0.10743098698916083 0.0582457064920205
0.1770383508270424 -0.10653604469966606 0.05824020772942898
0.17650760600607113 -0.10564126912090561 0.058216825173174475
0.17597886208832872 -0.10475610315149983 0.05818694357718475
0.17542586179618364 -0.10388144229005164 0.05813925072809739
0.1749069963011753 -0.10303974691017377 0.05808737619845108
0.17443068441592166 -0.10222676604180198 0.057999352958674005
0.17396580916018795 -0.10150748232367393 0.05792177389566072
0.17377822639312668 -0.10036816377858122 0.05673361121365931
0.1736023430552843 -0.10064332168465849 0.05745145802892782
0.17301746284545735 -0.0996064103758249 0.05752527061817354
0.17269880747519917 -0.09870532751271495 0.05756011319519855
0.17243265549069062 -0.09788482337379019 0.057615919424266714
0.17224695513011137 -0.09709005710266726 0.05767407510811733
0.172118474575788 -0.09629477342920735 0.05770518815500535
0.17199654545000442 -0.09544087719567747 0.05776926844294678
0.17177056367427218 -0.09457501697047375 0.05789862471649804
0.1714692691314189 -0.09386094288328965 0.05805997167963648
0.1719697573982444 -0.0923394744250811 0.057385786415384846
0.17143480825459478 -0.09293037706109591 0.057982166063974015
0.17203832380214695 -0.09145299582624859 0.05731967894115236
0.17149013139637098 -0.09202380622657641 0.057876661359415396
0.1720865841911711 -0.090581321890341 0.05729982488736081
0.17179966505522393 -0.08994366390279188 0.05745285813284291
0.17152839576088427 -0.08934584278530404 0.05761742233199213
0.17213795027134185 -0.08797529329312674 0.05710160265544177
0.17160924123103954 -0.08863221834272635 0.057523496405396175
0.17204975289386545 -0.08722717389943489 0.057062544799388173
0.1711733830734616 -0.0878584709853017 0.0577728557472584
0.17144991697401257 -0.08634504362186751 0.05755469343387188
0.1719099374257047 -0.08492714834514856 0.05720593204963952
0.1714368999544027 -0.08556409824095866 0.05758499304803954
0.17184116866922539 -0.08433050132275689 0.05728676009901649
0.17137000907114688 -0.08375708304339159 0.05771032960866398
0.17096432502721265 -0.08307503866612433 0.0580605061515617
0.16811969062298304 -0.07424383871218074 0.058770719422626815
0.16767894047556178 -0.0731090761753905 0.05855756144166375
0.16725620137006156 -0.07270659976492334 0.058617171748365664
0.1663967031962946 -0.07156562360052256 0.058584745152319054
0.16591894298033608 -0.07122998803671028 0.05868650494738197
0.18354845820520352 -0.12217170704832656 0.05986119688770219
0.1834954282717391 -0.12184379865675045 0.06009966233543119
0.18342086520972645 -0.12123208478358914 0.060269989045046865
0.18346374819235486 -0.12047296080277431 0.05967203379486953
0.18314523350233586 -0.11959966687468934 0.059944521048259855
0.18263002582417986 -0.11837779799554385 0.05990767197678427
0.1820301418134291 -0.11724208307649715 0.05986051983667006
0.1812549874589222 -0.11612055593994954 0.05977896354401431
0.18047461785752242 -0.11500837453031935 0.05971316021879726
0.17982162036369076 -0.11396901428195473 0.05966550564294896
0.1791505673296123 -0.11296846293106674 0.05965517981844428
0.17858391091484163 -0.11195050923723485 0.05968009473994333
0.17788778834238514 -0.11077607424624765 0.059780165088846315
0.17813858547872113 -0.11009219790597277 0.05898601996906086
0.17761406575282462 -0.10895752291216959 0.0590614808605972
0.17735882647825896 -0.10799963290541628 0.05883232142652169
0.17689471823308633 -0.10721229826531102 0.05888538965086649
0.17642749983468728 -0.10632893385777784 0.058862730942890185
0.17593516145929022 -0.10546113468263368 0.0588532314041179
0.1754184853235375 -0.10456858308870705 0.05882667509167377
0.1748994805810698 -0.1036750761038886 0.05878901444391355
0.17442329327044212 -0.10281353280057721 0.05871613566156406
0.1739283109708318 -0.1019783380967011 0.05859844576994189
0.17346422514166987 -0.10114240126852564 0.05841498448039901
0.17299200842645046 -0.10025100739669965 0.05827906216050759
0.17258157341150743 -0.0993510001944231 0.05824657741993007
0.17224845382052706 -0.09850835587209507 0.05823816275494841
0.17196783255042478 -0.09769771720729557 0.0582657984147667
0.17175839737311227 -0.09688875462224747 0.0583122001933563
0.17157183525291317 -0.09606163767187237 0.05837113477998434
0.17136376933092218 -0.09524014266216009 0.058437025712708875
0.17112146041450935 -0.09444012186020438 0.058544054711664906
0.17094034712853776 -0.09365045842636847 0.05863266577709178
0.1707471525611237 -0.09295754772553545 0.05880071747746851
0.17127165445692202 -0.0914356470481386 0.05813135255525013
0.17072767942456482 -0.0920362557272357 0.05872689842871743
0.17122210345281633 -0.09057087645006015 0.05809571147976463
0.1707549064382092 -0.09114861628128773 0.05868161775068124
0.17113133468805267 -0.08974662095864067 0.05805814918404469
0.17087157981656073 -0.08913810778606544 0.058219290199802556
0.1705412907069427 -0.08844226955902837 0.0583327232599898
0.17071510975453436 -0.08715131146827995 0.058056264023761524
0.17009984557671043 -0.08776302979570536 0.058606119462795286
0.17028216459913084 -0.0865750648161597 0.058411542446916216
0.17098013758093744 -0.08514452155174788 0.05793205645685944
0.170392218403024 -0.08582825061998436 0.058372805696526746
0.1710313910814407 -0.08440053773445848 0.05791023228035072
0.17011048824314165 -0.08504254265607648 0.058631562254892695
0.17071474528909697 -0.08360992234217353 0.05819434318711672
0.1704727009418933 -0.083016530236169 0.05845884302909175
0.17025531542793051 -0.08239603674062139 0.058705853846303835
0.1697568846281748 -0.0814547284042853 0.059170835418791416
0.17031296718802202 -0.07959215500161476 0.059089339452691673
0.17026026772202374 -0.07903153675704784 0.05909324107311018
0.1700060343626978 -0.07785573809399983 0.059035340643996785
0.1699640557912286 -0.07829101105959389 0.05916919198416327
0.16945809578363696 -0.07773510613033426 0.05937810203860223
0.16853579899690083 -0.07628744800760955 0.059447591650826075
0.16796854271186307 -0.07484483306957503 0.059128206537281985
0.168122434179617 -0.07569318376712741 0.05949040926909432
0.1676561634860646 -0.07374044142104173 0.05885153972843456
0.16780385063918327 -0.07432759501166476 0.059000008362570064
0.16711760241361676 -0.07317721942479165 0.05886376330013898
0.16651884949396095 -0.07216128788228693 0.05886448916122603
0.16665973379458288 -0.07275552023733632 0.05894296338014858
0.16591032396871655 -0.07161545351715605 0.05893768455485721
0.16518196882826613 -0.07093530377282035 0.059091940497270866
0.1653905584716106 -0.07125164975175974 0.05907693534571473
0.16400164449168447 -0.06987287353445185 0.059685405359405294
0.16392373191842724 -0.0685331427417971 0.059475146074018506
0.16378942151515766 -0.0674291129722627 0.0592489605465045
0.16378458391968767 -0.06798684478994606 0.059454662362486005
0.16333076572465985 -0.06711323885057632 0.059371620871336885
0.16265605358675966 -0.0667168166893944 0.059680426991047655
0.16175630026459198 -0.06564806847304501 0.059734574831902316
0.18319583999474756 -0.12169075767996043 0.06114579938916124
0.18319487497509754 -0.12100160551812766 0.060823441038663974
0.18328868464727022 -0.12054630496981625 0.06032115999714959
0.1829876019831252 -0.12024065777719971 0.060866202089563566
0.18264892468208666 -0.1192309077754964 0.060827278371156576
0.18212484688142797 -0.11812846022040852 0.0607811781127014
0.1815023657210828 -0.11703135080291684 0.060707034687724606
0.1807505547471762 -0.1159271414481961 0.06061719648119484
0.18004326974979737 -0.1148695924692929 0.06052446962400473
0.17934281993549844 -0.1138410882196901 0.060442139636508935
0.17869313164004366 -0.11281294340163833 0.06041278116399231
0.1780590959727528 -0.11179711391244819 0.060430053518855914
0.177485640785206 -0.11095450027556482 0.06055382490735133
0.17753875805184702 -0.10973582609408764 0.059604083763057224
0.17701451502283133 -0.10983490859106093 0.06040252255732763
0.1770796830053543 -0.10904601848859771 0.05979135752948546
0.1767339849673723 -0.10799934467930486 0.05961829163430926
0.17633252593830073 -0.10695532249227667 0.05942349462130836
0.17590105605525916 -0.10618130246299948 0.05950373589544236
0.17543614540432212 -0.10530314797082056 0.059500619132665675
0.17494417548596403 -0.10441646233919136 0.05949846381097147
0.17443973544214347 -0.10353812601662747 0.05943788613414467
0.17395745736118046 -0.10264892861085274 0.059336937201458766
0.17350147146558947 -0.10174975136588987 0.05921451264736966
0.17303191055571912 -0.10086761466633934 0.05907142497570089
0.1725708905811158 -0.09999474735892502 0.058976018776712366
0.17214962218504692 -0.09913241470263723 0.05891558549986299
0.1717732228465319 -0.09830612317942229 0.05888876456317682
0.1714624815435142 -0.09749447552303389 0.05890535220230498
0.17120988045076216 -0.09669753746386169 0.058949565613267925
0.17096598980932953 -0.09588277816128078 0.0590120237794181
0.1707274795988104 -0.09508093873265666 0.059086899952338394
0.17053994283839824 -0.09428985122623916 0.059195394709050074
0.1703277085836275 -0.09351642815493633 0.059280074269715946
0.17015222639969466 -0.09273678762833086 0.05938065930985151
0.16993405305564996 -0.0920561205601219 0.059561472183731354
0.170428522433781 -0.09058568479816617 0.05891398389315988
0.16994139304587177 -0.09119139184189881 0.059502328551321045
0.1703086640967976 -0.08977242330746549 0.05885681430505425
0.16988001057042498 -0.09035058489758474 0.059424414713139605
0.17012784507922923 -0.08894999694326314 0.05882939285603506
0.16961789115934053 -0.08835514228334247 0.05913140053715857
0.16970289833977473 -0.0870966513759866 0.05889451580751154
0.16916237555916433 -0.08766111265587376 0.0593933248293693
0.16940591261402824 -0.08642485528583914 0.059079769843432335
0.16906433016312294 -0.08567598317322218 0.05930861215759953
0.1697756854068664 -0.08425248881711443 0.058856463939016716
0.16914218827037467 -0.08494735187198611 0.059274208789373756
0.16987523817560135 -0.08348544458483755 0.058803068629424526
0.1695442974519469 -0.08290174837450714 0.05906627510076943
0.1690292151491977 -0.08211844465673035 0.05947896312735332
0.169683174835968 -0.08037091141965486 0.05942706612690182
0.16905998194295774 -0.08124862119616076 0.05962965512196816
0.1700121175803275 -0.07952130652156753 0.059310690896481666
0.1696499606388861 -0.07897395485382447 0.059485437767224376
0.16914875294661386 -0.07834726130267894 0.059725352931770746
0.16855753225914988 -0.07703367657966614 0.059626585307983225
0.1683353781598849 -0.07781013865512755 0.05998476415006456
0.1679216134826483 -0.07645939257832554 0.0598112056758684
0.1674762787963947 -0.07536680298210371 0.05960473180360822
0.16712452350263227 -0.07603430728722903 0.06002941689194256
0.1671918554124043 -0.07419153727515357 0.059322424270982374
0.16698281291498526 -0.07485679968985033 0.05961145402529442
0.16664512435049855 -0.07378809107270042 0.05942449349137783
0.16606156556025956 -0.07449319992241538 0.05997348907237062
0.1659367799484927 -0.07265272267051162 0.059328070270457334
0.16586447154695896 -0.07329138151700372 0.05958263407928508
0.1654396503152663 -0.07223337450167984 0.0594850995188879
0.16490545740650045 -0.0729332978938746 0.060032632483596186
0.16470253157823297 -0.07112114272666223 0.05952929876718261
0.16473855795781253 -0.07171956740017388 0.059730100655398265
0.16399273884206103 -0.07064709444163235 0.05983159712490307
0.16381924849945886 -0.07137218540627668 0.06021051809944978
0.163579918852377 -0.06929795494996736 0.059862180126420826
0.1636266061644346 -0.0699876068234362 0.05999100830328411
0.1634949403829317 -0.06862499614294869 0.05975761709957892
0.1632530834099463 -0.067611895980813 0.059621241212167504
0.16294788906454893 -0.06832695939897167 0.06004142538644966
0.1626208092316089 -0.06722832533265709 0.05993425105186917
0.16184162890931608 -0.06621704707759399 0.05997362586036107
0.16198068699520846 -0.06685741315902684 0.0602170763407555
0.16126994641648992 -0.06537190968740095 0.05989784631289566
0.161498780089804 -0.06573047728715596 0.05999499135073648
0.16087244426387284 -0.06505552270132302 0.05994004493586083
0.16031570975787107 -0.06486845805838135 0.060230309213434814
0.15994426666499426 -0.06303721009390979 0.060095922207351896
0.15978336510924768 -0.06359503930086914 0.06030004793620167
0.15972894281800556 -0.06263963807123327 0.060223589557535276
0.15989569958418373 -0.060386784472792616 0.06023212957534458
0.18301368118238476 -0.12313013880830827 0.06218947326163354
0.1829946471678235 -0.12260829099410743 0.06210448834685306
0.1828582541511688 -0.12177592127745882 0.062170427957323283
0.18291800517295093 -0.12096488122057204 0.06151708852519653
0.1825853991429943 -0.11998677550511341 0.06166250037483807
0.18218303849532808 -0.11895361975083381 0.06168346305974443
0.18163054956418107 -0.11789385265640587 0.06162755868951267
0.18103994369373128 -0.11685071467058736 0.06154920872497767
0.1803310278001033 -0.11579146690875877 0.06144640961601826
0.17961742735481323 -0.11474572420303501 0.06132707842690309
0.1789323487292863 -0.11369106022047001 0.061236182097429925
0.17828462739111575 -0.11267316611050751 0.06116794974826593
0.17763080666707978 -0.11168494275998789 0.06113898188563157
0.17703983984137417 -0.11073457618004079 0.0611232822048162
0.17653194626277585 -0.10990973452021945 0.061189332860131465
0.17661560664496448 -0.10874977749825288 0.06025226625113826
0.17616295821666406 -0.10886470299050201 0.06100283061409414
0.17621733182349672 -0.10809032469263084 0.060393140559031645
0.17581781838030203 -0.10707302749644527 0.0601854965556779
0.1754372410730583 -0.10602233386354132 0.06003743835163512
0.17498555881046274 -0.10526005456078656 0.06015812857283211
0.1745241748727138 -0.10434529734063672 0.060170719520450125
0.1740122864177991 -0.10342838311782322 0.06007705493661303
0.17356360255712866 -0.10247914216384779 0.05996203888752778
0.1731161362695908 -0.10153189829325476 0.05983282574120059
0.17265323817764722 -0.10064233798386173 0.05970928278372361
0.1721687282746339 -0.09976389833273763 0.05962161320776039
0.17172592354486765 -0.09891185987867149 0.059552619928464355
0.17130827840792887 -0.09810491620309673 0.059516088273171945
0.17097032067388704 -0.09730910970297509 0.0595352971042089
0.1706304534623851 -0.0965214354919894 0.05956818831790865
0.17035508395763527 -0.09571429384569947 0.05964822893854274
0.17011522735997903 -0.0949175572979296 0.059720695277939044
0.1698860940283697 -0.0941434742792267 0.05982001495991895
0.1696989272940507 -0.09335588201998385 0.059925000793320284
0.1695478770161603 -0.09260083864383159 0.060064977000496005
0.16939957975469477 -0.09184784103383493 0.06016557664995819
0.1691889299856363 -0.09121780523731177 0.06030576371569266
0.1695248992985951 -0.08985685776566332 0.05967373763296321
0.16920392560580827 -0.0904760898510201 0.060144048898744265
0.16934399359190877 -0.08909879127770831 0.05960591488371526
0.1687868151771429 -0.0896789560103405 0.06026992092861831
0.16861921907991886 -0.0882520813426013 0.05996825271971041
0.16865889286242328 -0.08696848631183689 0.05965981968675792
0.16836513204157355 -0.08755854234840062 0.0599734321265927
0.1685660858707778 -0.0863101804688094 0.05968265024677516
0.16806138829862158 -0.08591401621348954 0.05995460033663299
0.1687268032860714 -0.08452230355761456 0.05956801461649407
0.16791806450641844 -0.08518405205761906 0.05998937701628101
0.16862185509440558 -0.0837319849210037 0.05959903557274228
0.16788114521479297 -0.08444292536489377 0.06002309224247927
0.16844240230666324 -0.08290203583362755 0.059703460711050295
0.16781684826501372 -0.08250164962838417 0.06011951481448658
0.1686750541753331 -0.0807716770631973 0.059956703021761655
0.16778854687180209 -0.08163414422836378 0.060343699287986066
0.1686878211955111 -0.07992046424314952 0.06000304629492701
0.1677570284588698 -0.0807858261016664 0.06044881940376744
0.16852466191816765 -0.07908716657612067 0.060099874995487336
0.16775378340716895 -0.07865648227423097 0.06048541668730388
0.16744494733481183 -0.07730164559066052 0.06023457580061001
0.1669001379392457 -0.07815939027585614 0.06073401786132452
0.16658994649019193 -0.07683818338152479 0.06053642954128565
0.16628594667338747 -0.07566521480640671 0.06021276777854397
0.1656734803568045 -0.0764544296455021 0.06074762861442353
0.16548631029484012 -0.0752550548006753 0.06050132472233949
0.16524821706232756 -0.07409847082824338 0.06021789649873833
0.16463505370853004 -0.07486726090985256 0.060779967998120785
0.16440697156114506 -0.07368874533706324 0.060538079063628354
0.16411478102904528 -0.07253787661524244 0.06031546470679958
0.1635465562359958 -0.07330611784092632 0.06085373023322533
0.16332402021400633 -0.07214308567019853 0.060641892864842284
0.16300349704762418 -0.07115976024401673 0.06053809138422102
0.16252707824306387 -0.07181834121513997 0.06095718961020767
0.16299717414186107 -0.06982733663612464 0.060415855566125914
0.16272699793170436 -0.07059620557706607 0.06062449577751184
0.16240164865408205 -0.06930272206765707 0.06057252587257282
0.1618561052026915 -0.07025966562791662 0.061029350001018244
0.1621236195138259 -0.06800043655897367 0.06051433286667088
0.16187701864863968 -0.06876937054120905 0.06074643951015445
0.16179515181401863 -0.06744636382911123 0.06062753198049081
0.1612553874419441 -0.06670435952514897 0.06052970292399622
0.16104182429319372 -0.06731199964597379 0.06092354937366745
0.16097291090490126 -0.06564873572723229 0.06027885406153732
0.16090564664555013 -0.06623664200677086 0.06054320250097966
0.1604417350249606 -0.0653483358875659 0.06033765903314983
0.16013643831865798 -0.06601750134207444 0.060809893333768
0.1597073509055436 -0.06439891014401496 0.060538941801887576
0.1596045000362353 -0.06509871122887341 0.060769298163357584
0.1594876978271127 -0.06321860126317046 0.060500224225738954
0.15923276260595176 -0.06399895667292022 0.060795844829423774
0.15935951462885198 -0.06210602333936606 0.06045455610936555
0.1593020510369657 -0.06269051023510008 0.06055693284165594
0.15948607359099942 -0.06113646957237058 0.06045524443944909
0.15990335316792548 -0.059899839104909015 0.060414712463791764
0.15970682990546875 -0.060485101706013296 0.060433778592043345
0.15986591060905145 -0.05934766291443757 0.060643138432725126
0.1829030068117075 -0.12305595871373519 0.06255691305702019
0.18273626982090302 -0.12250634501102896 0.06281301430002138
0.182432740976646 -0.12157147134044795 0.06306606383180167
0.1825224427539804 -0.12079164984785011 0.0623795319911874
0.1821205844616621 -0.11973831711432895 0.0625015329427843
0.1816670253595674 -0.11869052706111077 0.06248384528426831
0.18115195139608326 -0.11769340667969097 0.06241663259458751
0.18057858049908324 -0.11670683216863093 0.06236321639079863
0.1799047518221085 -0.11566000044921661 0.06226267838815071
0.17924371926589455 -0.11462278187337782 0.062134175666962235
0.1785895162716698 -0.11357740326037924 0.06201728122547313
0.1779058636754059 -0.11255251160129504 0.06191186549145935
0.17725761211056545 -0.11155085612534056 0.06184114942270409
0.17663395622713743 -0.11060382566151297 0.061786539168971845
0.1761681413583097 -0.10968408196642684 0.06176272034880862
0.17578257435934713 -0.10892407472131246 0.061793513387497806
0.17574473919898087 -0.1078401287020695 0.06079551808841106
0.17544365424529046 -0.108015631712945 0.061503530576424006
0.17537669325400956 -0.10723154155059629 0.06095353167120928
0.1750868041650587 -0.10628793153851432 0.060774610248545864
0.17457027955841917 -0.10523216894715431 0.06087314119552254
0.1741409624751016 -0.1042514751078597 0.060838533359180304
0.1737091596982067 -0.10326654339532218 0.060751654634042196
0.17329063728662197 -0.10227248240280859 0.0606137358784917
0.17283804733965707 -0.10132108404316675 0.06046270525636929
0.17232500648082932 -0.10040979312792686 0.060326565012676164
0.17180391953972873 -0.09952220259863263 0.06024402127775834
0.17131029978666645 -0.09867297637803857 0.060152770717870375
0.17087144908117122 -0.09788101046286633 0.0601025131801412
0.17046357627405456 -0.09711479522672878 0.06013064215289053
0.17009739533323204 -0.09632556819243117 0.06017853558875559
0.16978629656904876 -0.09554861108083379 0.0602360204855975
0.1695120373994818 -0.09477258019941169 0.060323719944555564
0.16929372980042307 -0.09399591797398976 0.06044186875959892
0.1691256543367265 -0.09322242405641276 0.06057424522782015
0.16895319213583573 -0.0924552307753471 0.06070217167613245
0.16879784319288824 -0.09171670679070568 0.06081619638095134
0.1686249858528983 -0.09098697600568387 0.0608640106928873
0.16837942715509685 -0.09024925922763137 0.06087829531983169
0.1683195163781333 -0.08896693274003908 0.060396427822677075
0.16798043239086394 -0.08955066934284307 0.06094608509192523
0.16777664135523318 -0.08842671548878032 0.060604958618845295
0.16780302295864077 -0.08716183429055925 0.06025838789678056
0.16754346039344367 -0.08775108516302635 0.06059244469075447
0.1676345867561273 -0.08650869225166222 0.06026390391365156
0.16697554214053195 -0.08701905146027632 0.06082619208380188
0.1671340884051513 -0.085846753244548 0.06047612404762181
0.16679305789510215 -0.08533320949485204 0.06068589159730453
0.16731134800415848 -0.0840446711908348 0.06032516746077347
0.16681520478839246 -0.08468018945194336 0.06065308379491654
0.16721783192787207 -0.0832961181916096 0.0603822389142456
0.16633720885467798 -0.0839639568285246 0.060951776150904094
0.166707194598737 -0.08254505672585882 0.06074822442892882
0.1662808022204549 -0.08199761004734403 0.061052222601408516
0.16714794826271134 -0.0804192452075352 0.06077690021653681
0.16634522947223204 -0.08124526651838872 0.06110348629875033
0.16713616841838191 -0.07963908832817981 0.06084981045080252
0.16580177569701318 -0.08054898552631556 0.06142527890834718
0.166237294916778 -0.0790437112740086 0.06121940050208553
0.16595260836631912 -0.07771561927240524 0.06098017194529131
0.16527244702222055 -0.0785932012219727 0.06143960516214436
0.16502447820610697 -0.07729729311227082 0.06123023951360336
0.16475024354755385 -0.0760901893745653 0.06099876592583116
0.16411584523470754 -0.07690384235622703 0.06148229864656807
0.16393262289695804 -0.07567609828073558 0.061275858470979744
0.1637514338557284 -0.07449827737404881 0.0610796677633815
0.16318535325411093 -0.07526108104660426 0.061549211178555614
0.16299706336035616 -0.07405638113837192 0.0613777687699732
0.16272624115733542 -0.07292558284399427 0.061187988464147434
0.16225084437904197 -0.0736412190553128 0.0616546715188315
0.1620012312768207 -0.07253535434190239 0.06142687448874617
0.16185846247490007 -0.07146793648870373 0.06122786428591656
0.16134016129188822 -0.07218407066823489 0.061685493104809655
0.1612415455840907 -0.0710689644944875 0.061467240237951255
0.16107833909163305 -0.07007446986518034 0.06137790236294038
0.16055059236810218 -0.07075585115793244 0.061731913678746746
0.16105223637934554 -0.06874469752537915 0.06118474798038649
0.16079204518541007 -0.06951907126298687 0.06146489906917661
0.16062785082757994 -0.0682076928972309 0.06137048872467489
0.16003372854877268 -0.06918456108444286 0.061824208737021116
0.16020853792323164 -0.06710389640549869 0.061242089749596065
0.16010117678165453 -0.06776435329191507 0.06156187169111784
0.15985339334811505 -0.06664289543162652 0.06119518194605636
0.15938919310779548 -0.06581132044249106 0.0611633281968856
0.15917549931139555 -0.06651473899676622 0.0615721970609505
0.15897955205961 -0.06474457535259574 0.061189167255814005
0.15869849002003045 -0.06550911306567127 0.06159196987203237
0.1588037059109817 -0.06374411425482698 0.06114463078694797
0.15843124353969842 -0.06439155905439392 0.061515257893619585
0.15894323441148792 -0.06250362059153669 0.060849221218787504
0.15874885464642932 -0.0631576505851635 0.061150407060178893
0.1588875034917827 -0.06194266895736879 0.06088572061134716
0.15840396770033843 -0.06269716595930236 0.06139094794460844
0.15957816846518935 -0.06027654180716671 0.06074277079872369
0.15902301589927334 -0.06112431222345823 0.060964069560243084
0.15959955645048096 -0.05971880085496536 0.060895269723247145
0.15897369928321609 -0.0605266364719452 0.06128874713831853
0.15950706338012352 -0.05912647102377611 0.06119073992525237
0.1593455717275139 -0.05842589277681165 0.06165378421064508
0.18264190731123894 -0.12287585954340036 0.06333158649512675
0.18238118808340795 -0.12228910975212526 0.06368589842950112
0.18201964178361715 -0.12127822948920598 0.0640322786960416
0.182108876667339 -0.12053900160196278 0.06324675848758078
0.18163471993604005 -0.1194180376117361 0.06339734504827799
0.18127896073967212 -0.11840924844787667 0.06314042696887182
0.18078508848140337 -0.11759294954430008 0.06322992198307072
0.18021072550498715 -0.11659585897573771 0.06319411308761108
0.1795832236780036 -0.11555064529417072 0.06309234409723612
0.17893262695000928 -0.11450390182318979 0.06295384391267847
0.17827208158262206 -0.11344987811314614 0.06281211290460242
0.17757461267763733 -0.11243690225327302 0.06266398428122498
0.17688963762855084 -0.11141935127871026 0.06254820888744674
0.17632700213499602 -0.11044975956561626 0.06247594455449549
0.17583605770441157 -0.10952656295365719 0.06242403238386311
0.17540262941400228 -0.10861772031990867 0.06232002667360509
0.17502572471662511 -0.10772987266243962 0.06217899033196779
0.1750228460190554 -0.10705801328880639 0.06154686849173719
0.17460597940067804 -0.10617805268018758 0.06169816829856476
0.17428919747557883 -0.10509791789776589 0.06164635947431937
0.17394842666337842 -0.1041055175800782 0.06158645363118775
0.17358033043331045 -0.10309057191414119 0.06153079429786124
0.1730995519566774 -0.10202689905107133 0.06122555116560596
0.17257769683460866 -0.1010846686267996 0.06103871892811459
0.1720210455988097 -0.10014669805017506 0.06092721474852276
0.17141756197897462 -0.09917224975193145 0.06089851501115581
0.1709518794916613 -0.09836388689074849 0.06063563685019844
0.17052425323062892 -0.09766855459865027 0.06072946496374365
0.1700445321383155 -0.09688456355333548 0.06075036457309746
0.1696794797056962 -0.0961191634838675 0.06078915201109426
0.16931545589240207 -0.09537802299714183 0.0608450123253189
0.1690295020032602 -0.09461557076151517 0.060961454334189945
0.16880787884764334 -0.09384711194692158 0.06108570732627666
0.16859870335366445 -0.09309162038203629 0.061221867368289135
0.16842482891464058 -0.09232965755902545 0.061355208883851174
0.16820721449484954 -0.09158157075830688 0.06142997188353985
0.16793787390829287 -0.09084093450373057 0.061468567809014135
0.16759533352062228 -0.09013537959054953 0.061487360568594746
0.1674890754163863 -0.08891742350196881 0.06104169204002811
0.16715101490592726 -0.08949000890453544 0.0615344210556909
0.16696280949768433 -0.08829364171535317 0.061152108273871374
0.1663766953475141 -0.0875669909838596 0.06138078470138055
0.16645171474587037 -0.08631820594012722 0.06100617456017826
0.1661376253461357 -0.08687499554388926 0.06134310075054035
0.16637948315937295 -0.08570296414522174 0.06101818159928912
0.1660652161901878 -0.08517964706713131 0.0611942296596539
0.1656933498463401 -0.08453389328832045 0.061373454588074874
0.16592007007252288 -0.08324193161742002 0.06119657256882372
0.16525675013751398 -0.0838581502838837 0.061626085082336156
0.16550666940969333 -0.08257036380906713 0.061414345652849874
0.16524644539532848 -0.08194938770424127 0.06161914660538828
0.16493004313735973 -0.08132134013849837 0.06187763389671344
0.16530391679084014 -0.07993055678798427 0.061636529315239816
0.1644032227393599 -0.08073216788034535 0.062100844086537856
0.16456121301261967 -0.07942060528110309 0.06187309374494963
0.16438607286915977 -0.07814898033117647 0.061698357632308666
0.16380222665448943 -0.07895686229064207 0.06211452211339642
0.1635449674494925 -0.0777036652063301 0.06192792535322543
0.16328888281861006 -0.07647517106822266 0.061778569484114865
0.16280226969300524 -0.07723686535859398 0.062177619430729164
0.1624535375379026 -0.07603494964448336 0.06207197673108357
0.16237846250707552 -0.07484857450482676 0.06194360105091004
0.16216687733876595 -0.07550460972911258 0.062158307821390014
0.1617480260101596 -0.07430655584174635 0.0621612704294678
0.16139516879853477 -0.07326593089133004 0.062026657630040505
0.1612825624423275 -0.07387790220681245 0.062307388004854136
0.1609490756631074 -0.07278999148789221 0.06206219965296595
0.1606985973628112 -0.07181939708653008 0.06197038154569495
0.1602915678828894 -0.07252215254443373 0.062391804949645184
0.16003905404965776 -0.07146438599471994 0.0621809652202657
0.1600508985395254 -0.07038037240104783 0.06200261839706439
0.1594876219155479 -0.07111163776727895 0.062403943652405404
0.15954747153697518 -0.06998653568035053 0.06224569676061427
0.15942180618386964 -0.06896492155321851 0.06211245389295303
0.15895321473234392 -0.0696662676071334 0.06250327395780465
0.15945713808265508 -0.06772027031917921 0.061936865916501896
0.159217392670184 -0.06842439490748059 0.06216588863291975
0.1590791153911644 -0.06725986511775167 0.06195280859947009
0.1585432282755608 -0.06810734177655571 0.06248446828387727
0.15848506454970185 -0.06625076987219919 0.06200348842825162
0.15829336315588063 -0.06698620813529518 0.06240425277687554
0.1580290605137394 -0.06515256562333241 0.06204015344015883
0.15788846086174593 -0.06591427334825867 0.06240389336426508
0.15800002960194207 -0.06397908864915079 0.061813810302684985
0.15776895775785726 -0.06463902693498615 0.06209683604534397
0.15802139890000771 -0.06335196001856529 0.061807784280007494
0.1582315274660243 -0.06213744037277958 0.06156832017266921
0.15774084939435878 -0.06297638434638633 0.06206894130263331
0.15819503788909572 -0.06150649321292285 0.061737463677291424
0.15897138384802417 -0.05988427351355884 0.0615417612157322
0.1582096852655802 -0.0608711299946426 0.06197988800268975
0.159018644493753 -0.05918041441862419 0.061876186914075794
0.1593172740102735 -0.05765821692981889 0.061919925538783505
0.15902545195761858 -0.05840209214993034 0.06215801947302776
0.15934315561723242 -0.05684452378245361 0.06212872750660568
0.1592558523625241 -0.05611414298726201 0.062384418196153445
0.18231812420112578 -0.12265790644508463 0.06419267884812836
0.18205896037160219 -0.12209883407132731 0.06456130321160002
0.18177425455361051 -0.12138964480084913 0.06483812452070889
0.18179023976598946 -0.12030146705033401 0.06395439745343207
0.18156747183261274 -0.1204859215704631 0.06471727711740519
0.1814431371467139 -0.11964926956713913 0.06422568558146048
0.1810787396036766 -0.11862676511426229 0.06402245789994236
0.18048250365946053 -0.11749715822325271 0.06409185426552157
0.17993890792439615 -0.11645858938993736 0.06405220698878
0.1793304746337512 -0.11541178325264285 0.0639416093410532
0.1786795492280035 -0.1143907573376348 0.06378288050112431
0.1779844451549406 -0.11334767454653372 0.06361012608711332
0.17727251612357636 -0.11231265880918447 0.06344372117058801
0.17663324819674675 -0.11128834957374564 0.0633222219126664
0.17607871556796093 -0.11031000641529912 0.06322258064731898
0.1755285207438688 -0.1093352279654481 0.06312027594552044
0.1750553508519366 -0.10829715806779662 0.0630161892312511
0.17475944181586225 -0.1074390013808433 0.06259871219022344
0.17474270198259204 -0.1070158199669444 0.062109170354146495
0.1745419446845152 -0.10676077097477801 0.06253460102916739
0.17436422207678268 -0.10589915749576888 0.06245964186813752
0.17414330599825906 -0.10496267227573575 0.06241616931586798
0.17394200288562595 -0.10403102312818517 0.062391874177349274
0.1737230032040709 -0.1033283604787294 0.062246803361014444
0.1733741671185225 -0.10262759836270083 0.06195473929030957
0.17364564613271788 -0.1031388168983448 0.06260667046880068
0.17289661683610613 -0.10173778116547579 0.06174322187436071
0.17324997132806144 -0.10234457767485164 0.062435096707077316
0.17238270078543477 -0.10081469609406069 0.06160772233332393
0.17277704449673195 -0.10146866694392641 0.062301669225908476
0.17182087845145874 -0.09992073637330105 0.061551905154976695
0.17224547418269812 -0.10056900373387555 0.06221432561811231
0.17130948885710262 -0.09918832187562017 0.06154272931723841
0.1715770321806997 -0.0996152205433966 0.062176589519145724
0.17081763136128822 -0.09838467569183502 0.06129393350074985
0.17103371496964284 -0.0988029115549321 0.06189247963843342
0.17012644975444843 -0.09735033657271032 0.06143603831873596
0.16969107747695591 -0.09656903633129167 0.06126570584564663
0.16931958355710872 -0.09590981386288638 0.061380579733455405
0.16893942854494487 -0.09517223628831006 0.06145595326244355
0.16865104717320664 -0.09443988340340595 0.06158580235936817
0.16837424814052127 -0.09370564062269907 0.06171924794033643
0.16811234342994386 -0.09294866289564853 0.061841809396190155
0.1678693913469779 -0.09221443782819559 0.06194088658024251
0.16756705968694055 -0.09148574522705351 0.06200811442326909
0.16724170713296785 -0.09075431030239957 0.06204765773829745
0.16684093941923614 -0.09008085752306147 0.06205777643621569
0.16664176648512172 -0.08888122057359778 0.06164815035476231
0.1663811884064405 -0.0894761055290125 0.06212317978176277
0.16613578410559104 -0.08827527899515844 0.06181166733335812
0.16562570849129954 -0.08777200376168622 0.06199843243646644
0.16568514070528512 -0.08646001331767984 0.06158231182151112
0.16539048062690123 -0.08703345783090477 0.061998554107498556
0.1655383738349522 -0.08576531091542601 0.061634098360070645
0.16521490181666837 -0.08630399907381286 0.06203978767462649
0.16526595263760058 -0.08503218649049232 0.061708352244328156
0.1647045047596562 -0.08442823432933097 0.06209264968087454
0.1647147696027991 -0.08316499958632396 0.06193288740881694
0.16443714546728186 -0.08377459560619127 0.0621687330222477
0.16463373089644165 -0.08248899262766264 0.06197188337198048
0.16419409817625663 -0.0820143332864763 0.06222838927763948
0.16370340960760135 -0.08145333135938568 0.06246896776196156
0.1638085759814678 -0.08019482280187082 0.062312837892672134
0.16320169709229623 -0.08090691213495625 0.06271453912315626
0.16317500321805023 -0.07970809693715633 0.0625109771368178
0.16300213633611513 -0.07849693790650404 0.0623475403533054
0.16245657333649285 -0.07925678158409594 0.06269500297853793
0.1621401987047055 -0.07800656736523451 0.06267387921578729
0.16199814630492895 -0.07680939409773563 0.062463634719595706
0.16182673409654344 -0.07743287725742433 0.06271328288789937
0.1616451280363318 -0.07640699246417601 0.06258295979295914
0.16152164429073632 -0.0753695118758456 0.06250794695335682
0.16134756929047073 -0.07598226416888433 0.06271335109893714
0.16115837881971432 -0.07493963991365153 0.0626530851459973
0.16065098721578733 -0.0755717554636586 0.06304714913203764
0.16061747307983304 -0.0737628226876806 0.06268812178016865
0.1605875768589475 -0.07438604972440781 0.06289883543642925
0.1600399459794754 -0.07328799753864051 0.06284040307804735
0.15974830258471154 -0.07405045126385437 0.06325093293685564
0.1595517826517936 -0.07217503690248453 0.06272700221725348
0.15951862222321966 -0.07276932366156384 0.06299897110423167
0.15917216896882194 -0.07170516910301586 0.06278839785042925
0.15900130893976896 -0.07075255444406717 0.06263563205024267
0.1585982403505604 -0.07146372954139973 0.06304441415497032
0.15847177326133213 -0.07041734226105223 0.06287344579439857
0.15846560003773114 -0.06929822598572898 0.06272183955154223
0.15798415227667637 -0.07005798682920339 0.06314282490492075
0.15797394494420514 -0.0689228368460016 0.06287942331730907
0.15798937892559856 -0.06775701655828663 0.06278708238165512
0.15745710147264963 -0.06856416867950518 0.06312086801767225
0.1576340599523861 -0.0666468762109213 0.06288627918111164
0.15745208620454243 -0.06741497077142615 0.06316906215390757
0.15734602720957497 -0.06565137928423857 0.06280870498083069
0.15732410186026968 -0.06618828477716432 0.06301283993537211
0.15738570082927936 -0.06449129966794141 0.06242753914125366
0.15732661890367533 -0.06504678740315732 0.06262663034097284
0.1572637315587267 -0.0638902230784112 0.06255358170189348
0.15692946566406643 -0.06472441882456959 0.06299315961801441
0.15751272188004944 -0.062454715727904536 0.062358456440360546
0.15717105638904083 -0.06324715459957136 0.06264627628386439
0.1576260812678204 -0.06172569247248978 0.0623896623063129
0.15828969446935431 -0.060190135844875405 0.06229389035401769
0.15758503283225445 -0.061216671409018666 0.0627334840224857
0.15838324888113778 -0.05943489111252847 0.06260275964983808
0.15906474797263068 -0.05759419318929836 0.06237045693090423
0.15848176261504418 -0.058628255235341604 0.0628345148522268
0.1590747563667487 -0.056795766270155236 0.06261204768100126
0.15909538052377625 -0.05565282484366981 0.0626588139774429
0.15894205147295137 -0.05610724438316107 0.06288446528923847
0.18201771896691438 -0.12243609709110788 0.06504341093739306
0.18177447384897316 -0.12187846828329028 0.06544982198216329
0.18153598429759593 -0.12104424666498961 0.06536422927035072
0.18127628527168357 -0.12022577080259544 0.06557988681408947
0.18115483252416978 -0.11940861979565073 0.06490272990127756
0.18074792064122513 -0.11835278354685386 0.06496820353965915
0.18025094714393308 -0.11732091617867901 0.06497769565296187
0.17973587987380688 -0.11631332430110285 0.06491165513669088
0.17912103363737014 -0.11531088649675794 0.06478014305399912
