# .PCD v.7 - Point Cloud Data file format
VERSION .7
FIELDS x y z
SIZE 4 4 4
TYPE f f f
COUNT 1 1 1
WIDTH 791
HEIGHT 1
VIEWPOINT 0 0 0 1 0 0 0
POINTS 791
DATA ascii
0.1701974937124122 -0.07983149466320633 0.08541493757436619
0.17056893070094833 -0.0804432958014513 0.08570098873263302
0.16982878011282973 -0.07913234264328446 0.08559978937846041
0.16909483857832702 -0.07795348256440274 0.08517197804456911
0.16950964896405613 -0.07852911314431921 0.08582981544214131
0.1687914678559877 -0.07737630034903241 0.0853732804829074
0.16822326097979898 -0.07630457772189489 0.08527334151634634
0.16855906685113903 -0.07691149592813494 0.08551691771456948
0.16792084914279662 -0.07558871933166134 0.08549734537331471
0.1673846186787231 -0.07427998164476039 0.08510303399324827
0.16770718634629622 -0.07497117478825949 0.08574937290347252
0.1672133969351443 -0.07360258341304347 0.0854351588809118
0.16674698575080818 -0.07226703183578496 0.08503988907524401
0.16704823704764218 -0.0729232416214224 0.0857224714051474
0.16654807471722038 -0.07159409861935283 0.08525616290128107
0.16634113477779292 -0.07095673370991323 0.08541800265849551
0.16589068798730114 -0.06985642032104532 0.08542054814468442
0.1661720822451129 -0.07047539931562437 0.08558147441392211
0.16526860288061596 -0.0685003036761152 0.0851490135617203
0.16560598094940415 -0.06911161722224311 0.08578706809345976
0.16500425258627938 -0.06789685329699252 0.08542998761640605
0.16453104668245483 -0.06684581510827957 0.08558167314740185
0.1648110418871152 -0.06743266219611983 0.08567248207324467
0.1638920082832234 -0.06554050800196676 0.08548353430202475
0.1642420734150325 -0.06616114244714821 0.08600500704055894
0.1633577813652485 -0.06429727537463836 0.0853847537968783
0.16365339246066013 -0.06490414590624435 0.08593872251181107
0.16314054030786249 -0.06368827223022513 0.08569173678398218
0.16273135855801257 -0.06255037862660542 0.08586911440917357
0.16295738236709598 -0.06320140591533142 0.08594924312535246
0.16227083032439063 -0.0610935687511545 0.0858645268739633
0.16252594247947671 -0.06182215519346733 0.08632239233132503
0.16181631513932376 -0.059580221158764726 0.08587346643741103
0.16207652477770676 -0.06039807029049257 0.08643097450101317
0.16158226980890691 -0.05889253399766815 0.08575586092162997
0.16139910422951814 -0.05828918595363853 0.08599634129335046
0.16162366226450203 -0.05892065055283192 0.08653071162838567
0.16120856052751378 -0.05751382838432798 0.08616690930048009
0.16085366084859562 -0.0563561909440913 0.08624504871598913
0.16106012645105816 -0.05697754294579691 0.0862346421956491
0.1602338537567084 -0.05449620176264752 0.08553741688576376
0.16044614859132994 -0.05503074738250682 0.0861572137578312
0.1607014954935031 -0.055692230999475456 0.08665759227566987
0.18225868965160466 -0.11883117628784232 0.0893211194242885
0.18223281712953607 -0.11841142177385297 0.08979026063454397
0.18204662784360276 -0.11767914607389787 0.089762563625558
0.1817605504142457 -0.11668197649842378 0.08991596072855967
0.1815095845441993 -0.11575658414118495 0.09001365566135952
0.18128536964224715 -0.11484739454163105 0.09011763595231699
0.18109228706710886 -0.11390972770639107 0.09017687424858144
0.1809432419800257 -0.1129218150604012 0.09019187460268573
0.18080740004934026 -0.1120250836061521 0.09016463518533976
0.18055639961800465 -0.11124007113460675 0.08941769312475795
0.18057358954636724 -0.11049971588897717 0.08969220090723565
0.18045245888373684 -0.10945056341809771 0.08956622762165858
0.18029539539882686 -0.1084848487798621 0.08947542656101594
0.18010560637064207 -0.1075504211651187 0.08941477213552597
0.17986178747197393 -0.10658543112245002 0.0893410575809419
0.17955465495461628 -0.1055753505551003 0.08924506509571671
0.179226508849916 -0.10449535899399853 0.08912650425564544
0.17892126320138188 -0.10340986542711346 0.08890761091551772
0.17868819502170336 -0.10240008277090523 0.0887067605210464
0.17849879975763724 -0.10144801256130066 0.08861531402870443
0.17833162902606547 -0.10049244233323647 0.08852750989571445
0.17817305708117168 -0.09954451143959477 0.08844712762794679
0.17800083247054668 -0.09859052410141371 0.08836726889340064
0.17777748585829403 -0.09761871115716764 0.08826974933328698
0.17751664553001714 -0.09663781938569246 0.08818640564779945
0.17721969365917772 -0.09566295001663612 0.08814451313273192
0.176898135980765 -0.09473609811909751 0.08825295293897781
0.1762392610365304 -0.09313121337338756 0.08745850889134195
0.17656906577533144 -0.09391955619682055 0.08804187625675926
0.17591442483069109 -0.09230091746044138 0.0872002334586826
0.17569140018861867 -0.09164561449145474 0.08734527989097479
0.17539158143949868 -0.09075295485084447 0.08733794324204383
0.17509235482114602 -0.08982685767527485 0.08726316986858626
0.17477847719658227 -0.08891875029919077 0.08714724256997276
0.17453011404575555 -0.08819897949780009 0.08685460154953227
0.17435647843916494 -0.08783824195727316 0.08716760551457468
0.17462810383715202 -0.0885502054884359 0.08745876419646773
0.1739762041792814 -0.0869718743105481 0.08705836670265726
0.17360497315042991 -0.0861634740427285 0.08700915858477566
0.17328735769301082 -0.08547228983618153 0.0869983179088902
0.1726834330332412 -0.08426704162843164 0.08676300615380494
0.1730553730978759 -0.08500340173365026 0.087111108641016
0.17228054634833534 -0.08349758996270419 0.08689958085766795
0.1715732870606014 -0.0821854714902343 0.0864014882127933
0.17197657174506586 -0.08289303615495418 0.08712179235256112
0.1711897616279119 -0.08147141706190066 0.08657051886744777
0.17081255673264897 -0.08080857502934911 0.08623279087735622
0.17055819941997283 -0.08033768975641456 0.08632480727259577
0.17091960678075416 -0.08093265788340537 0.08700503294840341
0.1702253259298996 -0.0797187871092983 0.08641484525130651
0.16988905280647185 -0.07909093696716302 0.08649810336569733
0.1692121341593436 -0.0779376217051198 0.08629915744712292
0.16962531804328418 -0.07859975354277199 0.08659767371523808
0.1688132856343457 -0.07726786108419333 0.08601607355553015
0.1685712627521719 -0.07679609728126482 0.08614712102773345
0.16892924133139986 -0.07736088177375365 0.0867718983187566
0.16826937567941494 -0.07618621243167972 0.0862704404276789
0.16800107106601467 -0.07555499982625102 0.08638430555413289
0.16756819023132094 -0.07440423553483892 0.08623529745530847
0.16782785615241771 -0.07506729046452755 0.08650492639484363
0.16736021941559082 -0.07362903675048817 0.08645754977578574
0.1668611204762441 -0.07223534585251984 0.08597513969704718
0.1671741090656921 -0.07293498402595014 0.08669302027783105
0.16662394928134477 -0.07147606066153253 0.08623181607620468
0.1663585834257377 -0.07082705850842502 0.08602878248345408
0.1661872728272856 -0.07035651688232214 0.08621378169635226
0.16647725657707604 -0.07092382472409951 0.0867464017828943
0.1659553373622109 -0.06974197101040251 0.08645057752061118
0.16533033185899337 -0.06837161576966637 0.08617110563904738
0.16573086089159542 -0.0690827037369672 0.08680650799525523
0.16501729933436185 -0.06776071859516386 0.08606359204701894
0.16482966659623555 -0.06729820464137012 0.08630590787483411
0.16514394542517208 -0.06782935430983261 0.08677579354038413
0.1645895276616088 -0.06671569106518925 0.08657756493496628
0.16401356175128257 -0.06554019214484126 0.08646924041169635
0.1643641163968948 -0.06613208091692374 0.08694571666188278
0.16338671635249738 -0.06419065645050413 0.08639861696724552
0.16377576579062575 -0.06491900844766284 0.08693432791132753
0.16312259418392977 -0.06355432929154123 0.08634460082320997
0.1629594112978062 -0.06304745538687355 0.08660931794224581
0.1632005275495153 -0.06363325039080986 0.087067613080833
0.16276550302540074 -0.06242092363699842 0.08682551954067286
0.16234768847861072 -0.06121159250568537 0.08698691628399118
0.16258568536998103 -0.06190252653444673 0.08707356878073445
0.1618988688199066 -0.05969413474328798 0.0869979327666387
0.16214539308546802 -0.06044507899375462 0.08747061491589589
0.1613783352298526 -0.05807604798794754 0.08701379870726261
0.16168706462204702 -0.05898604921655248 0.08756529119510424
0.16109558051653466 -0.05706425775316337 0.08690593828621627
0.1610575512687798 -0.0567871996333413 0.08766238418759323
0.16124830003831797 -0.0574483247857 0.0878055287005945
0.16091125849992213 -0.05631108921763696 0.0871860794747674
0.16085392793510822 -0.05598805975586782 0.08737463712620774
0.1610010687345022 -0.05639593722619956 0.08793987063324772
0.18219478870970418 -0.11802164590984303 0.09025558499390855
0.1820462337961126 -0.11734551648753214 0.09037220518234125
0.1818076677050512 -0.11644498545862432 0.09047609399245038
0.18166509609624568 -0.11557169773299726 0.09085739072700241
0.1815473726996018 -0.11480066279939152 0.09113748144468971
0.1813811685328028 -0.11386289977271564 0.09122809149882523
0.18121743903990858 -0.11275017713348835 0.0912775988526163
0.1809417512722732 -0.11183860455510353 0.09079233718881408
0.18074254078060445 -0.11135581827213048 0.09016721548440046
0.18088049025183012 -0.11113380476630987 0.0907651494273059
0.1807561500057039 -0.11023399483286062 0.0905973263268942
0.18060099937906304 -0.10930846976784925 0.09046208833589911
0.18041839454926914 -0.1084206303941483 0.09041216555560493
0.18018444151234272 -0.10750286774769464 0.09036445561234505
0.17989455197580445 -0.10654458441438523 0.09031280951924384
0.1795574292305395 -0.1055146116562265 0.09026407542794697
0.17916325343071812 -0.1043002483516565 0.09026058855501043
0.17887063884055626 -0.10313857238085586 0.08960956082264325
0.17869142878473931 -0.10226526598414644 0.08960999523323579
0.17853409074141835 -0.10127908337014092 0.08952227323698193
0.17839962976365886 -0.10035657042604715 0.0894254554511124
0.1782520495217067 -0.09944668093515675 0.0893668866069696
0.17807637418417593 -0.09851141221459156 0.08930016170347743
0.17785881342755122 -0.09757189271551836 0.08923488261118018
0.1776006275713469 -0.09663707356772566 0.08918082275815914
0.17731861685513667 -0.09575137808081553 0.08917130331119241
0.17708772759862976 -0.09509858608080166 0.08926340383754837
0.17645122705241678 -0.0935851545293062 0.08834752980916911
0.17676192210004404 -0.09431975589402834 0.08889984073033781
0.17615628310983128 -0.09283220516760571 0.0883839138548862
0.1765332686822944 -0.09373633384012513 0.08897600236612821
0.17575896119245707 -0.09174617276632976 0.08841262998633259
0.1754097369426238 -0.09077229128914009 0.08834354073936546
0.17507481914853182 -0.08981987705785711 0.0882199070254864
0.17481081803544674 -0.0890894342109012 0.08791647994477304
0.1746427146618675 -0.08872502986048725 0.08823052723174417
0.17491708672115275 -0.08943707452499099 0.08852896012044381
0.1742800933305105 -0.08785222368724134 0.08812009416476717
0.17390606307313863 -0.08699826007387036 0.08802680009694674
0.17353739361599152 -0.08616815935084157 0.08792980174622457
0.1732479231442564 -0.08550036761233719 0.08762418756066424
0.1730494837158272 -0.08512099071706211 0.08791275650075195
0.1733426012313744 -0.08580164406134366 0.08821950830742152
0.17266357236721733 -0.08429430763715116 0.08785761568897417
0.17231845373189156 -0.08357898485689849 0.08785217409497942
0.1717083958837329 -0.08236890773528985 0.08755993934125884
0.17207173096529685 -0.08307222116458515 0.08791447075543073
0.17132139905912241 -0.08164082523128952 0.08773422562419775
0.17062284413617582 -0.08036511269871519 0.08725815478566978
0.17101867841364668 -0.08106131082959951 0.08797425566199862
0.17024508688346152 -0.07966052252110692 0.0874630887791115
0.16987900843292397 -0.07899081262529375 0.08713980699020114
0.16961762539436928 -0.07852830975286655 0.08726230604042229
0.16996812531026395 -0.07915166388039939 0.08793142726365855
0.16930222713134477 -0.07798016034949824 0.08744150708238396
0.16863889722088454 -0.07679406070404295 0.08706304448051987
0.16901727996850519 -0.07744915716734957 0.08772906452506647
0.1683218512872562 -0.07610213784622312 0.08728461309722352
0.16803180068886117 -0.0754516702186986 0.08701019412204918
0.16786704593359658 -0.07498471971889668 0.08715535142167645
0.16814980432608514 -0.07559757476598465 0.08773557152981999
0.16766413471830288 -0.07433694088714199 0.08727910573595789
0.16746010128688596 -0.07363000389737702 0.08743056667894926
0.1669839514311242 -0.07226796622943589 0.08698826344052162
0.16728710555540344 -0.07299167558050197 0.08765491582084126
0.16678737043522937 -0.07160860878310135 0.08732192683478014
0.16630516561970024 -0.0703538400976659 0.08709731085294255
0.1666190159361467 -0.07099993573613912 0.08765379526831268
0.1660889748592877 -0.06973283324081805 0.0874269218126346
0.16551236488785412 -0.06847291750695703 0.08726477022364264
0.16585932667672312 -0.0691271279544775 0.08778336472546601
0.16492082847160092 -0.06724035596937582 0.08717863890165982
0.1652851847427321 -0.06786050587055818 0.08775675657451153
0.1646841077600804 -0.06664565112714442 0.0874457559269395
0.1641676025359709 -0.06559199530202214 0.08751490808887838
0.1644785443905776 -0.06617752533063023 0.08765791616949692
0.16352067637277312 -0.06432684280657755 0.08744776721462581
0.16386551635132424 -0.0649589392179365 0.08786402814706964
0.16297760952374188 -0.06294912049789912 0.08758314129547631
0.16330774812954466 -0.06374492364155818 0.08801721421984357
0.1627353817150751 -0.0622846341265018 0.08750249426674456
0.1625462358257709 -0.06174803459430983 0.08776797759885417
0.16277910195154532 -0.06236567303226213 0.08828304365107088
0.16234317948212593 -0.06107083225521324 0.08799476697944918
0.16197909436982155 -0.059818223305091185 0.08814153156360026
0.16218907767789226 -0.06051939352024554 0.08824979450018874
0.16151861825456906 -0.05825867036028465 0.0881591167178269
0.16176989237563355 -0.05902988470133559 0.08861322042019268
0.1611496945128885 -0.056917186453384484 0.08837191437426963
0.16135496685690703 -0.05760750506321431 0.08872965839080918
0.16114719112467876 -0.056590331711794006 0.08878762229800244
0.18198963539424604 -0.11544523527591811 0.09204203271248118
0.1818647844350297 -0.11475965006015745 0.09217482996545272
0.18174093705180533 -0.11382662924905876 0.09232343448521449
0.181634181676216 -0.11278192017234243 0.09262021249403328
0.18119868479642018 -0.11188429700675642 0.09160667578354413
0.18110380566005854 -0.11092341189577996 0.09170523196174311
0.1808701068369522 -0.10997583330244629 0.0913157577677653
0.1807290532492255 -0.10922240570395877 0.09135057221599964
0.18049786115074196 -0.10834790238297806 0.09130242330962285
0.18023090243655523 -0.10745736098667244 0.09128873425098943
0.17990142803039166 -0.10652976163034666 0.09128115145268062
0.17954215079250702 -0.1055595616515345 0.0913226308496525
0.1792555808155315 -0.10480120041026283 0.09126039299505488
0.1791913219891283 -0.10466121919683151 0.09190156294865948
0.1794019231851143 -0.10530231323900598 0.09182862932399656
0.17907599962127452 -0.10416438888206174 0.09107938796092917
0.17889196248909045 -0.10325026483647587 0.09059500773813281
0.17866464974058538 -0.10200712223204957 0.09063903465278911
0.17852897480000351 -0.1009980508514749 0.09025195346840376
0.17843010204249632 -0.1002112997865472 0.0902917980107833
0.1782842989773732 -0.09931453126536242 0.09023320505869906
0.1781132825973585 -0.09842112246008693 0.09019966685380584
0.17790750504441194 -0.09751635590062736 0.09016066526472018
0.17765100240884868 -0.09662206034238532 0.09012098570723187
0.17736344437144044 -0.0957753540444779 0.09007456458392168
0.177043071723058 -0.09494696823886596 0.08993114633125363
0.17674560897254254 -0.09424553982531748 0.0895370323919396
0.17655592959794095 -0.09375689037140135 0.08975885408408973
0.17686672001287082 -0.09451131951048919 0.0901583143822598
0.17615966073566286 -0.09274288241508553 0.08958278844773383
0.17578062888990928 -0.09173408890308223 0.0894904438037371
0.17540031456997737 -0.09072894925037273 0.08933488162718052
0.17511071711614254 -0.08997040617960923 0.08898907526858293
0.1749518914670256 -0.08957313811949007 0.08927053391483962
0.1752247269380426 -0.09027472043725891 0.08957951830283514
0.17459423575596364 -0.08873410461128683 0.08917165700934966
0.17422941605820236 -0.0878760773869338 0.08909644254466251
0.173850157342808 -0.08699387616638249 0.08898633072649402
0.17355225160856041 -0.08629964411038742 0.08867475382758389
0.17336794820848903 -0.08593870377013166 0.08897146341056358
0.1736631736417165 -0.08660087509251467 0.08926015301095454
0.1729975049027596 -0.08512114596184822 0.08890366860854705
0.17260801640995163 -0.08426445481570416 0.08887860642521862
0.17228467871070366 -0.08353134450709791 0.08849328150697097
0.1720433997557402 -0.08305180811447027 0.0885903169724777
0.17236634162529368 -0.08375534296078303 0.08926591403937652
0.17170565296034726 -0.08239044102511749 0.08865954629950824
0.17137105873081837 -0.08171607321695364 0.08869354116214324
0.17074321703745604 -0.08055747498809632 0.0884293766345108
0.17112469896516885 -0.08122895529345169 0.08876798928971501
0.17034588298662212 -0.079868646092313 0.0886412198322389
0.1696674532060143 -0.07862697153065562 0.08822408934163167
0.17003438800644968 -0.07931943021754156 0.08892343667720679
0.16935355767262997 -0.07807657163471055 0.08840515424629493
0.16875679607205576 -0.07694253670410693 0.0882138119961123
0.16910304371528073 -0.0776165514404401 0.08852911008165705
0.16843473201901346 -0.07624294949235882 0.08834380388402943
0.167988424919195 -0.07510101841994306 0.08817951787066915
0.16824280760429774 -0.07576760038780186 0.08848394979842028
0.16774987994071894 -0.07431158056259783 0.08825808042273221
0.16754577700900158 -0.07362560860201303 0.08830611810823884
0.16714458635419618 -0.07242016439695381 0.08814256674045229
0.1674130024325982 -0.07313205551424205 0.08843459746651641
0.16690216839950925 -0.07163629922468756 0.0882646179562045
0.16646684557471053 -0.07044834347136483 0.08815969580518664
0.16675286484280002 -0.07110844238964056 0.08840043957736934
0.16616736877360552 -0.06972674711185534 0.08834335888877735
0.16569877406243458 -0.06859750299902313 0.08837368334808106
0.16597236219057618 -0.06922507782168669 0.08853504731046112
0.16500901877312146 -0.0671598000334252 0.08821620071245015
0.16542472463299113 -0.06791847385040657 0.0887737383296647
0.16469074184125293 -0.0665233397242749 0.0880899762979665
0.1644527761861367 -0.06604404201550583 0.08830476462501959
0.1647791473266666 -0.0666287784837641 0.08885888493436012
0.1641493518084998 -0.06543260328050951 0.08842699820995133
0.16366558140456672 -0.06449116464295657 0.08843175704864134
0.16391690599938383 -0.06499422385960886 0.08845579322771212
0.16310016858668341 -0.06317873339294673 0.08875707808060354
0.1634280867500231 -0.06391539808370203 0.08881733962674411
0.16254624088510658 -0.06162068647100609 0.08878043683193816
0.1628211400305994 -0.06243423107688504 0.08927180483064213
0.16231554894241737 -0.06091750474737604 0.0886860390384454
0.16215100965429852 -0.06036444067647445 0.08894004454976077
0.16235848945159453 -0.06102172135556343 0.08945568404379792
0.16197495287588937 -0.05966150829489984 0.08915355538257158
0.16161463425205871 -0.0583733749492385 0.08925428934080695
0.16183442313476426 -0.05908317244442049 0.08938979995755465
0.16126910400043773 -0.05700434850885587 0.08919118782297546
0.16143300737856425 -0.05760608936693739 0.08961724919077846
0.16125748633883555 -0.05672677023233452 0.08940651338499495
0.18223571834767346 -0.1157266265347842 0.0926370983039416
0.18221280565228531 -0.11534920972455011 0.0928495138731155
0.182140143874923 -0.11466385190868347 0.0931075467225841
0.18207945417564494 -0.11385305419109713 0.09336809301826131
0.18204970911947138 -0.11315291180257404 0.0936923831372035
0.1814238959045281 -0.11178528904033307 0.09244682013930033
0.18179510207282495 -0.11205420518203801 0.09356042344446185
0.1813929756537505 -0.11118957835205222 0.09270080840537055
0.1811277625392161 -0.11013282909773552 0.0924190345382664
0.18080714931743613 -0.10907457266669059 0.09210776714580003
0.18058340114065466 -0.10831673303684192 0.09218338862188453
0.18026515461816459 -0.10744971327245038 0.09218587340734652
0.17991520215553766 -0.10658560056605712 0.0922528796683958
0.17960847085025944 -0.10586900309082202 0.09213152567351396
0.17950752343423473 -0.10561483224765439 0.0926000119603874
0.17978435973067408 -0.10629507398013642 0.09269566123831029
0.17927433634668521 -0.10494813297253973 0.09276418907458336
0.17897868273787826 -0.10381745151022193 0.09149357627763068
0.1790060576752815 -0.10399073952891405 0.09243604228194613
0.1788050283012209 -0.10300661809224552 0.09154481409102262
0.1787473863600549 -0.10282037730548402 0.09257064443328747
0.17866028016689295 -0.10214262261600214 0.09165199890893562
0.1785231919078189 -0.10104731064538833 0.09131197119037274
0.17840729367961708 -0.09998020503910218 0.09101357119723393
0.17828356031248696 -0.09919735826702822 0.0910718221550523
0.1781153206220369 -0.09831993790028944 0.0910412179222934
0.17791594886565845 -0.09745171332816802 0.09104080358793691
0.1776627859221186 -0.09658163485976608 0.09101145169709197
0.1773635595160117 -0.09571688150332575 0.09094335004367551
0.17708321090029205 -0.09502176493458728 0.0906482209759783
0.17692114232795522 -0.09462194040543442 0.09093696298884041
0.1772217913644488 -0.09534011184584266 0.09126596512905302
0.17655608610231463 -0.09367305745621841 0.09077836954694858
0.1761848041041056 -0.0927096588574878 0.09066741374563216
0.17580365702213868 -0.09167343605811305 0.09059269474033863
0.17543960774496994 -0.09080570571960153 0.09012771916342047
0.1752291859932735 -0.09027817762819984 0.090194414526561
0.17557397963507312 -0.09105259594039454 0.09096459361430431
0.17493116930355682 -0.08956992139971988 0.09017090114992106
0.17457331197899903 -0.08877502004104795 0.09014411406386863
0.17418337750253143 -0.08789762123015364 0.09013200383999585
0.17385940799793817 -0.08711952945884352 0.08976945300893013
0.17364590843956962 -0.08667000407200784 0.08991061293747803
0.17393692490522403 -0.08744153030154035 0.09056539475865345
0.17333819242434859 -0.08598238286908821 0.08993942303828532
0.1729772890602217 -0.08517941496229142 0.08991433857279967
0.17266374936947051 -0.08448440234226698 0.08992972159109043
0.1721095795577813 -0.08328032935474898 0.0897084609541399
0.17244543054848563 -0.08402853896590481 0.09006943669142795
0.17168372494115017 -0.0824000830787688 0.08973272287785491
0.1713486451177139 -0.08167763790963788 0.08934361826191713
0.17109883570717008 -0.08121637013142542 0.08945261894481435
0.17142244355843142 -0.08191121997109303 0.09014023981473177
0.17073486889887252 -0.08060322677488375 0.08953949894541186
0.1703671217641546 -0.07999280281171178 0.08961584922073271
0.16971107014447126 -0.07880680387740656 0.08943298341789177
0.17010601248238844 -0.07955159259655088 0.08976843709416885
0.16931746703477626 -0.07806701825972409 0.08910086209952693
0.16905325953367525 -0.07760104973932201 0.0892457810442831
0.16938653458058472 -0.07829436305163971 0.08992044535854805
0.16871986362033395 -0.07689773537025565 0.08935377190037522
0.16843022299195104 -0.07620029646452509 0.0890300492152369
0.16825442542076477 -0.07572934681832104 0.08916448743186568
0.168514770560619 -0.07641014997835083 0.08981485020794534
0.16802564077074839 -0.0750339908094123 0.08922243050648938
0.16777495930886452 -0.07420833360903152 0.08919921370531826
0.16758097336359404 -0.07356109573550701 0.08891550112087558
0.16746403201961785 -0.07312745958637 0.08921173923471545
0.16768306774685085 -0.07376766553962903 0.08947722540439684
0.1671787738384545 -0.07224123383538622 0.0892342709929832
0.16693999056153816 -0.07151840505763274 0.08891418649278239
0.16676569313423548 -0.07101228469050336 0.08907214385795598
0.16702136490175087 -0.07166663833929572 0.08966711504878301
0.16646732760929736 -0.07028168250612363 0.0892341363564127
0.1661727049243916 -0.0696069445632041 0.08900343587082282
0.16599177694676231 -0.06913373329742696 0.08920683288749609
0.16627261010425348 -0.06973368276436365 0.08973837766123789
0.16575002498497063 -0.06854272300149279 0.0893591602468415
0.16519767405627528 -0.06738819302845771 0.0894119199994537
0.16552184573265977 -0.0680434920273287 0.0895535350149345
0.16445217481844987 -0.06593905086734489 0.08931038485074926
0.16487762832201672 -0.06673018877088235 0.0898539504993092
0.16399413883582664 -0.06508486168110897 0.08912593258852369
0.16391870668173622 -0.06484795807901153 0.08987243202190114
0.1642278260625294 -0.06544807065047725 0.0900853276077993
0.16367681835656678 -0.06440748993731606 0.08933030386159015
0.1633755496948193 -0.06376416948735873 0.08956417954103982
0.16368279222003165 -0.06433097701417988 0.09018051771844098
0.1630808126825322 -0.06308288761692263 0.08977518798841065
0.1626261512442802 -0.0618425480959098 0.08995436499760974
0.16287844006324803 -0.06253977418492496 0.09004190711279712
0.16215166982071444 -0.060232880225179045 0.08994465988036511
0.1624018426370845 -0.06108290106186512 0.0904477556217864
0.16197070016468149 -0.05948388457928394 0.08983783380185821
0.16180940242167777 -0.0589023486865297 0.09005706149489509
0.16201195645482916 -0.05957479930941137 0.09060359362156337
0.1616155062859609 -0.05812919399596085 0.09020128389184531
0.16139776700215958 -0.057194754565731226 0.0899486373489118
0.1615080942978371 -0.05758458559923076 0.0902140111095915
0.18232086028730918 -0.1150313792773261 0.0934736224633432
0.18233230488705943 -0.11445809674442803 0.09389295958844544
0.18233670305157465 -0.11380210535861941 0.0942596934709333
0.18222515632076564 -0.11300354928785099 0.09447731925043044
0.1820902860833011 -0.11223326967250885 0.09466960947126898
0.18151134217053044 -0.11098019415289338 0.09333857798188962
0.1817918404984783 -0.11112625130520079 0.0944302567385285
0.18139356761362344 -0.11032483562869798 0.09351596157709234
0.1810184824659822 -0.10925872115269389 0.09316973701823235
0.1806302454772047 -0.10822192527598243 0.09290846304437918
0.18034946819022607 -0.10753312684699189 0.09310144649697427
0.18004312047962998 -0.10684117728936987 0.09302500472175039
0.1799429620564217 -0.10654854128391866 0.09347132035531729
0.1802501629580834 -0.10725863571277267 0.09358165445051388
0.17958985202445696 -0.10568934768415633 0.09351856910482347
0.17926557903641838 -0.10480919655160231 0.09347344904941186
0.17896036147010105 -0.10386132743410496 0.09342745545223492
0.17875309085190694 -0.10303372979260986 0.0935472540768603
0.17859029859195222 -0.1018031602435769 0.0922207636654647
0.17854492865901034 -0.10187767332897339 0.09324998712617821
0.17849589548381714 -0.10111339717770952 0.09234875146096594
0.17837472139345564 -0.10005016286755457 0.09202005669825929
0.178246298380569 -0.09900386874712089 0.09175409082032601
0.17809257026238884 -0.09825242405561639 0.09186436698775859
0.1778857872082579 -0.0973858516442972 0.09187866406073504
0.17764505122627244 -0.09653679804692959 0.09188937780602738
0.17742619707799923 -0.09585782038051388 0.09170683332083285
0.17726800033022239 -0.09550362058605541 0.09204018207141847
0.17752616241723213 -0.09620605544072684 0.09228511832771676
0.17692103773864917 -0.09458773241311162 0.09191876562873565
0.17658299733316382 -0.09366608244322647 0.0918133323621172
0.17626291867603475 -0.09275009155968594 0.09175082142503078
0.17597537389504955 -0.091926963343184 0.09181137342565288
0.1752928134201886 -0.09038893856286793 0.09109062334214556
0.17570232746188305 -0.09122252503592848 0.09196121201482557
0.17496421954725208 -0.08965335648827842 0.09114545917808677
0.17458432287026898 -0.08888080416475276 0.09116348687320651
0.1742455400438474 -0.08820907013457664 0.09121204405958115
0.1736971569720209 -0.08697103486206664 0.09099176557741966
0.1740195520555846 -0.08776592549620034 0.09136192654871214
0.1733063603904929 -0.08606138942694663 0.09095378714549542
0.17293577824267756 -0.08521255572720086 0.09089260961920438
0.17264740378173343 -0.08453623278485417 0.09060178675398871
0.17244778217954662 -0.08416498505483284 0.09090434623722474
0.1727445117154837 -0.08485270865411268 0.09122167600463311
0.17206431815572548 -0.08331875377629426 0.09080559100957308
0.17173387470839685 -0.08262876439758837 0.09082025037316667
0.17114312184422736 -0.08145451383332311 0.09057811148620845
0.1715016180090396 -0.08218608513259287 0.0909611244494349
0.17067029213023802 -0.08064591371468169 0.09055938168723196
0.1703329438887459 -0.08002364051148012 0.09029166980985637
0.1700976379749728 -0.07967091166748899 0.09060782505129164
0.17043381017234382 -0.08030610898870208 0.09090447691638816
0.16971729192509527 -0.07898224124971351 0.09059293214662545
0.16910232640553866 -0.07783449156020983 0.09039490063621003
0.1694530412128034 -0.0785372815074622 0.0907519416586051
0.16876885577177853 -0.07712276257146447 0.09046093098378016
0.1683134958213072 -0.07591997558304195 0.09028182539290644
0.16857177658992611 -0.07666544387854257 0.09062849843267085
0.16802485053723998 -0.07499281854321696 0.09031597737945027
0.167827749101589 -0.07423332759922537 0.08997166726986523
0.16770604585065516 -0.07376516068853863 0.09014537015845137
0.16791223980804645 -0.07447913634520124 0.09077875553171584
0.16748553156818174 -0.07307107397331464 0.09023633112038347
0.1672594522242757 -0.07234846337618206 0.09029791960262232
0.16682750349353423 -0.07113390187984901 0.09013682144221215
0.16708242064556986 -0.0718364104396952 0.09042415185792367
0.166552650250328 -0.07039356240744632 0.09029191856938984
0.16603827746524713 -0.06917562373410027 0.09028063602987495
0.16635588203865453 -0.06989403064618065 0.09048426892067954
0.16571607736750016 -0.06845277549161534 0.09004463676820437
0.16548787495872558 -0.06794721722425541 0.09024561202072719
0.16577510184582162 -0.06857014179737606 0.09085001619372464
0.1652096039198645 -0.06734368071512453 0.09041188839596277
0.16464492510460996 -0.06622513880899042 0.09053513800078565
0.16497195616676832 -0.06686427047302826 0.0906391835349041
0.1640064044174565 -0.06495913297963415 0.09065967789466897
0.16434227709964017 -0.06562118059752976 0.09103517852606591
0.1633479062940178 -0.06362460917742857 0.09054700520846164
0.163718864360055 -0.06438708449906307 0.0911088487677168
0.16305991483672502 -0.06293870878512228 0.0904565043906872
0.16285290273689781 -0.062419607895217326 0.09070382002153696
0.16313355708310787 -0.06305713044115388 0.09116525364461514
0.16262566948758414 -0.06176024045124062 0.09093321877439657
0.16226199132699973 -0.06045298714274251 0.09111217708248952
0.16248999949641607 -0.06119172818556226 0.09121253981479473
0.16182359764261361 -0.05873101586035894 0.09107527430156044
0.16207013278324467 -0.05965111735074123 0.09155546723320951
0.16162489684827183 -0.057795462243056456 0.09090298288021498
0.16168568076171375 -0.0577709890846237 0.0918564379308557
0.16178246809885768 -0.05817514153373368 0.0919324936023524
0.18245245901571053 -0.11411696744683496 0.0945480894119222
0.18243193938442565 -0.11350769831254867 0.09502043306422928
0.18233556658861272 -0.11280435398007434 0.09532115374783492
0.1822032800780718 -0.11198358013826808 0.09541213473946573
0.18202562692626395 -0.11118059392044095 0.095520919443465
0.18145494305007542 -0.11004093035148867 0.09411003792446845
0.18162891131882042 -0.11005465082004177 0.0951176554036679
0.18125817539946446 -0.1093863726467758 0.09419017417923342
0.18083653995022161 -0.10852364566295736 0.09378778243226985
0.18053830025779075 -0.10785037052068856 0.0938860033332327
0.1804852459935259 -0.10757189450458488 0.09441795936977383
0.18085401789780325 -0.10837022028002379 0.09447092757739105
0.1800560355385413 -0.10659359886902728 0.09446003907464041
0.17965871726461724 -0.10564781414746216 0.09442214839034317
0.1792904495487787 -0.10472231147785312 0.09436409763444022
0.17896037184334423 -0.10379020557736111 0.0943171533747837
0.1787040810358933 -0.10282943244635323 0.09427356621241022
0.1784856072293134 -0.10193848721625183 0.09431988416125509
0.17840570242948392 -0.10077532497169053 0.09291105924581917
0.17830155905697456 -0.10074010133459618 0.09390465869242456
0.17830509580530676 -0.10008410381421487 0.09299732418811855
0.17821104359170153 -0.09915271642459435 0.09262321209959049
0.17802768105781094 -0.09814402177618461 0.09266697903100143
0.1778312207858526 -0.09731425944392617 0.0926276517956824
0.17767055689839928 -0.09672808576139458 0.09262612476113344
0.1775367238798707 -0.0964122045073149 0.09303489267708157
0.17775218509441817 -0.0971546880922335 0.093156413957471
0.17723817487114774 -0.09548520824279386 0.09298584937238007
0.17694429085722013 -0.09456723553003628 0.09290206950898619
0.17664259781435243 -0.09367798875717806 0.0928253296702367
0.17635795935003826 -0.09282499802067593 0.09278919002900504
0.17609101151872475 -0.09205183939629996 0.09282466090387972
0.17539866195447984 -0.09053031845172631 0.09211435485263748
0.1758303938882628 -0.09138292794843726 0.09296004508387298
0.17502080693565863 -0.08975587961860734 0.09219347335712076
0.17459490423066412 -0.08893828337456108 0.09216280546990509
0.17424689986604244 -0.08828453869050798 0.0918751781774141
0.1740517106956819 -0.0878759854440319 0.0921553923962927
0.17439238569909654 -0.08857743782700486 0.09247706249891807
0.17364051409550257 -0.08697129600812566 0.09204172057309097
0.17323776274757458 -0.0860873358176029 0.09196212211103594
0.17294143101973256 -0.08537491052521312 0.09168132911479714
0.17276641020965466 -0.08504050046666917 0.09202979520942525
0.1730527123127852 -0.08574449494985288 0.09232280217002461
0.17239177941402178 -0.08418640315783485 0.09190818241319235
0.17201820160162168 -0.08334656230699042 0.09179897468906777
0.1717143218465694 -0.08268243967100596 0.09149422435845296
0.1714758966885722 -0.08231116580730928 0.09178002015189418
0.17181549537858914 -0.08299060975681934 0.09211301653566548
0.17101034387476208 -0.08144219546126777 0.09163831165347018
0.17066524248708498 -0.08077719379898987 0.09135941147229439
0.1703958150682843 -0.08045344151250056 0.09169260645197867
0.17075074300500986 -0.08109679780180276 0.0919847375500228
0.16994563302527388 -0.07965306202907478 0.09156337162517592
0.16964753322183176 -0.0790036420803485 0.09126358752163058
0.16937541540867002 -0.07863261009762963 0.09155450887253348
0.16968376871291402 -0.07929061452110643 0.09186063478213918
0.16896953806444961 -0.07781282165847561 0.09145243333380602
0.16872347033396898 -0.07715691277004223 0.09116180879504772
0.16855273312794075 -0.07676359896307094 0.09147258107522908
0.16878181494552874 -0.07744397733306266 0.09179149353849615
0.16828118090770425 -0.0759092509821238 0.09139778665039376
0.1681016005745707 -0.07520360317691299 0.09143325556096452
0.16777725149130185 -0.07397536822179863 0.09126967804383114
0.16799825476028343 -0.0747409532439519 0.09160302112541197
0.1674952404138664 -0.07303678452025521 0.09132909949659394
0.16724194453213487 -0.07228966438577863 0.09097481031919417
0.1670610893344272 -0.0717807112417722 0.09111510226494411
0.1673097135024526 -0.07247992811114741 0.0917579579402482
0.16680480445913565 -0.07103522358918772 0.09124538770457633
0.16653252642042626 -0.07033627768095975 0.09098181907581947
0.16633287476104475 -0.06987170814172586 0.09118993524473948
0.16660180334016542 -0.07052486463784828 0.09173940531802473
0.16608643324966657 -0.06928053097303055 0.09146459276900719
0.16548490936720822 -0.06790897414605722 0.0912482231133381
0.1658362437656038 -0.06869511656273117 0.09184155984427682
0.16517388765986465 -0.06725514731201018 0.0910909735068287
0.16493643776431896 -0.06678460933846012 0.09131369708509485
0.165228521970279 -0.06740184208827306 0.09185257508858953
0.16464721066413593 -0.06621794936071752 0.09150785999829762
0.16409184587919623 -0.06513380037283152 0.09165635184764338
0.1643983109718414 -0.06576850054437881 0.09175211937604075
0.16342788407542225 -0.06378373898836436 0.09157616598972292
0.1637455905384382 -0.06447605122381209 0.09201275479133313
0.16286246236155294 -0.06237305061945655 0.09162983460913982
0.16318668359639266 -0.063191947073579 0.09205489234868748
0.1626418138827718 -0.061636549548755484 0.09160045099323258
0.16249346649854987 -0.06110199109840766 0.09186937680317918
0.16270575994705125 -0.061814723502249765 0.09227300597202741
0.16226679178133024 -0.06036556020070331 0.09207049910459285
0.16200443609638238 -0.059071836326451285 0.09222781103461625
0.16212208843789522 -0.05976126557961767 0.0921798600271366
0.16177897034969865 -0.05797375106551254 0.09272298764997798
0.16192264807651474 -0.05844237420394387 0.09271520945134454
0.1824282757506305 -0.11297534854072563 0.09586337860204423
0.18237326731022838 -0.11247733464264116 0.09596930643242935
0.18226110107624086 -0.1117497270040779 0.0961988553525121
0.18203527516414952 -0.11082461831541461 0.09620931002432097
0.18177680741646102 -0.10997688269791356 0.09615140845244362
0.18118614031008212 -0.10904064484983943 0.09464246399979302
0.18122014291552468 -0.10883541171480751 0.09549547934353425
0.18068067289615486 -0.1075738561499124 0.09550477286897778
0.1801899072447556 -0.10655180205713115 0.09544659693190409
0.17975909725738892 -0.10557718661541134 0.09535759173429505
0.17933640517699986 -0.10462947178434798 0.09526247454616371
0.17895586956748377 -0.10367011955204927 0.09517581147338952
0.17864244377454958 -0.102698179358951 0.09514290548386371
0.17835092002112063 -0.10160757331182355 0.09513501350819716
0.17810546489973236 -0.10041623896812674 0.09497804010263129
0.17820062066610234 -0.09967524275928173 0.0934482958974567
0.17807805240849534 -0.09957069425209511 0.0942097145756249
0.17806528484116765 -0.09882563963205523 0.09343892033305762
0.1779172983947221 -0.09851421655089451 0.09419812490910595
0.17790927252828714 -0.0978937131982896 0.09337170343922924
0.17773155700726156 -0.09738939133116666 0.09396204363740027
0.17747683383026278 -0.0963734030012832 0.0939885137382525
0.17722358693981768 -0.09542725006803351 0.09392794142252628
0.17696871520917967 -0.09453335026291057 0.09385337774342574
0.17670741996557082 -0.09367695853807122 0.09379101295938655
0.1764485077724254 -0.09285191068633547 0.09373997367675772
0.1761981775362394 -0.09212492478512119 0.09371092571178943
0.17553951708259186 -0.0907667230048887 0.09334315514533457
0.17597987699708553 -0.09160402677459605 0.0937923969117923
0.17500941274173362 -0.08976602692797306 0.09324640942428511
0.17463904037572184 -0.08906613901759941 0.09293341611250606
0.17442102640401902 -0.08868103683335113 0.09322665431590997
0.17476714887304998 -0.08934364286583393 0.09353065996831039
0.17398969642443543 -0.08784063543598175 0.0931236275810345
0.17358929611472823 -0.08698560586587253 0.09305697223956852
0.17327701897656073 -0.08628572750207296 0.09279253519761531
0.1731004336813241 -0.08594911292497241 0.09314232750305906
0.17341116912590537 -0.08665358825864108 0.09342986268044326
0.17270964988400772 -0.08507934882960154 0.0930242722604457
0.1723074253801282 -0.08421440261126871 0.0928911018014064
0.17201041951377435 -0.08350653804561416 0.09258169973938352
0.17177497832308328 -0.08317804260874603 0.09291840286026465
0.17209472245124582 -0.08387709428807028 0.09322925875614727
0.17130195492847278 -0.08231587847854302 0.09276834186499298
0.17095509899957656 -0.08161075892339233 0.09244995100144889
0.17066519371802427 -0.08127396584800482 0.09277354034892606
0.17102568890144737 -0.08197104063196818 0.093092583407928
0.17017920309492457 -0.08043933583603993 0.09262135491074223
0.16986091481466614 -0.07978066671144124 0.09232404725348596
0.16959825838392664 -0.07943152042666646 0.09261406702955588
0.1699068864234827 -0.0801036254827712 0.09292773464814358
0.16918094079623602 -0.07859531381028523 0.0924977397246714
0.16892098154321608 -0.07793552419286923 0.09224722437439233
0.16874501815114232 -0.07758127519647876 0.09257159456414288
0.16895921975095066 -0.07826082368059359 0.09286279100880626
0.16848486745464747 -0.07671854767712392 0.09245970059361333
0.16827248034104772 -0.07589094239966748 0.09240666907787175
0.16812229644904797 -0.07523370644801824 0.09212902647752305
0.16802431823659233 -0.07483452141677252 0.09246174924795139
0.16819724602885636 -0.07552035751172163 0.09276504471752077
0.16778523363693615 -0.07394541598877345 0.092409504687168
0.167562887137527 -0.07318809298907132 0.09243416450852608
0.1671365900014505 -0.07193920950005574 0.09221567907786403
0.16739402773402437 -0.0726679713271482 0.09254611325940026
0.16687386856676184 -0.07118904574949154 0.09233040946568105
0.16641436866257334 -0.07004511936209847 0.09224133777774005
0.1666946651848048 -0.07070001730006903 0.09249056081657726
0.16612413142968668 -0.06936767092012415 0.09241409916886684
0.1655975883367861 -0.06819275004235222 0.09245343302124132
0.16591076424177795 -0.0688969625330552 0.09263840079309046
0.16491358679626814 -0.06677212891041073 0.09224089142949979
0.16527331115904126 -0.06750204380263819 0.09276417816737358
0.16458702505367367 -0.0661605233412172 0.09214721292806269
0.16434286697079095 -0.06571294854999837 0.09239348053742502
0.16465645215387034 -0.06633629633802794 0.0928030765102355
0.1640097631297788 -0.06506348584517568 0.09256248985530126
0.16348610848070444 -0.06393757053233302 0.09253867524852571
0.16374530029123074 -0.0645461258344163 0.09260210761225503
0.16297921721099248 -0.06265281078842184 0.09267518580753184
0.1632417336861429 -0.0633325202414211 0.09269674086565938
0.16251629015731975 -0.06118158028640751 0.09288933850282449
0.16276003585302368 -0.06197821517524828 0.09288991727192655
0.1622105169772807 -0.0599708433393806 0.09283894308355697
0.16223780205343233 -0.0597871752675099 0.09374992645245216
0.1623658959516596 -0.0605569657619235 0.09355479144828964
0.1620919229036326 -0.05907081942920272 0.093173941752595
0.16193294435450126 -0.05843159170115513 0.09341689686771822
0.1620998697759747 -0.059060525617590696 0.09396403329085931
0.1618332198936849 -0.05811655709407526 0.09352672133673724
0.18236220921608526 -0.11228479625876031 0.09645259666001542
0.18218642788444867 -0.11124668972317024 0.09700926644437925
0.18201434659541857 -0.11047018200660293 0.09686353537338295
0.18171634719730498 -0.10961013636335282 0.0968448285910822
0.18125897718146514 -0.10849545303443306 0.09663636666807328
0.1807941757570933 -0.1074405727582577 0.09649774169982588
0.18033405446437634 -0.10645854771880656 0.09640593513244176
0.179852218796239 -0.10548324762698574 0.09628189289394146
0.17938804686342197 -0.1045279788682498 0.09615445595959363
0.17895727182390625 -0.10357344330714438 0.09605329176240955
0.1785900437153843 -0.10261028532063084 0.09603398038329196
0.17831952441619042 -0.10183318494617563 0.09593569925010595
0.17824299091330464 -0.10168483883842852 0.09648661150939399
0.17842286500804613 -0.10228244664244586 0.09644769713198964
0.17815123293623825 -0.10108232662279082 0.095763398282254
0.1780285002542209 -0.10077511703188212 0.09651101422482294
0.17799191729558234 -0.10027386621752993 0.0957006214879491
0.17789329437803905 -0.099276212343798 0.09525316668770324
0.17778134989104488 -0.09813178760453467 0.0948576092656936
0.17762125089988048 -0.09723331975494133 0.09495139687464466
0.17741863212518297 -0.09622876385848812 0.09490571865132179
0.17721756234712682 -0.09531906265993707 0.0948071522996201
0.17700852406216527 -0.0944801178642541 0.09476400584785986
0.17676632084662344 -0.09364540734613769 0.0947085347613419
0.17650074052637077 -0.09279704950846068 0.09463083351690184
0.17622534065928283 -0.09210707963017814 0.0943336324341015
0.17600963539093561 -0.09166406562865682 0.094607252398381
0.17636660905564538 -0.09238761488053693 0.09493072246186272
0.17546978367861307 -0.09065974547713422 0.09449818475394665
0.17502705480031247 -0.08983569045454738 0.09406923936563635
0.17474677873707145 -0.08934733426719643 0.09417352289417481
0.17513783154772614 -0.09007626560527056 0.09491707395884565
0.17436503914700227 -0.08865394073459527 0.09416116644147413
0.17393233140500428 -0.08785643062780676 0.09411519864678965
0.17361845907408027 -0.08718213744948881 0.09386830044837194
0.17342373987765375 -0.08684124726637295 0.09421576483281117
0.1737297166752962 -0.0875280610030819 0.09447175154103879
0.17301349259786894 -0.08598711638572992 0.09411742965923939
0.17261761172739234 -0.08512430148427017 0.0940166911370333
0.17230840596607447 -0.08442088032070427 0.09372026862233147
0.17207377319487077 -0.08409464113726911 0.09405528470404265
0.17240605982318516 -0.08480017092781714 0.09437169896011424
0.17159987748019892 -0.08321764976513146 0.09389835348920177
0.17124410935449202 -0.08250817218582303 0.09357838576174284
0.17092534862809466 -0.08214665425291945 0.09386939313322298
0.17131312704054924 -0.08286930647894493 0.09421198639615885
0.17039149071073031 -0.08122564055507353 0.09365463445994103
0.1700820593886298 -0.08057863131223333 0.09334355673338711
0.1697962557160902 -0.08028450104621294 0.09368381615025811
0.17010810707645554 -0.0808268222766883 0.09377419011950369
0.1693724137322453 -0.07936259611200708 0.09338557529713423
0.16910061277187258 -0.07876570186505773 0.09327720827626247
0.16890064433585172 -0.07843985131024557 0.09366266001147873
0.1691507482672711 -0.0791907466153617 0.09391234454481565
0.1686379157614472 -0.07752963611292461 0.09349383573123485
0.168433620351719 -0.07668572524691873 0.09342132325670054
0.16830996396827738 -0.07601504669005585 0.09321130780206772
0.16824204213708502 -0.07566309394513497 0.09358641720568023
0.16837696408068512 -0.07635275252136552 0.09382869003042661
0.16803885058968593 -0.07478066570873897 0.0935199706680656
0.16782466760819062 -0.07387603328679361 0.0934963013596993
0.16758507339694306 -0.07312894368380163 0.09312236582399908
0.16742189757138046 -0.07260883390027538 0.09324175832620497
0.1676906539886537 -0.07332916404906574 0.09390667929673341
0.16714666949427331 -0.07183441194941752 0.09331916988646471
0.16687628985390365 -0.07112583274777885 0.09300359479617513
0.16667737690115766 -0.07065276740740449 0.09314666429496837
0.16693237831777583 -0.07129549145559912 0.0937284741288033
0.16637417253217074 -0.06997552364751071 0.09324544103578711
0.1661026953998465 -0.06933866412372801 0.09307373682740236
0.16589962138852873 -0.06889607127377437 0.09343084570539409
0.16619905226117063 -0.06957240039350092 0.0936460196854469
0.16552422642341727 -0.06807453237857355 0.0933910419856797
0.1650095391660612 -0.06703729761793165 0.09323729151412438
0.16528893323955693 -0.06757456070467692 0.09334662140246212
0.16434784037000216 -0.06582398304076977 0.09338478307597711
0.16471438617554263 -0.06651981757713954 0.09338492220984651
0.16378591404703371 -0.06468965598511069 0.09327057137869377
0.16367981875581128 -0.06455928734273168 0.09421238742562597
0.16404762210902665 -0.06532241661930227 0.09404634293057132
0.16331484926205997 -0.06355651205600912 0.09348085249299122
0.16311279579381446 -0.06314787263870551 0.09424598533134974
0.1633738019637577 -0.06384504743676057 0.09450237556757254
0.16286276707228267 -0.06230153766040868 0.0936511481291683
0.16273107400286163 -0.06197108805273401 0.09441610946949094
0.1629351863798979 -0.06263674017660807 0.09460335094036143
0.1625518126483343 -0.061329522792951 0.09392675814562709
0.16239113109514425 -0.06054887421986066 0.09431411088535101
0.1625567435061122 -0.06137375055944062 0.09473944428236765
0.16225530643553496 -0.0597176050221017 0.09452279203069672
0.1619811624783841 -0.058682729643950875 0.09418884795194535
0.1621095466310937 -0.05914416062428051 0.0944970489787618
0.18211188461746525 -0.11097941387416754 0.09781691617834228
0.1819911610220495 -0.11042531148894505 0.0977092006063667
0.18167343893251367 -0.10925450662015242 0.09785229833918324
0.1812738893035223 -0.10819926108034598 0.09741857400677241
0.18093333129597924 -0.10735140017961384 0.09744790175664243
0.18048961990511164 -0.10636226714294043 0.09735776168125598
0.17995496489274054 -0.10538024473519816 0.09719148959114353
0.17945052334751155 -0.10443256560609183 0.09702305513335913
