# .PCD v.7 - Point Cloud Data file format
VERSION .7
FIELDS x y z
SIZE 4 4 4
TYPE f f f
COUNT 1 1 1
WIDTH 791
HEIGHT 1
VIEWPOINT 0 0 0 1 0 0 0
POINTS 791
DATA ascii
0.17634474574856857 -0.09127930214330529 0.091215348569664
0.176142579312943 -0.09074414199083897 0.0912873448112698
0.17644022006195187 -0.09153368422358432 0.09204689907904753
0.17586106383138733 -0.09002143820312676 0.09126848542623159
0.17552083779710762 -0.08920837408293147 0.09124818577300174
0.1751468898358329 -0.08831349510390246 0.09124308831788999
0.17485111127168673 -0.08751778894125767 0.09088777065608852
0.17464027796026646 -0.08705967726421711 0.09103255021549558
0.17489304305033124 -0.08784786551675308 0.09167777076953885
0.17434411729830349 -0.08635807373490008 0.09106562501113731
0.17400013463397074 -0.08553799366097219 0.09104654021777459
0.17369932965290186 -0.08482834126258612 0.09106809543846722
0.17317328929375145 -0.08359451866587055 0.09085630867468836
0.17348338005037892 -0.08436311961960252 0.09121121675585002
0.17275911418048537 -0.08268789691570609 0.09088487161890062
0.17244860781123872 -0.08194198144434989 0.09050413324050062
0.17219874863937643 -0.08146731588063402 0.09061486539703803
0.17248606034150946 -0.08218533924757301 0.09129267163165591
0.1718424030284403 -0.08083107129662423 0.09070174853225814
0.17148277397689862 -0.08019520810940864 0.09077902776779173
0.17083481264388098 -0.0789724592556816 0.09060430054057408
0.17121673443064198 -0.07974027632378342 0.09093275435553239
0.17045868953156054 -0.07820454717054678 0.09027775650803779
0.1701871593876456 -0.0777218698206642 0.09042298068997472
0.17048824755382247 -0.07844405328243816 0.09108822439654572
0.16984160515946567 -0.07699592850407774 0.09053288567924991
0.1695635124478537 -0.07627187542395283 0.0902139593769425
0.16937529561804232 -0.07578686336121525 0.09034954890907013
0.16960629450086168 -0.0764983637177128 0.09099488851851709
0.16913477849523506 -0.07507055721398431 0.0904104964457435
0.1688766035164241 -0.07422126217117307 0.09039076613159663
0.16868859750596468 -0.07355252796114393 0.09010901195655915
0.1685489846797299 -0.07311277757844958 0.09040481998418282
0.16876000543988956 -0.07377391665739544 0.09067029023111804
0.16825155529455246 -0.07220731917912375 0.09042439783104245
0.16801822908802286 -0.07146018449472331 0.09010133105691916
0.16782780653696638 -0.07094337683603684 0.09025506402366984
0.1680604502959335 -0.07162795353623352 0.09085441511271368
0.1675136219245694 -0.07019781067193638 0.0904104799724491
0.16722476648320903 -0.0695005597528132 0.09017092580773925
0.16702142911886586 -0.06902061610193062 0.09036918716482278
0.16728145006710762 -0.06964885752081638 0.09090943838430908
0.16675583352726045 -0.06841949374041452 0.09051636187303481
0.16617811474011082 -0.06723751627369413 0.09055035781838884
0.16650774407048263 -0.06791296441365277 0.09070514004818833
0.16540201126809612 -0.06575592771762716 0.09042621624516639
0.1658188999760501 -0.06657777857554587 0.09098388879332839
0.1649314120800634 -0.06487944578273068 0.09022764513077858
0.16480701705336795 -0.06466074022617574 0.09096903629064296
0.1651225824428903 -0.06527743173679228 0.09119282154550992
0.1645819725611885 -0.06419579587617869 0.09041717360442013
0.16425031934044354 -0.06354806019355859 0.09063467084103627
0.16453928981892038 -0.06414336262455043 0.09126331056395069
0.16392486072619364 -0.06286382869985342 0.0908258529950632
0.1634167941844159 -0.0616155795793294 0.0909704690350472
0.16369039636476415 -0.06232255156452763 0.09107588548910987
0.16287539519208227 -0.05999871607505307 0.09092043113124608
0.16313914698994517 -0.06086704724751892 0.09144112991104746
0.16266214544008478 -0.059246817885656076 0.09079741004376532
0.16246360736088108 -0.058674708231253286 0.09100514981162025
0.1626734230522664 -0.059362702154375266 0.09156130817352615
0.16222961253316523 -0.05791222966002513 0.09113129461250001
0.1619744470596793 -0.05698080714823228 0.0908598009427147
0.16209399363830718 -0.05737484342814752 0.09113142432261429
0.18255636733182687 -0.11565970340387545 0.09416522964092641
0.18256688790494793 -0.11508616147229475 0.09459437231894202
0.18257152444462357 -0.11443005914168074 0.09497096094012378
0.1824727037751124 -0.11363200207945312 0.09520092338108026
0.18235177510080658 -0.11286244963527974 0.09540625037556692
0.18185596226252415 -0.1116158457837609 0.09410443151797868
0.18209035019982994 -0.111757181761406 0.09518700988491868
0.1817489390793648 -0.11095893076856804 0.09429114784459676
0.18141462407943715 -0.1098918620528814 0.09396365457776838
0.1810642384822857 -0.10885154915677625 0.09371809421093236
0.18079683982410175 -0.10815808018146826 0.09392146376515156
0.18051180643018536 -0.1074616416635353 0.09385551665291059
0.18040484968322962 -0.10716546134782375 0.09430456557480645
0.1806888758857844 -0.10788119408290313 0.09440476138660057
0.18007354140347856 -0.10629957094833335 0.09436565968271823
0.17977467617901705 -0.10541261980173507 0.09433518852331209
0.17949456726941868 -0.10445739897746682 0.09430745523747407
0.17929953119767747 -0.10362477841691298 0.09444264399351399
0.17919980732614538 -0.1023912521322629 0.09314526324405142
0.17912080810555156 -0.10246416437982293 0.09416940144566877
0.17911299649840476 -0.10169815841910179 0.09328655183508151
0.17902145652365203 -0.1006288638683974 0.09297961548313793
0.17892176271651455 -0.09957504669247957 0.09273303515535813
0.1787803575051944 -0.09881687959314767 0.09285512350814863
0.1785918118755573 -0.09794228478439918 0.09288187184673947
0.17836919034074789 -0.09708536397124326 0.09290409610616397
0.17817248493673993 -0.09639799241246184 0.09272902947716187
0.17801047792908364 -0.09603882735662708 0.0930655353973066
0.17824470808244625 -0.0967508730068511 0.09330157492738742
0.1776855228711012 -0.09511214455144121 0.09295729683428786
0.17736904238000065 -0.09417970582227161 0.09286378998932715
0.1770654809880047 -0.09325425141592832 0.09281332263309322
0.17678806261125032 -0.09242383483599205 0.09288393283093085
0.17616801616191638 -0.09085896839655125 0.09217864736336934
0.17652188806949656 -0.09171036988850886 0.09303948773828047
0.1758507239826711 -0.0901091353275878 0.092239158484048
0.17548749423200083 -0.08931886216759419 0.09226273449933863
0.17516263282737546 -0.0886323436204567 0.0923156287346696
0.17464384788179113 -0.08736905288440212 0.09210542165388459
0.1749394098686894 -0.08817944379926958 0.09246794131643933
0.1742685911025538 -0.08644341139462622 0.092074675265396
0.17391747494347073 -0.08557832487678597 0.09201979597549668
0.17365570685761547 -0.08488513934462878 0.09173529080380656
0.17344908225282063 -0.0845053187693855 0.09203764114035135
0.17372144001202883 -0.08521217238812592 0.09234859781870555
0.17307997521919974 -0.08363622006316038 0.09194490193164143
0.17275941374776702 -0.08292534044911716 0.09196219350729014
0.17219098073906108 -0.0817159063535655 0.0917280020314818
0.1725257371640743 -0.08246955786815217 0.09210379475254955
0.17173433183458842 -0.08087577918337231 0.0917110264563046
0.17141833386656627 -0.08022907944149904 0.0914476131310884
0.17116456255532073 -0.0798674644838467 0.09176250380446113
0.17148600164467265 -0.08052348470775333 0.09205290880895324
0.1707820471045428 -0.07915864312114711 0.09175101790955871
0.1701775240002917 -0.07797072426750212 0.09155962553294082
0.17050983519477297 -0.07870085394586081 0.09190967349745784
0.16983458339066 -0.07723680523802899 0.09163175043941155
0.16937849101474106 -0.07599682089041127 0.09146057669832972
0.16962515558513608 -0.0767686239929937 0.09180207884458619
0.16907881744638906 -0.07504178120957644 0.09149985633464194
0.16888561596506105 -0.07425830164892605 0.091161857794819
0.16874660266951572 -0.07378132094279868 0.09133527231878637
0.16893158244688236 -0.07452025270575012 0.09196289844497282
0.1685150441182566 -0.07307310171019091 0.09142483757657062
0.16827746614687805 -0.07233474428614273 0.0914854452867263
0.16783762894258716 -0.07108944686744059 0.09131896083177501
0.16808900679843708 -0.07181368494910734 0.09161009157612611
0.167543455346217 -0.07033398754682205 0.09146801980815386
0.16700942311535671 -0.06908892985621985 0.09144476819743681
0.16732844835047758 -0.06982723491824892 0.09165599844472311
0.16668589535310344 -0.06834269539352515 0.09120219102745031
0.1664366743714923 -0.06782955273763216 0.09139408731246396
0.16670604275931883 -0.06848102585037591 0.0920038459131085
0.16613508967948032 -0.06721720276037339 0.09155001179224408
0.16553692633830286 -0.0660807552699896 0.09165401252381203
0.1658750588150573 -0.06673451424519007 0.09176934653884206
0.1648571772440667 -0.06479513883120869 0.09175357270868655
0.16519313884387415 -0.06547953486323235 0.09214016471596125
0.16416703762003412 -0.06343654948336516 0.09160997825365554
0.16453290653858815 -0.06422515376994192 0.09218651446738911
0.1638615858977603 -0.0627393995343423 0.09150023479483356
0.16362598717440294 -0.0622220119039072 0.09173243305627653
0.16390127481680714 -0.06287985729291863 0.09220911777906075
0.16336491853284626 -0.061564529838807225 0.09194208875582358
0.16293797533983906 -0.06025837623340462 0.0920860774905644
0.1631899762271056 -0.06100294334526159 0.0922029085012373
0.16242438288954034 -0.05853961276878397 0.09201193639758931
0.1626903024807967 -0.059472857311362724 0.09250833310258204
0.16218612527530404 -0.05760756780364517 0.09182069017897952
0.16219942197473364 -0.05761553714590397 0.09276715830732866
0.16231320452780765 -0.058019256214860176 0.09284980309926223
0.18266962572393466 -0.11474340543899272 0.0952534320567387
0.18264707654453818 -0.11413325632855154 0.09573259499306805
0.18255845725566405 -0.1134296315298407 0.09604307281504135
0.1824416925598413 -0.11260967064426332 0.09614698652610769
0.18228095316287202 -0.11180673976196091 0.09626862846446936
0.18179328803800057 -0.11067272547161833 0.09488677956006569
0.18192908709016234 -0.11068275702162865 0.09588799779744432
0.18161149356965103 -0.11001698500329495 0.09497687340635624
0.18123183170858848 -0.10915223979018393 0.09458963065928097
0.1809509738518814 -0.10847506617219309 0.09469837267816883
0.18088564132369064 -0.1081930093075103 0.09523188542687908
0.18122982510842736 -0.10899502321596817 0.09527157144208812
0.18048208254407758 -0.10720834025118846 0.0952887480820231
0.1801110610197075 -0.10625643401338462 0.09526619601510912
0.17977060841825604 -0.10532270818298374 0.09522361500431986
0.17946454763133904 -0.1043836692257122 0.09519499132158171
0.17922820970120487 -0.10341818766094739 0.09516925401141291
0.17902466607644274 -0.10252288214547049 0.09523268505649594
0.1790114764861596 -0.10135713080244368 0.09385357177071503
0.17887487535546315 -0.10131911958611163 0.09484256000893199
0.17891963015312298 -0.1006617545033051 0.09395275819340147
0.1788530169833657 -0.09972502176807911 0.0935971950818289
0.1786884247532475 -0.09870790145708701 0.09365642742017924
0.17851302267991787 -0.09787000716546333 0.09362926652905126
0.1783661734330188 -0.09727822228785596 0.09363540862301056
0.17822298381821947 -0.09695811026283548 0.09404572048613781
0.1784183915928713 -0.0977086542858735 0.09415743662342776
0.1779429472421766 -0.09602061769315394 0.09401004508442902
0.17766874390826554 -0.09509343567596722 0.0939392791513278
0.17738753373651453 -0.09419448561727997 0.0938748378553998
0.17711761682767926 -0.09333431091724069 0.09385097984032706
0.17686033542624943 -0.09255469878231586 0.09389519675550699
0.17622390424350856 -0.09100678735097303 0.09319788641203117
0.17660390131517528 -0.09187718635293264 0.09403460094537182
0.1758572374661029 -0.09021818204128038 0.09328294641862828
0.1754511116131272 -0.0893824263128763 0.09325663022102333
0.17513324256534707 -0.08871084295868875 0.09297488080749092
0.17493028033092808 -0.08829690881911927 0.09325723771075595
0.17524183901757728 -0.08901420574755751 0.09357126633491626
0.17454000807548234 -0.08737553718768187 0.09314962438709798
0.1741592306391826 -0.08647457761524649 0.09307576225722175
0.17388884337319732 -0.0857480356257382 0.09280233995986129
0.17370205940261021 -0.08540577745103031 0.09314839208319889
0.17396531471379031 -0.08612571614962937 0.09343475622341295
0.17334266927695294 -0.08452899852708509 0.09303263895266567
0.1729839935237826 -0.08366827195288512 0.09292988468047247
0.17270621999171443 -0.08298249964189854 0.09262997949397218
0.17245726190743674 -0.08260147984741377 0.09291473686037965
0.17276995170982476 -0.08330406975396082 0.0932428398562513
0.1720084303979152 -0.08170620608126855 0.09277756083430694
0.17168703061705268 -0.08101501821724617 0.09250213187267091
0.17140476226336926 -0.08067919184708577 0.09283233718364983
0.17173717612139036 -0.08134980460082551 0.09312078894078876
0.17096195867059782 -0.07985314056667375 0.09270911519817546
0.17067656260382688 -0.0791862330913774 0.09241581120823719
0.17039276438220224 -0.07880322734785333 0.0927031363814401
0.17068559007369433 -0.07948293995659282 0.09300525254284339
0.16999264773260106 -0.07795406722195233 0.09260557903633533
0.169755966722839 -0.07727662771516472 0.09232464287750054
0.16956477404641532 -0.07687544029808817 0.09263411414243945
0.16978372606883507 -0.07757649161604056 0.09294298398235573
0.16929045054602654 -0.07599586700689098 0.09256524899855065
0.16909867988188587 -0.0752708299465612 0.0926068791835314
0.1687649296424368 -0.0740118686473005 0.09245048949202617
0.1689774531741503 -0.07479874103222668 0.09277915543941427
0.16847110627124742 -0.07305338728334157 0.09251026226616073
0.16822846764006613 -0.07228518898681993 0.09215833943335083
0.1680350820225448 -0.07176726095616771 0.09229548758868063
0.168261454047571 -0.0724915854288131 0.09293568679776108
0.1677579181290064 -0.07100837291484301 0.09242069750761367
0.16748895813246012 -0.0702886023598838 0.09215408915175469
0.16727235587202555 -0.06981797369049586 0.09235637071210868
0.1675243879058112 -0.07049583187155725 0.09290648455896117
0.1669995228515576 -0.06922092872768759 0.0926224022439255
0.1663791481359025 -0.06781421430742858 0.09238983598466033
0.16671616786643664 -0.06863200728452983 0.09298978459569338
0.16606188739206107 -0.06714428124924976 0.09222479865323044
0.16580305350134608 -0.06666962223570168 0.09243737198365214
0.16608231400185242 -0.06731080425992157 0.09298144646195952
0.16549052117120172 -0.06609760682437707 0.09262006937317237
0.1649002925464017 -0.06499906184107715 0.09274473762862996
0.1652210593465699 -0.06564655329559052 0.09285393026305251
0.16420269837584386 -0.06362616352278833 0.09263508884244046
0.16452071201098029 -0.06434021393760264 0.09308375725657918
0.16358694214420955 -0.062202653716775226 0.09265157784746984
0.16391841424107753 -0.06304077950339612 0.09309345808268468
0.16333858797020265 -0.06146210595073614 0.09260041653381675
0.16315419367516804 -0.06093354856401767 0.0928537758825908
0.16337741438811978 -0.06166054501731984 0.09327173299888977
0.16289019409679487 -0.06020315463667302 0.09303731235787636
0.16256283140164926 -0.05892036833147383 0.0931613408795525
0.16271626963344019 -0.05960469667466265 0.09313080527234743
0.1622609158890927 -0.057846824049769104 0.09362895181463651
0.16242371078292617 -0.05831231486713306 0.09363138497735846
0.18262816194264864 -0.1135980564659727 0.09657836405530695
0.18258022471891427 -0.11310078934712474 0.09669226970669112
0.18247728808925698 -0.11237277682567154 0.09693133939027589
0.18227454095150658 -0.11144788993834231 0.09695770160494359
0.18204032461054856 -0.11060015666101729 0.09691494697815435
0.1815338312588842 -0.10966787654532999 0.09543152424529841
0.18154157953117486 -0.10945863940175345 0.09628299031399849
0.1810374574140443 -0.10819226856832827 0.09631236567701056
0.18057915563738783 -0.1071638781600966 0.09627066812138656
0.18017710166668427 -0.10618356138466606 0.09619813363923618
0.17978508138461055 -0.10522808801299957 0.09611982871439338
0.17943197824197288 -0.10426215819186464 0.09605163583550648
0.17913991138586066 -0.10328465602043047 0.09603598435958766
0.17886772842880208 -0.10218802407448149 0.0960481737512698
0.1786478859381126 -0.10099030170637154 0.09591590687918307
0.1788060008382421 -0.10024980817350934 0.09440953052989964
0.17866026172629998 -0.10014267335740325 0.09516826642962829
0.17868673243958705 -0.09939469755300394 0.09441519100008045
0.17851763295836864 -0.09907915930880046 0.09517463124314476
0.17855052562330553 -0.09845511156675597 0.09436181524239828
0.17836119635100128 -0.09794524634610473 0.09495620826479306
0.1781257872630501 -0.09691842800140978 0.09499684301312372
0.17789238263178814 -0.09596355398637309 0.09495149730075003
0.17765749473332296 -0.09506136502973311 0.09489025927164275
0.17741390439891613 -0.09419690392001355 0.09484010827524676
0.17716739264059092 -0.09336597336274244 0.09480129520094695
0.17692698355551997 -0.0926330755573131 0.09477961539964612
0.17630752650313922 -0.09125202403448748 0.09442170540105983
0.17671332137193907 -0.0921055332004094 0.09486398410911631
0.1758010150710544 -0.09023337247851694 0.09433208404569501
0.1754577069220785 -0.0895167491676223 0.0940229731816963
0.17523477971864324 -0.08912405861530229 0.09431719012024722
0.175554729802488 -0.08980310076162171 0.0946170320888454
0.1748247588846281 -0.08826715743660679 0.09422034835141628
0.17444127774288778 -0.08739480629885056 0.09415551482774617
0.17415525552776456 -0.08667941563416832 0.09389574332990443
0.17396587273829356 -0.08633642485468998 0.09424426897884772
0.17424999042440142 -0.08705694063433701 0.09452485862716979
0.17359315786635293 -0.08544738901835086 0.09413269868726068
0.17321055213248837 -0.08456126364487343 0.09400770045052723
0.17293615322681838 -0.08383673809859032 0.09370629436121952
0.17269025498815038 -0.08349860074651375 0.09403859750648552
0.17298688767506298 -0.08421710776811421 0.09434427127631197
0.1722376095826759 -0.08260804850555799 0.0938917981046809
0.17191458746756189 -0.08188119087233982 0.09358004628650278
0.17161216122130118 -0.08153125906147436 0.09389863603276603
0.17194974870622268 -0.08225144118432509 0.09421266836448165
0.171140602019301 -0.08066540737161841 0.09374938586015319
0.17084018779528778 -0.07998629491103777 0.09345909813446308
0.17056085970278353 -0.07962930594948088 0.0937465256244268
0.1708526464395038 -0.08031995582237977 0.09405307955443755
0.17015131748380177 -0.07876785833690196 0.09363370758085246
0.1699034879937828 -0.0780852813739792 0.09338939755985912
0.16970512094788184 -0.07772410278995383 0.09371439575930163
0.16991078662725118 -0.07842521284572852 0.09399597035523738
0.16944266600626504 -0.076839173125308 0.09361082536043717
0.16922615675083028 -0.07598867599892271 0.09356348976858019
0.1690819342789841 -0.07531065954263412 0.09329572251894615
0.16896095279814582 -0.07490643889069394 0.09362680483383456
0.16912599234295697 -0.07561296565867157 0.09392018879297866
0.16871624671647184 -0.07399759440054478 0.09357902671508933
0.16848712610621813 -0.07322417560839364 0.09360553535275815
0.1680566569906338 -0.07194744178620315 0.09338603972857382
0.1683082791090049 -0.07269578262550293 0.09371627569807472
0.16777484676281895 -0.07118455316993388 0.09349545284215836
0.16730050511424632 -0.07001719743442457 0.09339865438592283
0.16757804345296481 -0.07068944528489841 0.09365035262581585
0.1669881134045996 -0.06933003026193901 0.09356482417331946
0.16643459427225032 -0.06813246934885053 0.09358781496749731
0.16675347244996735 -0.06885494953651614 0.09378199245861348
0.16573298794485583 -0.06667903209865131 0.09335441465678651
0.16607865149661646 -0.06743563814256502 0.09388319325064423
0.1654008558046677 -0.06605403800431822 0.09325177081646999
0.16513387642082925 -0.06560561849747917 0.09348577413532251
0.16543815949748908 -0.06625061416516768 0.09390294543722386
0.16477606750832396 -0.0649495847834024 0.09363864490587509
0.16422054771835165 -0.06380899882035602 0.0935891801898564
0.16449757136977983 -0.06442569930282419 0.09366719984249344
0.16366300075827792 -0.06251524255518094 0.0936916157786625
0.16394685462400982 -0.06320221209579543 0.09373048331407957
0.16313364445009962 -0.06104364381057286 0.09386586005483555
0.16340907150465553 -0.061842561027862425 0.09388496824823199
0.16278088639695004 -0.0598337618174298 0.09378783788903824
0.16275311125911923 -0.05968034664367897 0.09468171688010076
0.16292736343953348 -0.06043969936411323 0.09450744293806373
0.16259935867928066 -0.0589507045628542 0.09409825463738021
0.16239936947548758 -0.05832350031220767 0.09432656449853422
0.16256928604268062 -0.058965413356656164 0.09487830818582492
0.16228329883245426 -0.058014779694558885 0.09442682786015621
0.18255839712370253 -0.11290595595815804 0.09717426990413602
0.18238918933922083 -0.11186616550354178 0.0977438874794084
0.18223956303370684 -0.1110905063730196 0.09761297484344514
0.1819659669784813 -0.11022926101174292 0.09760888651224983
0.18154668583926908 -0.10911323018495044 0.09742132982301403
0.1811159431106312 -0.10805537176657089 0.09730140762925298
0.18068655831717811 -0.10706925950176784 0.09722638166894854
0.1802377979772475 -0.10608850374839009 0.09711933668258299
0.17980553510826722 -0.10512571657889944 0.09700875089534751
0.1794033130858664 -0.10416445657078388 0.09692556034245806
0.17905772975698062 -0.10319539174070999 0.09692276399274807
0.1788055061694201 -0.10241345637249538 0.09684009133843717
0.17871463525806555 -0.10226253512787954 0.09739043093106779
0.17888554356876654 -0.10286429467756104 0.09734052089475943
0.17865514952835188 -0.1016582423725837 0.09668281785384605
0.17851338125393085 -0.10134686489275789 0.09743150389736834
0.1785108060705783 -0.100845019055642 0.09663643246856192
0.17844476083482402 -0.0998429736178679 0.09621035344863935
0.17836545914746302 -0.09869220549832644 0.09583555353386868
0.17821833034988926 -0.09778593436711219 0.09594223965551378
0.17803555836183926 -0.0967731572188194 0.09591400838722076
0.1778538098659061 -0.09585683073264425 0.09583151403272709
0.17766155015128954 -0.0950104692719973 0.09579983894788363
0.1774352658815354 -0.09416843848754 0.0957566124396126
0.17718269151882368 -0.09331484883037054 0.09569144555493007
0.1769292900033528 -0.09261781391078903 0.09540142225195955
0.17670954774023323 -0.09216888222478305 0.09567623494353601
0.1770404908551163 -0.09290354808809374 0.09599460167361351
0.17619252940502744 -0.0911482216790451 0.0955744675373041
0.17578221337227823 -0.09030865519044043 0.09515207046528328
0.1755071941622843 -0.08980933941634722 0.09525692311109092
0.17585373080740146 -0.0905562762201774 0.09599414844957468
0.17513843310398053 -0.08910149786408066 0.09524717846285834
0.17472282539217393 -0.08828637725675233 0.09520351246283333
0.1744292628623473 -0.08759729962763436 0.09495875920810798
0.1742248592979744 -0.08725091706149452 0.09530523591443824
0.1745091113325928 -0.08795220819556156 0.09555821706252503
0.17383362367633834 -0.08637804024477429 0.09521172151734565
0.17345350487454148 -0.0854968872981179 0.09511521851189376
0.17316861719545187 -0.08477536699272385 0.09482515250637426
0.1729222822655275 -0.08444112811290105 0.09515703659327869
0.1732295601676352 -0.08516623664289347 0.0954665315911577
0.17246701388140132 -0.08354005776949198 0.09500496007868146
0.17213675258389918 -0.08280624626856489 0.09469014853847267
0.17180648610846824 -0.08243403899091849 0.09497879285290571
0.17216750069094322 -0.08318230876725632 0.09531530649370558
0.17129100927761484 -0.08148321668448348 0.09476852904868385
0.1710028690442843 -0.08081157858785111 0.09446217921600336
0.170699341268454 -0.0805117867337605 0.09480099466391317
0.17100304301907818 -0.08107180548326881 0.09488795596471683
0.17029352838162837 -0.07956422998525334 0.0945097408897343
0.17003108072831707 -0.0789490118182508 0.0944031232821213
0.1698081649944735 -0.07861538992379219 0.09478593320716508
0.17004667931869474 -0.07939007889862326 0.09503052366868767
0.1695470699453294 -0.07767932965623692 0.09462617643371816
0.1693398827815901 -0.07681368454115269 0.09456025467576143
0.16921906340744186 -0.07612477166608271 0.09435652412534214
0.16912399052432633 -0.07576938273480066 0.09473029883307944
0.1692540564736262 -0.07647637479892187 0.0949642553942201
0.16891700539412768 -0.0748676677647908 0.09467158636175182
0.16869360146021578 -0.07394476791082062 0.09465377362720709
0.16846957375027063 -0.07317630055177393 0.09428593178141526
0.1682912822302068 -0.0726490662122728 0.09440303769730823
0.16852910171670257 -0.07339557643479261 0.09506215344739383
0.16799909807275787 -0.07186251138629957 0.09447621722756636
0.16773677590058786 -0.07113380583166744 0.09416002758832147
0.1675224222934752 -0.07065482675062344 0.09429897126336671
0.1677554802441008 -0.07132134476760257 0.09487771458846439
0.1672033269246386 -0.06996811130421202 0.09439239961634759
0.1669298928932073 -0.06931543016918883 0.09421711129662544
0.166695834595989 -0.06887206446751935 0.09456271697060702
0.16699659749799411 -0.0695668542530182 0.09478369294050773
0.1663050494470837 -0.06803533359342584 0.09451142295770323
0.1657803701992956 -0.06697399529623715 0.0943430979448598
0.16606280415166771 -0.06752490787273639 0.09445996311261821
0.16508906814663565 -0.06574473343754508 0.09446418018202257
0.16546901372892792 -0.06645156903344987 0.09448040792695966
0.16450815539821706 -0.0645901858193595 0.09432699290630345
0.1643475132373077 -0.06448468116939994 0.09524818575225572
0.16474211651748297 -0.06525358581597142 0.09510351100703177
0.16398813964347858 -0.06345110649706084 0.09450705476420959
0.16373587203305556 -0.06306023594607495 0.09524948576158429
0.1640050245804594 -0.0637709423526804 0.09551566686149468
0.1634842721654299 -0.06219070237113552 0.09464406471865379
0.16330247387079158 -0.06188068521189367 0.09538997469202147
0.16352049749077147 -0.06255668838852467 0.09558811941009406
0.16312463703766242 -0.06122321791641012 0.09489372150775119
0.16291167538374784 -0.060456543306143196 0.09525565131581967
0.16308966426681834 -0.06129291471631219 0.09569435439663361
0.16272455897287175 -0.05963723893072889 0.0954427706655701
0.16242463838711232 -0.058597260603112926 0.09509245226946415
0.162556630182198 -0.05906592978992075 0.09540612313074288
0.18229810959219406 -0.1115946103110304 0.09854922240777961
0.1821931196519987 -0.11104105276992106 0.09845246701989672
0.18189780550191195 -0.10986810088380833 0.09861450690089277
0.1815391325225743 -0.10881365591614069 0.09820299028042388
0.181220116535406 -0.1079642967991777 0.09824658651934964
0.18080594109184867 -0.10697182897773783 0.0981724278442721
0.18030704194291125 -0.10598416849847707 0.09802427393214669
0.17983567553753083 -0.10503032262201097 0.09787344810042085
0.17939889160778574 -0.1041291047894582 0.09780948231361973
0.17907875407441545 -0.1034172594362043 0.09764888781860462
0.17898433262709196 -0.10312612251618326 0.09810557089795806
0.17926446375162533 -0.10382422771660842 0.09822432543133078
0.1787074080689902 -0.10228104848339079 0.09819149023951786
0.17851182684699632 -0.10154419116184032 0.0983007656632188
0.17840562337403498 -0.1004523475706983 0.09706460283568448
0.17834045270566623 -0.10048718894837241 0.09800255176573786
0.1783239081687593 -0.09979356034789785 0.09714113514735184
0.17825871607990657 -0.09880151475087787 0.09681078993216463
0.17807932200204787 -0.09753095381165011 0.0969747831376525
0.17795775190126498 -0.09651917520383468 0.0966308536602407
0.17782071705105582 -0.09577698041410393 0.09667923953828306
0.17764807966687457 -0.09495831175363345 0.09665725072036666
0.17743676886310128 -0.09412694908072541 0.09665484166588649
0.17722922047691692 -0.09342036664510661 0.09642862650569413
0.17704732824529873 -0.0930378795862749 0.09675753450426774
0.17731697670922036 -0.09375340658695637 0.09701104046090445
0.17664403215737093 -0.09215196464905648 0.0966988239390473
0.1762558532647216 -0.09138324546745782 0.09678045407093498
0.17549436135678037 -0.08992978940681508 0.09620716576165918
0.17590590325416874 -0.09076542734751314 0.09701067014090478
0.17505724185104737 -0.08915450959894837 0.09626387709717646
0.17470546275024568 -0.0884672177480398 0.09598956808282146
0.17448281670539006 -0.08811032310750734 0.09632158980612893
0.17480179442025823 -0.08878434340858915 0.09659485261106136
0.17408689920681567 -0.08728186152583439 0.0962640462232506
0.1736863029005273 -0.08643537963976268 0.0961960342213752
0.17339834695583306 -0.08572420922843386 0.09592465090759668
0.17315141838209785 -0.08538709140047875 0.09625309035339184
0.17345375878270283 -0.08611300366589304 0.09654862447897462
0.17268513604180025 -0.084488530452302 0.09609719941665297
0.17235264479736173 -0.08374727279614504 0.09578267706994253
0.17199990873424872 -0.0833686301711626 0.09606838919781141
0.17236746119907895 -0.08413105314836476 0.09639122969440309
0.1714155312754186 -0.08238882802450692 0.09585075854885859
0.17098964689436433 -0.08147892313323582 0.09548926482486271
0.17084185419320866 -0.08179458832993275 0.09624826843214844
0.17108334583537813 -0.0820504952160642 0.09605224199506288
0.17059955075329755 -0.08104723940683986 0.09581651680042322
0.17027364710582057 -0.08080299439161169 0.09638929572659301
0.17056534524862596 -0.08150114189567388 0.0965440428110316
0.1702852065633008 -0.08016555892104275 0.0954232922969073
0.16989902746919175 -0.07966426501088819 0.09601696989909421
0.16961667724832633 -0.07848943877051993 0.09563763954199948
0.1694239776524306 -0.07760844129568374 0.09542046210993478
0.1693163153865822 -0.07700609331684347 0.09535149833836591
0.169232441769674 -0.07669391533700169 0.09578719291374091
0.16933853890882455 -0.07745284141582331 0.09596650823041075
0.16906968372672013 -0.07575899947987731 0.09573151100934015
0.16889764950026862 -0.07486736755575264 0.09568131533533746
0.16872870645682903 -0.07413560520772744 0.09569941571103924
0.16831897360088136 -0.07285896552199038 0.09550234623059743
0.16858114959363207 -0.07365053875351839 0.09585174423658145
0.1679785209707834 -0.07200335548338074 0.09551657752109957
0.1675038482627422 -0.07083532843290337 0.09533050329037761
0.16776760687953782 -0.07147511769107787 0.0954838211710733
0.16718603271661905 -0.07007437656473381 0.09517583755768268
0.16692251481049522 -0.06962576527978602 0.09556294743085794
0.16725887034900822 -0.07039414913372587 0.09580693565745398
0.16642642498805796 -0.06860765544851849 0.09546869504349409
0.16602694449691013 -0.06767446131870535 0.09506637846708445
0.16587662784906698 -0.06765135119575989 0.0957858751523882
0.16613208415258837 -0.06809935721613956 0.09566299434189687
0.16555385182492757 -0.06682196572671002 0.09519788162511553
0.16537797768264498 -0.06681372202085017 0.09599252400141813
0.1656345752743742 -0.06723093615529767 0.09588540561663131
0.1650819835092333 -0.06604702081138537 0.09549089406829436
0.16465548604784708 -0.06539812366367298 0.09594716286819513
0.1650352913059184 -0.06625502878578028 0.09617643090401759
0.16422710795834622 -0.06445610596409819 0.09601919261098578
0.1637569272836455 -0.063323216823681 0.09596861508651261
0.1639943392626096 -0.0639031068463483 0.09601855015128032
0.16332138447791128 -0.062146418252085306 0.09611071539975877
0.16354337845254707 -0.0627804432906915 0.09610619417364229
0.1628853924769447 -0.060574869060665 0.09624581322775443
0.16310191327433657 -0.061475829808946975 0.09626416584539282
0.16259203912071746 -0.059448891047439945 0.09604197373008254
0.16251427923562406 -0.05957286351035845 0.0970578551166994
0.16265730060674582 -0.05997598297072731 0.09685511886806061
0.18220955231457178 -0.11127508705057045 0.0989494953059241
0.18206278179283725 -0.11058094782121598 0.099283080893049
0.18191491091099385 -0.1100161921143664 0.1000319425444135
0.181917952066356 -0.10989947648467294 0.0995574550439896
0.18169032041781738 -0.10898975674423096 0.09921176034967599
0.18129349454022023 -0.10788055757199906 0.09919502551987344
0.18085785742165997 -0.1068425578330772 0.09907158913256824
0.1803569011276132 -0.10584942015976238 0.09886937453998311
0.17986504476656726 -0.10497176483777225 0.09865699967732522
0.1795552255574615 -0.1043681448486676 0.09858859674933697
0.17948478016632222 -0.10409327441713678 0.09908115613152525
0.17986310562666655 -0.10485021580148023 0.09923248731253154
0.1790789620952429 -0.10317989003531601 0.09909156427569475
0.17872528293527176 -0.10228513473179675 0.09906337678602743
0.17845881202091218 -0.1013737874460359 0.09898746093003431
0.17828438577377048 -0.10054360430297514 0.09898582243255079
0.1782291478789147 -0.09941591515746169 0.09767017104141393
0.1781626349767866 -0.0994995222988179 0.09862806973549584
0.17812231131505704 -0.09852416562133548 0.09781470022617231
0.17798319980469998 -0.09822025024327592 0.09876774929421515
0.177998286078759 -0.09764209456488504 0.09794454111591079
0.17790567278750524 -0.09661951239611445 0.09761946620082217
0.1777797699019694 -0.09564668448030636 0.09736307420887542
0.17763143551988464 -0.09496408116287616 0.09751591522920935
0.17746965080183713 -0.0942806517349323 0.09739715965038244
0.1772876161744498 -0.09391827746780416 0.09774718700485992
0.17751222930493943 -0.09463868223834711 0.09793256108505602
0.17692968536831855 -0.09302347196897104 0.0976938911513256
0.1765740103563676 -0.0922025511183544 0.0976749602292751
0.17625143529541357 -0.09151588628161322 0.09771268816863714
0.17552277756377965 -0.09017520712730129 0.0974892732555182
0.17598490528552688 -0.09103609113770014 0.09785482023410803
0.1750484353874764 -0.0893136793620852 0.0971202589463225
0.17476140369248344 -0.08882797234878444 0.09725924832499915
0.17513256781474376 -0.08958894341644028 0.09797974225580433
0.1743848701471684 -0.08813611893553783 0.09727869357223926
0.1739583413357527 -0.08733790413413839 0.09724798631877186
0.17363922506622587 -0.08665580358792817 0.09699588047630406
0.1733878256358919 -0.08631249384798391 0.09732831293992295
0.17371938200914364 -0.08701571555765285 0.09760522918516573
0.17290951515773706 -0.08541945331719816 0.09718031490574533
0.17255652399287652 -0.08469398193174689 0.09686308076797233
0.17220447781023737 -0.08431066065813882 0.09716043665885186
0.17258762733975394 -0.08506018171473556 0.09748308406012275
0.17160452946572521 -0.08334500343085517 0.09697237310380391
0.17113518079936027 -0.08251548936120479 0.09665981624235784
0.17103613538950263 -0.08277880205205246 0.09736296292991464
0.1712783846870045 -0.0830355153713043 0.09719131846857827
0.17077143364738434 -0.08213116232602727 0.09695199817933564
0.17041018529598023 -0.08168268391793153 0.09731477778254896
0.17074428552624676 -0.0824372969681249 0.09759119902539766
0.1699691480511645 -0.08071787979760348 0.09721240519969551
0.16972208547623588 -0.07994795791131906 0.09699759691216747
0.16957509207917798 -0.07976547843129607 0.09751988650362475
0.16971590272080234 -0.08038194054532262 0.09760727608477085
0.16959733371233507 -0.07916451245764641 0.09662301274588184
0.16944031563655002 -0.07887105412772429 0.09728874302704858
0.16944336668039855 -0.0782206456029752 0.09631041222103738
0.16931782102051776 -0.07773910525388945 0.09689669907077707
0.16918238959163082 -0.07667235092445518 0.09682104571799287
0.16904363915954265 -0.07570365630488249 0.09669329742448952
0.16888674194056 -0.07482480434645722 0.0966080573272055
0.1687224140042311 -0.07415148720865176 0.09635649611592824
0.1685572973532774 -0.07373109172468872 0.09665552894256552
0.1687781059047475 -0.07444611106535862 0.09694712971497317
0.16819100675558107 -0.07276280172189147 0.09657534438355185
0.16781838344905928 -0.07176199232266685 0.09620987368838053
0.16771872747891095 -0.0718401967663899 0.09712972283215202
0.16797969032278287 -0.07239092768502213 0.09705022868155871
0.16748275155237108 -0.07106845705969646 0.0963890961688974
0.16712765358544526 -0.07038985461931879 0.09656012963811234
0.1673854405297921 -0.07121210464470477 0.09730082195494699
0.16665233913473473 -0.06948865611942481 0.09658311551805086
0.16617892490488123 -0.06844237894406208 0.09631835382757327
0.16602861736416408 -0.06851288253465039 0.09713332418616691
0.16635080188242177 -0.06907476204971252 0.09703767734655089
0.1656931159991651 -0.06762302782603702 0.09653831331824252
0.1654364273955 -0.06740898848190581 0.09713065499919116
0.16569393461959694 -0.06801208792115813 0.0973733153469717
0.16525144900794467 -0.06685775327916835 0.09665610807232973
0.16483833611037224 -0.06612353067068151 0.09676801452674735
0.16509933415580777 -0.06688643510043034 0.09730408621396391
0.16434205350823414 -0.06512835237945629 0.09678980807076819
0.16396670349584885 -0.06409531828090571 0.09652409855001721
0.16381293204694175 -0.06410586798681872 0.09716156169628841
0.16404897220901452 -0.06458793783366047 0.09700541795762187
0.16356795689110626 -0.0631370744904068 0.0967113955352592
0.16340393847972534 -0.06311883937670987 0.09749094984466712
0.16360609560843048 -0.06362712391874818 0.09731340515613075
0.16314365417240148 -0.061923943430753095 0.09698412017005563
0.16295335043591158 -0.06164678707718092 0.09792510979577583
0.16316767566385956 -0.06252209360097323 0.09784343116348569
0.16283059451545948 -0.060768668490189054 0.09729150451984835
0.1625731765944929 -0.060041364191140735 0.09757045351712156
0.16269776518054507 -0.06077223118558841 0.09807935389424569
0.162463760175385 -0.05970442305907639 0.09769039298813471
0.18181296021945312 -0.10949717191229072 0.10001531721396995
0.1817464875249827 -0.10929589217252757 0.10041380158757876
0.181608835326524 -0.10868955472348034 0.10004990700049206
0.18152413792976624 -0.10832553959644155 0.10051240820559319
0.18129328355804836 -0.1076568646887343 0.10001693864663297
0.18117659751688606 -0.10722340019264753 0.10060794674124085
0.18083760835057877 -0.10661594131450791 0.09986499892147145
0.18073597058055743 -0.10628042275421744 0.1005593374134272
0.18033489615306392 -0.1056396385420457 0.09960673855634242
0.18015079506913204 -0.1051538512941905 0.10020945334676375
0.17961536501993486 -0.10411543223572942 0.10014932580567351
0.17918333119004606 -0.10316014107722281 0.10007336917250971
0.1787591904323319 -0.10219741648814851 0.09996043355449306
0.17842233695766388 -0.10120285952091211 0.09981234076943114
0.1782020959852766 -0.10018430901342837 0.09963611200255482
0.17802557219243542 -0.09914727175627373 0.09955652213963426
0.17786164434413412 -0.0982582566395952 0.09961909486137152
0.17789935385137548 -0.09727253109772077 0.09844870198069719
0.1777576682555193 -0.09719663527536994 0.09928264372825452
0.17782030662558657 -0.09665050672192356 0.09850938010067868
0.17775117545777172 -0.09586119422672756 0.09815674382873685
0.1776108742736741 -0.09519094846712348 0.09822543134942198
0.17741778556110424 -0.09484500987950956 0.09864372248830552
0.17761963272247572 -0.09562422082909613 0.098719581571725
0.17710642912161623 -0.0938691512938958 0.09862613379897191
0.17679342396476921 -0.09298638274321179 0.09856929829807078
0.17647139804389014 -0.09219509912421284 0.09856222744353936
0.1762041225176812 -0.09155563166115921 0.09835679395130295
0.1759528404532487 -0.0911872168140112 0.09868192815746885
0.17627232423320968 -0.0918671170669843 0.09892541392888908
0.1755285901431932 -0.090416912184934 0.09875979281852969
0.17474565008222623 -0.08897436577666704 0.09822124363703248
0.17515059957098997 -0.08980595244822696 0.09900411625333179
0.17429650616383516 -0.08822556720894514 0.09830809089489592
0.17393041145398647 -0.08753786792171891 0.09804192064959465
0.17367131254965285 -0.08719126921024763 0.09839254258285822
0.17403160171514445 -0.08787794356352434 0.09866172501537922
0.17317472469326417 -0.08632658747337851 0.09829365708478664
0.17279571223149656 -0.08560547161868712 0.09795798078794342
0.1724717626994917 -0.08521267649078249 0.09826248870354698
0.17286024692937713 -0.08593869815305297 0.09858563984130889
0.1718626321090253 -0.08426966909189787 0.09810928485082919
0.1713611251896464 -0.08344710838511157 0.09777538989612145
0.17127388376672803 -0.08363938280175877 0.0984916212957248
0.17153020249614495 -0.08393526437448748 0.09833577876577447
0.17098413651412692 -0.08302000805086934 0.09802030638386787
0.17060094794010724 -0.08250565514505445 0.09833214208119859
0.1709600398173996 -0.0832329965266095 0.09866300043009485
0.17011384216124348 -0.08158814154199215 0.09821833974067419
0.16982653970867606 -0.08089633911193238 0.09797600615904628
0.16967823275418883 -0.08051932409656586 0.09833565566109603
0.16986273572598262 -0.08119935655565673 0.09854339739034619
0.16950971125514233 -0.07963673767465836 0.09827006051490798
0.16937585610959072 -0.07865531980004582 0.09811897492739975
0.1692594223715197 -0.07760179680954396 0.09792440657514714
0.16912506268365726 -0.07655574127874346 0.097815967371142
0.16900045209954936 -0.07557415208019694 0.09745806914043159
0.16888249551268553 -0.07495618446340087 0.09734050889805487
0.16872166138337982 -0.07461639433763355 0.09771637537973124
0.16890437395681426 -0.07536115404963033 0.09792450697573468
0.1684096924371521 -0.07368671831359425 0.09764738270336909
0.16816059857455057 -0.07295993014029677 0.0974390243837039
0.16795643994993795 -0.07265640732270823 0.09789333247844628
0.16820852526328472 -0.07332824957950028 0.09804731908790335
0.16762750395144002 -0.07196252865992432 0.09795449357139842
0.1669665532003488 -0.0705520503432789 0.0977148333148887
0.16734996093958704 -0.07144970256801295 0.0980707648946539
0.16656924197051792 -0.06966657901370363 0.0974387085571056
0.16628742691547768 -0.0692135093031975 0.09770556134437476
0.16656775791829967 -0.06994189513892109 0.09816772397754966
0.16593630613147692 -0.068630889756581 0.09783794118524426
0.16539191788368912 -0.06763138320335207 0.0977672933023273
0.1656786047398786 -0.06818171263278139 0.09783722531897597
0.16463087959339565 -0.06618080208344561 0.09770764500927598
0.16504588811777365 -0.06704319989846677 0.09782073019980538
0.16409198284147952 -0.0649890161390445 0.09756451097174455
0.16397346972707724 -0.06510899046508728 0.0983042061627318
0.1642622911199599 -0.06561512276744318 0.09809506031224438
0.1636746520448035 -0.0641399926425822 0.09788664558764877
0.1635128136756847 -0.06415833100627694 0.09859757934250682
0.16371672080144076 -0.06463159998963305 0.09845164082960824
0.16333417322892452 -0.06334817185860704 0.09820239781649688
0.16306187632621721 -0.06255635568434251 0.09862169822314121
0.16326769938292093 -0.06352047532457233 0.09880470826725626
0.162774929644661 -0.06147846881370206 0.09865595725320658
0.16253606132006346 -0.06031053808026648 0.0982879750714333
0.16261438076375226 -0.06083306233948445 0.09858467001747116
0.18094856241518867 -0.10663993135652128 0.10104775877654609
0.18058394480327314 -0.10583732170054361 0.10119429480246542
0.18018970341254129 -0.1049686535574428 0.10123848520959751
0.17973681892292823 -0.10404593274457064 0.10116126890991467
0.17925874671784225 -0.10308276379623756 0.10103973872332024
0.17877421006334865 -0.1020353642009655 0.10094578658644186
0.17833283620124593 -0.10088947551881228 0.10056663301942598
0.17807804130568256 -0.09986119141039508 0.1003957302810622
0.17786651105625875 -0.09887551865603753 0.10030881720706686
0.17769820503172662 -0.0979087412061575 0.10020364121117448
0.17755187762572963 -0.09703687640760769 0.10012589452036731
0.17770316813954537 -0.09626210746641585 0.09887268863072748
0.177473440258245 -0.09595700382088503 0.09954713850344997
0.17718159486591464 -0.09471490747159282 0.09952300555650517
0.17690947711312838 -0.09372803906126208 0.09942910844398188
0.1766521352773828 -0.09291163642337484 0.09931654281756226
0.17644011912122176 -0.09235363388309045 0.09928069744352926
0.17622594413749662 -0.09205108906017925 0.09967397532229337
0.17649884432233917 -0.09275097516514846 0.09982594638817546
0.17584823325535642 -0.09122787202927675 0.09966978755231536
0.17549472030995603 -0.09054236165399901 0.0997021585813618
0.17473719798454695 -0.0892450644710191 0.09948009843209796
0.1752001451227463 -0.09006745462495959 0.0998332465102376
0.17428442919620007 -0.08841978748228939 0.09916922028469181
0.17398308154885195 -0.08797100106704152 0.09936849152422368
0.17435485921901206 -0.0887552030654746 0.09999836832531055
0.17352353663434256 -0.08724524796326547 0.09946701633759597
0.1731019427542215 -0.08647197913559704 0.09912003104293984
0.17276546964720643 -0.08599742944555791 0.09928427203397387
0.17315948446006413 -0.08679456945121997 0.09996270029329556
0.172237892602339 -0.08521557049644093 0.09929321525005332
0.1716588013566543 -0.08432221615859131 0.09900855586569529
0.17160868629843506 -0.08442255202805807 0.099915960813204
0.1719396510255754 -0.0849061747313523 0.09978150272239333
0.17123806621881246 -0.08378237481933806 0.09924739812097766
0.17082641535323678 -0.08314278518589134 0.09933929158240618
0.17122034266795752 -0.08383910286795933 0.10015099505412017
0.17036467326497612 -0.08232889893502854 0.09925976837604551
0.17003294284502077 -0.08166587531595919 0.0989590726621211
0.16985912624498584 -0.08123661973705115 0.09924473828421772
0.170108535336648 -0.08188631734323785 0.09953392467945156
0.16964340760389116 -0.08041247600450632 0.09917964461977881
0.16947872206010822 -0.07953412059776484 0.09916916360412158
0.16933034346632922 -0.0785139876425275 0.09912934222795657
0.16919199518953226 -0.07746809104997018 0.09874871970946207
0.16910468586550131 -0.07680314876841086 0.09867678825889846
0.16900881763059697 -0.07662169510783291 0.0991971420828184
0.1691247405476893 -0.07728817348823308 0.09929293626874308
0.16901174261909588 -0.07608267166228323 0.09831302356193558
0.16882528188599674 -0.07559317609239292 0.0987855025404921
0.16855638481014212 -0.07458699650145614 0.09868563878273924
0.16834960829458942 -0.07385488489226978 0.09844912275609159
0.16812821382464457 -0.07349986623304988 0.09882419960406368
0.16835599943130597 -0.07420619668582677 0.0990367965984596
0.1677762006803716 -0.07265481832974771 0.09880202282124972
0.1675054235922648 -0.07197615334225717 0.09855337522557565
0.1672353070093766 -0.0715297858292257 0.09885476889388127
0.16753265306067902 -0.07226343843621179 0.09912725104735844
0.16682022322685602 -0.07065320753213253 0.09879680123390235
0.166195314468172 -0.06938461711660666 0.09861524722972029
0.16654262134683775 -0.0700930432596634 0.09876131286651761
0.16568617052765014 -0.06839116223756272 0.09838064139827275
0.16558922817893826 -0.06847330058885175 0.09913107459698615
0.16588352705135806 -0.06893237748035023 0.09894287642021178
0.16509885546595632 -0.06740062091947245 0.09854923462542327
0.16482165629191112 -0.06725567547246694 0.09944659501251893
0.1652462684258549 -0.06796981789786982 0.09940496857164209
0.16437027790194317 -0.0661544627037628 0.09879773034277514
0.16408505846550928 -0.06591377718319057 0.09951077313129994
0.16440791101627797 -0.06661062174234464 0.09972785895749253
0.163774870056689 -0.06506862427989095 0.0990353143531146
0.1635380007319939 -0.06478562646752463 0.09964903524208547
0.16379839320356454 -0.06546734270671363 0.09981213794159742
0.16339758027483905 -0.064171541183265 0.09923022013803962
0.163132788462322 -0.0632987548046415 0.09940455736675298
0.16329447455836582 -0.06414127577644826 0.09989468742285061
0.16280814768689558 -0.06215352279445119 0.0994740979259256
0.1625953133797697 -0.0611600675466676 0.09916080806240574
0.16252068806204145 -0.06137834935626383 0.09999507507925898
0.16260238472017066 -0.0615623234694401 0.09975480250501252
0.18045594483112298 -0.10539641176908958 0.10200942147699005
0.1802049623332854 -0.10480570602140966 0.10215529796938848
0.1798176246372381 -0.10395419985200106 0.10211637048731093
0.1793345106476512 -0.10305881565803068 0.10204749766814032
0.1789178770022504 -0.10230636311906204 0.10187457954783628
0.17884694136156296 -0.10213655564247151 0.10245435760014783
0.17919018516732704 -0.10276918480310063 0.10252021177636265
0.17855706137337496 -0.10152307552365958 0.10153043496692693
0.17838973399475477 -0.10120553616556882 0.10220856146708529
0.17819976681737076 -0.10053673342737415 0.10127491376686791
