# .PCD v.7 - Point Cloud Data file format
VERSION .7
FIELDS x y z
SIZE 4 4 4
TYPE f f f
COUNT 1 1 1
WIDTH 791
HEIGHT 1
VIEWPOINT 0 0 0 1 0 0 0
POINTS 791
DATA ascii
0.15623993134625672 -0.05844915105781958 0.0809612547690138
0.15637841194047106 -0.05802884996209727 0.08120365085090225
0.15654632697216275 -0.0583400553002169 0.08167676491716513
0.18039687238493032 -0.11360337338996124 0.08575051701864315
0.1801195170200311 -0.11291765749489494 0.08579588546216613
0.17969632874832336 -0.1120153042990999 0.08580434057122606
0.1794621980668879 -0.11114026622840024 0.08608019468134769
0.1792571701768445 -0.11036364476321123 0.08626357483644885
0.17892888602832357 -0.1094225017124789 0.08623731396819917
0.17857712310320978 -0.10829414203779802 0.08613387091082575
0.17801224877734337 -0.10737070237931699 0.085520473126195
0.17759214583142455 -0.10689391691805308 0.08484342549511442
0.17783251244804055 -0.10665616469996131 0.08539936772034669
0.17751990732432762 -0.1057548655675432 0.08510992512453858
0.17717714189429665 -0.10482975472591419 0.08484658071967653
0.176813018655212 -0.10396843270435412 0.08470244876560956
0.1763993268421953 -0.10308988561266946 0.08456865906244793
0.17592422636017022 -0.10218052405742602 0.08442487642546061
0.17540327708413847 -0.10120582767356956 0.08426044298529325
0.1748041453664919 -0.10005486669875786 0.08409885787562581
0.1741759226165679 -0.09895210300817185 0.08330100974209405
0.1738663794382635 -0.09812074602992987 0.08318481146675644
0.17354836410842228 -0.09718818778412654 0.08297777324789551
0.17325551250725993 -0.096323057534529 0.0827705384249226
0.1729574048591932 -0.09546539541008216 0.0825874513084336
0.17262063465303032 -0.09458376904773225 0.08239658380431149
0.1722357947990151 -0.0937095957516699 0.08222100928966518
0.17182372433637014 -0.0928414481238612 0.08206381191819316
0.1714131734450537 -0.09201084296320958 0.08195332125403054
0.17110286360226634 -0.09140483056814476 0.08198425885640863
0.16999438730228317 -0.09004529878046394 0.08095535884293853
0.17056027869436682 -0.09070331136470652 0.0815587191608615
0.169586955036491 -0.08936875277470643 0.08093527380312705
0.17026806037110004 -0.09016094488497188 0.08157999978919905
0.1690483072805897 -0.08838691944324299 0.08086995638810157
0.1685436654563568 -0.08752002127845532 0.08071976952443748
0.16804486660380877 -0.08666909396099531 0.08051454736400747
0.16759270923667252 -0.08604202384695875 0.08015098306170797
0.1674393799936798 -0.08572265322525607 0.08043939787128554
0.16790782410874436 -0.0863203640695872 0.08079089124999204
0.16691144818672665 -0.08498017508892881 0.08027413625019658
0.16638099100217912 -0.08425776086345678 0.08013291069791154
0.16586369556025632 -0.08355470072285343 0.0799926557146157
0.16539775087940536 -0.08298674649863395 0.07963677430430678
0.16524895691668123 -0.08267081343713198 0.07991420414950734
0.16569168182868596 -0.08324701332137727 0.0802691808227887
0.1647702303312237 -0.08198623408778387 0.07981362858184074
0.16433674977448234 -0.08140305169581313 0.07977274985429322
0.16350858440934202 -0.08044402554124981 0.07941926634315974
0.16405384907440204 -0.08099029065833939 0.07981000512192085
0.16307461864937461 -0.07986943406602418 0.07955629383968459
0.16210922373191494 -0.07892628909338616 0.07901991247788635
0.16278368212740502 -0.07941910333716533 0.07977455991620587
0.16175594302406823 -0.07837121783709013 0.07919704473629467
0.1612670314027133 -0.07787942087959443 0.07884361931958622
0.16102739825753246 -0.07752179152180545 0.07895569119141811
0.16159918187726063 -0.07796705262635516 0.07965232713093459
0.1607472513080653 -0.07711635704354952 0.07912951480506643
0.15992476167172553 -0.07630471935419121 0.07874709007043582
0.16055688998008755 -0.07671610208064217 0.07940787462251538
0.15969506489854107 -0.07579353259685659 0.07897172836819537
0.15932254585783037 -0.07534411992146084 0.07870440402347557
0.15923639456108973 -0.07498443641715637 0.07884661876873747
0.15973141723185202 -0.07536374847668487 0.07940247820760252
0.15913489534987985 -0.07447675918325526 0.07895528428912733
0.15905051978971976 -0.07389037741930682 0.07908589824357744
0.15849763635533046 -0.07286664463315003 0.0786779329637404
0.15902024035639753 -0.07334218273554662 0.07930112402032234
0.15847646509555044 -0.07227188505118785 0.07902186313058178
0.15800644656792315 -0.07132693768572836 0.07891133592081362
0.15851085113249824 -0.07173369101233716 0.07938394751170483
0.15801237672762766 -0.07075827944058016 0.07927260526923129
0.15752639155237855 -0.06977339913572728 0.0792369478365109
0.15799786656004544 -0.07019823550205487 0.07967127522105912
0.15708515212075366 -0.06877871384988334 0.07931665976141833
0.15761000677931777 -0.06916337042392709 0.07977583790621183
0.15710375558943876 -0.06821742995261922 0.0796282032898504
0.15685364068609567 -0.06730413261103148 0.07978827849058151
0.1571004133677484 -0.06776045074315772 0.07985973810809573
0.1564259973409194 -0.06624674272568738 0.07987607397497379
0.15682173533849597 -0.06668425658677003 0.08017705019177099
0.15629168417735995 -0.0650145585692452 0.08024506597762428
0.15658047740089256 -0.06559886035884079 0.08052264464750694
0.15621987752629982 -0.06444210378127052 0.08026070962967713
0.15626030917616257 -0.06387437074437997 0.08062103076008598
0.15649495322780946 -0.06432069525053916 0.08103472598224136
0.1563373689273356 -0.0631656957210242 0.08097573496898436
0.15643027798525208 -0.06190335478354051 0.08131730040076438
0.1564496847082762 -0.06256618382124492 0.08131738474171077
0.1565020339755101 -0.06030069410429988 0.08156018580160657
0.15663346920250829 -0.06098843223827392 0.08190954163123515
0.15664743820963045 -0.05881197118125779 0.08198864274314871
0.1567402935873696 -0.05948001204382275 0.08221761550623763
0.15693087166470082 -0.05833234360313503 0.08246087848782187
0.18005857127038033 -0.11102605009815657 0.08724665121990087
0.17982395938065715 -0.11033208314987605 0.08728755602094829
0.17956942282056468 -0.1093869690138686 0.08731415892443407
0.17934251560129605 -0.10832736688470847 0.08747242852015978
0.1784886284232238 -0.10740980755721348 0.08633718466293949
0.17825440331910342 -0.10644112521636788 0.08630492972653492
0.17775877323403333 -0.10548850605460014 0.08578311820653728
0.1774855399858239 -0.10474794002255362 0.08572991165878104
0.17707430954061074 -0.10390347106429305 0.08559145395092027
0.17664519331668455 -0.10304827088319196 0.08549387687466348
0.1761462041194536 -0.10217285833801076 0.0853929798055414
0.17562970469564318 -0.10125229105039034 0.08532341646634597
0.17519050749180975 -0.10053812812992743 0.08516151814052424
0.17524073813151497 -0.100410918869746 0.08579287570319015
0.1755420839855465 -0.10101892828772997 0.08580061645452623
0.174870662983004 -0.09992712491605277 0.08489413350018123
0.1744511004195979 -0.09905481618942155 0.08429424463912268
0.17405440764522997 -0.0978656008887836 0.0841698610916831
0.17369740876058223 -0.09690873340500755 0.08365723946309903
0.1735000189696699 -0.09616170004695465 0.0835943659446095
0.1731916187674829 -0.09531454438969575 0.08341150963136909
0.1728729027495342 -0.09447500524854571 0.08326413945954679
0.172529745924657 -0.09363103690655411 0.08312464820628172
0.17212610679610874 -0.09279591827265676 0.08298575801509821
0.17168693322191284 -0.09200601247124131 0.08284821770137128
0.17119197158250066 -0.09125542293586128 0.08263938694616124
0.17068393787448902 -0.09062029566920467 0.08218169591300276
0.1704835055383192 -0.09016964855484412 0.08236721300768562
0.1710004647681889 -0.09085751377769546 0.08283074511472864
0.16990099692381072 -0.08925816313662988 0.08211914439449255
0.16936263788323358 -0.08834880789482455 0.08194286839524711
0.16880301405716797 -0.08744574701877243 0.08169854531094017
0.16830867697539273 -0.08677355904113007 0.08129069611246147
0.16816996893773964 -0.08641940562709059 0.08154890948122916
0.168640096675445 -0.08702220114594533 0.08189917824489677
0.16764526828056184 -0.085714744283538 0.08139818966284613
0.1671433918973627 -0.08498382765296676 0.08127387290509942
0.1666176103416673 -0.08423701182737706 0.08111853165405039
0.16612025091607993 -0.08366060757691203 0.08076583362800463
0.16598447370629227 -0.08334346870228482 0.08104060694045247
0.1664760720814707 -0.08389425580634849 0.0813703363313711
0.16549625053095818 -0.08264839407475606 0.08091962627678737
0.16499780565893052 -0.08192587206662275 0.0808452727402542
0.16448304719337206 -0.08133560096150391 0.08041728809407962
0.16421610682591312 -0.08093918207426906 0.08048972923040158
0.16482231071580813 -0.08147875709828188 0.08120802751268788
0.16381858904178298 -0.08040265916774941 0.08052831750979968
0.1634285688160865 -0.07987785847394004 0.08053255130977836
0.16261110123403608 -0.07901109501167464 0.0802122831119861
0.1631707645221858 -0.0794980835542891 0.08058253740425488
0.1622114934128112 -0.07849346463462385 0.08041324605540356
0.16137905188157994 -0.07755084858533712 0.07993929105347249
0.1619749505580284 -0.07806532410030691 0.08068425738568562
0.16111289376251609 -0.07713518383062525 0.08011475835257682
0.1604679559319244 -0.07630837780670308 0.07989624797466638
0.1609092296171005 -0.07679339241243142 0.08022349335575156
0.16021000320199924 -0.07579125697037033 0.08001707810674376
0.15976316261489207 -0.07494740060560984 0.07983929608719975
0.16008696329274832 -0.0754218972552978 0.08014597545285225
0.15963527258146143 -0.07431309597892348 0.07989558814264101
0.1595006638665979 -0.07375106868330054 0.07993274125354637
0.15912321311959718 -0.07280109189758606 0.07978135577922452
0.15946946557359212 -0.07333428847041056 0.08005494122108235
0.15900352041783064 -0.07213314022652809 0.07993162763927072
0.15865098945323172 -0.07120198176752596 0.07990590773017404
0.15898792484104324 -0.07168467638174385 0.08009213318445334
0.1584753826006281 -0.07057792845397493 0.08014430148044643
0.15819326392109162 -0.06964279462666849 0.08028210400306075
0.1584160823309506 -0.07012987293886591 0.08038260923342223
0.15766369978496822 -0.0684892107936142 0.0802964595153766
0.1581987275166321 -0.06900577181679843 0.08073761086231379
0.1574266434424451 -0.06796221109575787 0.0802246072459618
0.15736281346274325 -0.06751168780646354 0.08047771842757809
0.1577859979800404 -0.06791111710315349 0.08095109793956065
0.157234626303573 -0.06697228709884687 0.08066240170003869
0.15693661501429382 -0.06615287715447475 0.08078987166687045
0.15709768415333997 -0.06658460190444063 0.08073192041956943
0.15678626206492766 -0.0649296059805082 0.08135048682838995
0.15698290192029368 -0.06556695882060729 0.08126904612858767
0.15666224790412864 -0.06349714864023707 0.0816642114879668
0.15686370309122308 -0.06414115414578181 0.08201471809850117
0.15660782066907175 -0.06284101179397165 0.0816826593579753
0.15668698081841387 -0.062244410501786716 0.0820319996062923
0.15687686556500519 -0.06276670386250428 0.08243861637257517
0.15680499628521938 -0.06149608611508097 0.0823718996402794
0.15690964855150433 -0.060153547425269384 0.0826484628302063
0.156945971715042 -0.06084888485208245 0.08269407428784709
0.1570288797150643 -0.05869110063406449 0.0827893782539134
0.157092097281194 -0.05924815706464735 0.08313614400472995
0.157213979309443 -0.058323436822307076 0.08305396067985864
0.18051095321507904 -0.1113208768864613 0.0878766218469746
0.18046423113944254 -0.11093974854542964 0.08803922852323667
0.1803206098681324 -0.11024346584217698 0.08820217825004867
0.180187552901246 -0.1094262576112167 0.08836748626973359
0.18012444122858323 -0.10872604609049667 0.08861085078743804
0.17890893223509066 -0.10731345436515623 0.08716297321661134
0.17963756355478555 -0.10760773461905548 0.08833016518285262
0.17883985612251585 -0.10671667550583216 0.08733630856825192
0.1783200262259498 -0.10565996401726217 0.0869275446718945
0.1777177295455493 -0.10461979173275636 0.08648959293605762
0.1773644536017914 -0.10388765628487327 0.08649162827737265
0.1768769298766268 -0.10305636884256998 0.08640678366128765
0.17638201495800737 -0.10223754930998488 0.08638171483075331
0.17590854354022978 -0.10155649651322121 0.08617620480820637
0.17586528103966684 -0.10132708157725126 0.08662165913999331
0.1762915558357818 -0.1019723859007386 0.08680309766209926
0.17555107441881648 -0.10069522107440555 0.08670957351900892
0.1748086517117483 -0.09960244577648555 0.08527321835267165
0.17505893614360035 -0.09978188677627503 0.08625685587166222
0.174525594563207 -0.09882783367005761 0.08521248152659427
0.17466903336407422 -0.09866404349487896 0.08623592316293546
0.17428867829384367 -0.09799761993683222 0.08520429725217737
0.17393724840537986 -0.09694425020715489 0.08470957455760815
0.1736131091449156 -0.09592717425026405 0.08427265387784852
0.1733860759938032 -0.09518711491037571 0.08422344334936678
0.17307747499344275 -0.0943630879011525 0.0840839903594938
0.17275476466484357 -0.09354777246842749 0.0839939870598485
0.17236148041794527 -0.09273905576966432 0.08387780965559308
0.1718977767093284 -0.09194463521601588 0.08373219449989852
0.1714187949147727 -0.0913195793096555 0.08337228137190485
0.1712803887387813 -0.09094808418257617 0.08362955905666579
0.1717738349703043 -0.0916010779027013 0.0840334463887811
0.17075686785104718 -0.09007408910937903 0.08338841767254106
0.17022175570295123 -0.08920334754268662 0.08320053675972947
0.16969594507842856 -0.0882504631984107 0.08303686523958241
0.16907828222438834 -0.08748026962798218 0.08249149268904753
0.168809821957838 -0.08700619491125769 0.08252087907769087
0.16948599341116136 -0.08767472604759197 0.08336594115209375
0.16839580832476772 -0.08639918376813835 0.08246456376389463
0.16791391185478502 -0.08573159759542365 0.08239204456549787
0.16741141980086413 -0.08497678714488442 0.0823304809621394
0.16688907991217453 -0.08432229862130436 0.08191683474265925
0.1666566897196971 -0.08393306865090631 0.08203245170897931
0.167216841199122 -0.08458765831380435 0.08275475272351458
0.16626763186373683 -0.08334363374188011 0.08203113337429163
0.165787632981945 -0.08266082764784116 0.08196365352682629
0.1653843807247689 -0.08206861270703827 0.08193540874706097
0.16463210324764363 -0.08107354435408776 0.08164725916516691
0.16514928156515074 -0.0816784719083301 0.08205104856409656
0.16412400880904227 -0.08037869902597063 0.08164108379438487
0.16361599108631955 -0.07982131092647615 0.08119282913534036
0.16336656935046112 -0.07945423682332538 0.0812895853736422
0.16394554070184367 -0.07998608534424333 0.08204650830212838
0.16294916368802062 -0.07900343474592982 0.08137647131850659
0.16252449112547188 -0.07857174179617443 0.08144629698372513
0.1618115236065644 -0.07764386466881813 0.08120614512529571
0.16229807553350445 -0.07822687169756533 0.08159092882157874
0.16129497089715902 -0.07710166781393518 0.08083457369291952
0.1610821025379032 -0.07675305004836537 0.08097732141948058
0.16164177738827207 -0.07724347992128314 0.0817186568932578
0.16083395701028902 -0.07620870990095818 0.08107178907010543
0.1604629347308456 -0.07569822995249122 0.0807138896247021
0.16037429629169528 -0.07532606174814381 0.0808401530976185
0.16084115589455902 -0.0757912623382319 0.08152656209120596
0.1602277289115866 -0.07477786558164115 0.08087677516503022
0.16002937200857648 -0.07411830841656511 0.08082878182441255
0.15979302580396157 -0.07362226870016989 0.08053099503167194
0.1598352582329755 -0.07323165800466877 0.08083040850194295
0.160110944624393 -0.07372454838021267 0.08109630680612577
0.15963528929503576 -0.0724807631085488 0.08087355158023538
0.15935789813764836 -0.07192889666097196 0.08057401636383511
0.15929680032653218 -0.07149792933833121 0.08076157892109048
0.15971465171554813 -0.07193971696919611 0.08132637966703538
0.15910940078724972 -0.07087264070889376 0.08096959705794382
0.15877388250580485 -0.07035643032521849 0.08080073570308599
0.1587502755092232 -0.06993085822732337 0.08104014315640039
0.15917790190152079 -0.07033147120313198 0.08151101141308399
0.15867584901715273 -0.06941131330192477 0.0812284508138375
0.1583017810842199 -0.06845069651136004 0.08141321277362343
0.15858752797416076 -0.06896364434707664 0.08146207213632382
0.15777213764533204 -0.06723039177752767 0.08147120776414654
0.15825723860381624 -0.06780503452293547 0.08191530615061966
0.15740300814873648 -0.06653265310413431 0.08138637302622015
0.15767143842697856 -0.06616734906215199 0.08216902984846122
0.15793498910765003 -0.06665125090347657 0.08230518008744672
0.15731133865936006 -0.06589855496248258 0.08169536446482936
0.15722322911334938 -0.06528560299914575 0.08204454516982504
0.1576589937638158 -0.06565254396590785 0.08257445475619624
0.1571437412867589 -0.06462480900124862 0.08239495440076912
0.15706291519491214 -0.06344042221535953 0.08281692939724071
0.15716623214546385 -0.06406875373247076 0.0827788576014566
0.15705767272505142 -0.06188244853135919 0.0830907755022314
0.15721282949973697 -0.06260308629951188 0.08346966057709958
0.15710329542613444 -0.061154389568508744 0.08309792526592302
0.1572034826264541 -0.060506831849029774 0.08339755582676739
0.1573552367805141 -0.061069729022457615 0.08387584869573703
0.1572911441987091 -0.05965877665066379 0.08366847952507314
0.15733574588978957 -0.05870322511854574 0.0835480381045141
0.1573816746039418 -0.05906354044590497 0.08376943911179292
0.1806634867569129 -0.11062668891459716 0.08862375771403351
0.18068096242143067 -0.11005456487035915 0.08897492036514282
0.18068302711253453 -0.10939883808264532 0.08927273403085267
0.1804818786409476 -0.10859660557732273 0.08940335188316373
0.18024899625851437 -0.10782118790189812 0.08950355591582171
0.17908764084083684 -0.10652157983481414 0.08796674693014098
0.179690959056396 -0.10670146263175778 0.08912236923970708
0.17889400669081873 -0.10587705999967387 0.08807833075507354
0.17823241861738714 -0.10481738696960782 0.0876000293146715
0.17757826636298715 -0.10380519629821762 0.08722801620359742
0.17720350156256565 -0.10314942565970149 0.08734768109236819
0.17674760463167047 -0.1024890548285557 0.08719724268637875
0.1766954070737347 -0.10222148290446158 0.08762420588441408
0.17716500554993186 -0.1028920493646984 0.08780594751159658
0.1761897476195463 -0.10140922911774693 0.08757395776853417
0.1756875543964223 -0.10057653285098263 0.08742578056559615
0.17520659650473044 -0.09967978504835272 0.0872514525902376
0.17491379737611495 -0.09888696906906361 0.08726320517354008
0.17430790909328772 -0.09767606733710205 0.08573166579804649
0.17449893451622028 -0.0977620389025973 0.0867970495222653
0.1741601776862412 -0.09700923128787556 0.08576622575167785
0.1738304945026629 -0.0959878784462396 0.08528448070815144
0.17349986632689013 -0.09499398556802365 0.08488220359884537
0.1732593137225251 -0.09428954244484346 0.08490951518036287
0.1729240914649735 -0.09347913645307612 0.08483629645613956
0.17255579917132743 -0.09268523064757914 0.08476608647174705
0.17218117705462854 -0.09206518450472544 0.08453093226577992
0.17204970907842157 -0.09174591310811127 0.0848421691372535
0.1724761619697654 -0.09238082510644303 0.08514968104079676
0.17154796285480628 -0.09090589923125089 0.08462810515392243
0.17105841220792622 -0.09006007330421767 0.08443880771926403
0.1706223173597964 -0.08921056687600158 0.08429161648926739
0.17026365434016602 -0.0884385666980467 0.08428144881015213
0.16914186671659387 -0.08708851640721921 0.08345173420731289
0.1699423775212734 -0.08779735239814512 0.08439109962803933
0.16873381692285852 -0.0864527683459898 0.08346661585197541
0.168236691409114 -0.08580442469703038 0.08344553748681018
0.1677999493545079 -0.08523637250510756 0.08346350179047905
0.16704323502503665 -0.08417557934352866 0.08317212130828887
0.16755442726972164 -0.08486168151399484 0.08359625358096516
0.16654305930336918 -0.08337824731786189 0.08308307230079325
0.16603552162690685 -0.08264352151813303 0.08297736587921427
0.16555993226911905 -0.08208557439082209 0.08264184876059813
0.16540947485765833 -0.08177455236566987 0.08294592161571095
0.16587776076162586 -0.08232795349513769 0.0833082918341375
0.16492487788357252 -0.08108895884588856 0.08280469430373556
0.1645249056545857 -0.08054573552607634 0.08280067765868628
0.16377711986558338 -0.07961876011462672 0.08250234818693669
0.16430264304340395 -0.08019510708859455 0.08293637121687825
0.16319058518402274 -0.07903168530214036 0.08247123327458276
0.16270313544654416 -0.0785810850956505 0.08217321176062607
0.16259755309385143 -0.07829065305681512 0.08249844546926918
0.16303740665973068 -0.07877951527858361 0.08283907956159077
0.16223231046982697 -0.07774351998022234 0.08245965780952438
0.16154376310425367 -0.07687814325337043 0.08221479815586635
0.16202391289127047 -0.07738869964690794 0.08262123525136773
0.16127667018740255 -0.07632242971571405 0.08223798269667258
0.16082617226663928 -0.07538092886948053 0.08200264152856096
0.1611662469866012 -0.07594147084848278 0.0823861455620071
0.16061476643679518 -0.07464953973038556 0.08200044545335541
0.16038992304124156 -0.07405854033430383 0.08161138925901239
0.16038964554535073 -0.07365233517508378 0.08178716783674453
0.16074523806676777 -0.07419092150369906 0.0824615672047401
0.16024649124625548 -0.0730577094730516 0.08188781550100283
0.16010101893239448 -0.07244592969221851 0.08195612623116154
0.15972424072778477 -0.07144759967726927 0.08183238181381354
0.16000421477739366 -0.07199726369373055 0.08209341853303284
0.15958503100224722 -0.0708136713743793 0.08202968365391121
0.15920835391124022 -0.06978674253331142 0.08210196107937173
0.15951635220178464 -0.07036501135667605 0.0822526449251096
0.15889501723333832 -0.0692286933102092 0.08191161100360042
0.15881449016846436 -0.06877670916050117 0.08217651106027293
0.15922762859126746 -0.06919839256613691 0.08274383985298511
0.15870007662848148 -0.06823544035015955 0.08241574815743602
0.15837096966001593 -0.06724340095485533 0.08267479508421702
0.15861977556077284 -0.06777924008408327 0.08269922272975323
0.15802266343668048 -0.06611509678753147 0.08297553155711246
0.15835754764134002 -0.06662011483680404 0.08327293438720251
0.15758625006101643 -0.06494879940607101 0.08308029951668784
0.1579931421881419 -0.06552809844085802 0.08353902132553165
0.1574203811359265 -0.06434166839319451 0.08312490234904842
0.15741371910192833 -0.06381059360896249 0.08347828829466102
0.15773258114929362 -0.06430530343995873 0.08383267160007192
0.15742368045650829 -0.06313829751355948 0.08384608816891376
0.15750380769547165 -0.06182424973181901 0.08427029314353265
0.1575636158052236 -0.06252148148024915 0.08425500371629711
0.15759324193835306 -0.06008082392685429 0.08449479822312812
0.15770411619345753 -0.060907890225332786 0.08486081766789098
0.15767207945284384 -0.05912096250661386 0.08445554878348606
0.1580671120804705 -0.05886843820920125 0.0854570667644814
0.15804474060179335 -0.059275372485181804 0.08548688179526964
0.18092215831998334 -0.10972437111900481 0.08960297956389643
0.18091531412268463 -0.10912125462220967 0.09002700249215279
0.1807643496937115 -0.10842010453455823 0.09025840955649295
0.18052325044224957 -0.10759365994119152 0.09025796173474862
0.18022714570723153 -0.10679007491192789 0.09027600195325639
0.17907441396397802 -0.10560961792292066 0.08866129907602999
0.1795159986699242 -0.10564978281367512 0.08971358090182183
0.17877237295125634 -0.10496333124284818 0.08867114702837776
0.17805611339599972 -0.1041145612046758 0.08816199980743694
0.17763590320618708 -0.10346881740407442 0.08818595674730963
0.17766925508625678 -0.10321574178173709 0.0887068826663817
0.1782104417309362 -0.10398812446046604 0.08885344043353074
0.17706047109799194 -0.10228218094861959 0.08864490071462217
0.17647907010523414 -0.10137921315890228 0.08849911922149227
0.17591604465123664 -0.1005110343576489 0.088332400617094
0.17541780573583204 -0.09962704707442017 0.08815681805971745
0.1750216323294243 -0.09869872895175964 0.08798786157230935
0.17469832052596987 -0.09783777962206387 0.08791398474162852
0.1741495785253399 -0.09669176798864476 0.08629563863603025
0.1742734643066902 -0.09667627879482082 0.08732213636807241
0.17398726048321125 -0.09602931690085677 0.08629111934387436
0.1737000712853754 -0.09513501288269768 0.08578648927839745
0.1733844772262835 -0.09418519000583572 0.08572156408866548
0.17303974353974852 -0.09341236946038223 0.08559667819164841
0.17278181664494077 -0.092865536553885 0.08554120526883592
0.17271367526937703 -0.09257942714719437 0.08593925705277072
0.17307027599202549 -0.09326533170791071 0.0861297612494871
0.17228478497423771 -0.0917261912403366 0.08579622729149528
0.17185246850245778 -0.09087295100983293 0.0856209213423349
0.1714068637495621 -0.09005191862803365 0.08545769155808675
0.17101882512870442 -0.08924941245453927 0.08533520429572965
0.1706839997808773 -0.08852151202445048 0.08530919314778398
0.16959882426167777 -0.08718477933278687 0.0845072977678089
0.17039405200894936 -0.08791282305329644 0.08541634542099001
0.16914231497791907 -0.08650954528827329 0.08454461389497073
0.1685773438145218 -0.08581923307565714 0.08448327216470518
0.16801743389778728 -0.08529060157078669 0.08415412699142177
0.16787671756908037 -0.08491980996666461 0.08441932059219193
0.16842219837084565 -0.0855101049571202 0.08479493355460015
0.16731831274441014 -0.08413221680243803 0.08426284957214754
0.1667610507193559 -0.08336760233970504 0.08414267416288702
0.16628227910115598 -0.08275426604985359 0.08380977782886274
0.16618985531788963 -0.08247498271208185 0.08417533209338292
0.1666382947214204 -0.0830670540024183 0.08451528199166518
0.16570791320378356 -0.08178013638952836 0.08401234607685136
0.1652294536186868 -0.08108695364148581 0.08385755794258806
0.16474199307801912 -0.08057488223440645 0.08351843189402446
0.1645775956133967 -0.08027206503730226 0.08381156716156286
0.16510643252703314 -0.08078892197385334 0.08417929535918296
0.1639944122878246 -0.07958785295043158 0.08363779423745263
0.16348262286965587 -0.07910682890418602 0.08333435147918809
0.16330333963845012 -0.07886781510049322 0.08368874881182846
0.16381668228550927 -0.07931966001163664 0.08400683173863968
0.162801000787179 -0.07824776700077217 0.0835172598104875
0.16241348279004914 -0.0777212786310067 0.08317183607430434
0.16222333385584975 -0.07743442548057991 0.08348812730447813
0.1626408707132772 -0.07793974118472172 0.08382256633784728
0.16177685371310754 -0.07682125826812944 0.08335421613829518
0.16146474318528897 -0.07631677001199257 0.08299533280361476
0.1614375551806872 -0.07597880901179696 0.0833152367881185
0.16173790701926158 -0.07651389311821245 0.08370501001593464
0.16118536468900269 -0.07530161576310217 0.08319849496827579
0.16109126403685092 -0.07473207275400419 0.08319051445200963
0.16083252986945148 -0.07371963964156679 0.08297603088276964
0.16111337861925637 -0.0743356778334279 0.08334262855017488
0.1606331840270776 -0.07292098951808647 0.08303271184957414
0.16030482413799518 -0.07232214149158042 0.08266142060399534
0.16021195072226602 -0.07187636605525691 0.08282369396509273
0.16061704707632818 -0.0723989627543659 0.08348571144257792
0.1601022973633149 -0.07122522336281686 0.08298946423698118
0.15980659235859654 -0.07067276640099085 0.08274686002682881
0.15972595977731446 -0.07025087901581425 0.08299589161356476
0.1601138247074749 -0.0707303001164619 0.0835413855004942
0.15966485420412801 -0.06970103595988417 0.08333114756040941
0.1591951911633787 -0.06857703407436112 0.08322807374193497
0.15964757871314111 -0.06914033375285587 0.08377558047985957
0.1589278570216825 -0.06803675230502246 0.08312543850050154
0.15884065527327315 -0.06759546953797786 0.08341976126135273
0.1592228963676121 -0.06804377351713804 0.0839223446267697
0.1587152256989495 -0.0670667888242632 0.08369481883608068
0.1584051669559671 -0.0660839392233708 0.08401116534713718
0.15861089109956855 -0.06662869203351454 0.08401240127312262
0.15797746065308127 -0.0648938731272909 0.08413801985126175
0.1582930555956822 -0.06543376656647602 0.08448988040862979
0.15776483163370275 -0.06357302964460017 0.08445230560076265
0.15803858011223984 -0.06425694810728369 0.08475953323202734
0.15773836447329076 -0.06286523401258048 0.08457548049332847
0.15784307936691913 -0.06228886633361796 0.0849533884755425
0.15797916192969577 -0.0629010238273228 0.085256678197713
0.15787855591901756 -0.061510376286361544 0.08527767216539134
0.15807289867671545 -0.060140405306168127 0.08566828824049665
0.15793917847137348 -0.06086531297509194 0.08549822408758116
0.15838483730591904 -0.058870239631702924 0.08635634178327706
0.15839428461806876 -0.0593606018881089 0.08627692158432022
0.18101798456137488 -0.10860941545978406 0.09084880223528474
0.18091340644974613 -0.1081063589612021 0.09089828736003991
0.18073680103783882 -0.10738150401606743 0.09106054398384306
0.18034953853264268 -0.1064543483485132 0.09095909217726207
0.17992116105208766 -0.10560624671343978 0.09079476216155216
0.17873982922545753 -0.10464156123158798 0.08910662408000455
0.1789582385022699 -0.10446478767034993 0.08997037366107136
0.17817106066865418 -0.10323701476545745 0.08983844993848002
0.17745293024211692 -0.10225934278469412 0.08966446740444885
0.17682074958322616 -0.10132449064489615 0.08945978105855318
0.17618320565201603 -0.10043077155717951 0.0892465573546317
0.1756104133554863 -0.09951701691071288 0.08903014088203963
0.17514717497702564 -0.09858352776725653 0.08887602255134446
0.1747198044488008 -0.09753451091487093 0.0887270454256785
0.17429424259225804 -0.0963872125914557 0.08839633744388815
0.17394698251266486 -0.09564198587857073 0.0867015268193965
0.17398714465596996 -0.09555569773966503 0.08748217157722434
0.17369845582568935 -0.09483069515926047 0.08658641912705896
0.17369867567492683 -0.09454821153433576 0.08734432867560675
0.17340295823453283 -0.09395230515960848 0.08642186697468145
0.17330665545363227 -0.09348692480925673 0.08698394956376757
0.17291586802502243 -0.09254696173013255 0.08691080645134258
0.17252291592245952 -0.0916620698197009 0.08674310902714248
0.17212752069760504 -0.09082642898856412 0.0865747890781475
0.17174185039559656 -0.0900267709990804 0.08642653226690672
0.17139584247377238 -0.08924305899473171 0.08628955089476273
0.17107584664904527 -0.08855751971341394 0.08620870404360077
0.17014180445601684 -0.08735926442158029 0.08577147546322123
0.1708249965519129 -0.08808312764776413 0.08626982064969177
0.16944587458627022 -0.0864842911051239 0.08562457888094684
0.16888526293696077 -0.08590172162618626 0.08528415724412469
0.16870160315868343 -0.08556983587920401 0.08557057862048213
0.16923176488737657 -0.08611716290762192 0.08590401511764251
0.16812032769585583 -0.08484520777357837 0.08542391605020684
0.1676009642550469 -0.08411178912383749 0.08534432407535537
0.1671041684617667 -0.0835208028289359 0.08504685179816958
0.16701740656814942 -0.08322898970098801 0.08540565316722669
0.16751527100201202 -0.08382087532121811 0.08574227590641612
0.1664994944790934 -0.08249451090995029 0.08524181188473737
0.1659592485036055 -0.08177823133481187 0.0850509481380287
0.16550328791853022 -0.08118730625592674 0.08468506209893364
0.1653413023860321 -0.08092654412166035 0.08505275228198267
0.16582353374669137 -0.08148900983458791 0.08540032730548153
0.1647249794556439 -0.08026369359116854 0.08487947839185792
0.16421050866300943 -0.07971119255291148 0.08451414251787827
0.16400847538541088 -0.07946663483209242 0.0848730427239104
0.1645301293508329 -0.0800014442630106 0.08522750807205728
0.1634207208052155 -0.07885126165310924 0.08470017569680179
0.16297657245394248 -0.07833623056338461 0.08435341181950816
0.1628308281514331 -0.0780421941683691 0.08466173562682192
0.16325800842169194 -0.07858390038332415 0.08502554714250762
0.16235866665421436 -0.07738357091783273 0.08452064353528548
0.16201339972298623 -0.0768841577127429 0.08422640220407883
0.1619946217302569 -0.0765787361555437 0.0845463367333005
0.1622689111686514 -0.07710653129367466 0.08490533059579286
0.161750554547648 -0.07587213780038138 0.08437574710763458
0.1615671482985611 -0.07520531140674795 0.08428252060768875
0.16137498211833165 -0.07469391755789286 0.08393527110300558
0.16143850839263474 -0.07433009224014943 0.08427949597953904
0.1616670377767748 -0.07487072109876314 0.08465270196505649
0.1612386640220912 -0.07357959276550781 0.08419561509619392
0.16106366533883792 -0.07293537833968206 0.08420706813594946
0.16066643814527584 -0.07188243314330756 0.08399523691676265
0.1609648567056782 -0.07247343655441947 0.0843274036325787
0.16053779091654774 -0.07122188349306992 0.08414716963910583
0.16018246046203502 -0.07024280721326727 0.08411204816709955
0.16048223118337848 -0.07077568302379429 0.08434417338389284
0.16004777277350365 -0.06963372338030381 0.08433106845729123
0.15971022490660727 -0.06861812151549981 0.08448502843308874
0.1599837209046217 -0.0691937741907571 0.08460554156374853
0.159149421049566 -0.0674288708532922 0.08441882339911073
0.15960805220254543 -0.06797066964700647 0.08490384800660454
0.15886206457999458 -0.06691176243575452 0.08438821677396671
0.15877833818544804 -0.06647022842244395 0.08472084828158175
0.15915699369374411 -0.06694104798730754 0.08507721649163942
0.15861897714873635 -0.06586706321958347 0.08500342306289918
0.1583192035254719 -0.0648441244773406 0.08515970226106169
0.15845317687969998 -0.06539558041892812 0.08512080511082191
0.15816781787386783 -0.06362240424067536 0.08553497025525993
0.15828062238633556 -0.06425119380441272 0.0854352790819569
0.15817127852964444 -0.06215406048296269 0.08602852647504378
0.15819264376790282 -0.06293443532593404 0.08589944014153658
0.15819548321138863 -0.06093770440972017 0.08617155518245907
0.15861056626937514 -0.060541305012237395 0.0872024931003437
0.15841407260819554 -0.06138429657881416 0.0868612800455523
0.15851934998399006 -0.05991868984891922 0.08667859941339581
0.1586486934008426 -0.05919514269618016 0.08702402633005366
0.1587953179346973 -0.05973245616338758 0.08753919197466362
0.15866394988932225 -0.058835860151197274 0.08720092577428892
0.18097796361243917 -0.10792999944548975 0.09139010610228425
0.18075677310747487 -0.10690333029428636 0.0918553736237346
0.18042742607853557 -0.10612048097086998 0.09160568563696253
0.17995841281756253 -0.10526858488381803 0.0914844105103404
0.17923398255487297 -0.10416323334287579 0.09112926724617211
0.1785304463724812 -0.10312925450740698 0.09085940919224951
0.17785497949295725 -0.1021758110167722 0.09064982871365698
0.17714143017974152 -0.10123850298497009 0.09040640411096297
0.17645367056309424 -0.10033554843969117 0.09016056134035806
0.175822744423058 -0.09942766311192343 0.08993310316859289
0.1753037200342126 -0.09850540812284461 0.08979776294808565
0.1749048172635641 -0.0977616900001208 0.08958978637293664
0.17492883738288403 -0.09763139717464432 0.09014495189624089
0.17517168758969034 -0.09820028019262697 0.09018327967842296
0.174610514008663 -0.0970408702373056 0.08931178976036856
0.17462122542168337 -0.09676280376412288 0.09005220548436797
0.17434585245212905 -0.0962653095006336 0.08913376968983028
0.17401812208733852 -0.09529792186121068 0.08853576624476597
0.17367652813456377 -0.09419758896853447 0.08799400857642789
0.17342496571301758 -0.09335379803097953 0.08799709490335665
0.17308253415791644 -0.09240691428918314 0.08782865676053977
0.1727454702662228 -0.091543725100142 0.08761696162551103
0.1724185030935458 -0.09075690554586079 0.08749309007502565
0.17206449179984556 -0.0899736443883868 0.0873514978880099
0.17170754921017872 -0.08916201013828037 0.08718566459207903
0.17127763577204932 -0.08852154486193999 0.08683791131078572
0.171090295738814 -0.08811991013446065 0.08710321975190508
0.17163010855154467 -0.08876562779691749 0.08746267309400015
0.1703899869035113 -0.08722991822309414 0.08694279562703452
0.16971948981012977 -0.08651450065661542 0.08646768555730718
0.16940212280888045 -0.08610297004990321 0.0865679716812682
0.17010597815344508 -0.08670567020164838 0.08735622611688572
0.16892898202297726 -0.08551092242059286 0.08653718706197941
0.1683759901246461 -0.0848370374974303 0.08647494503794598
0.16791940249352655 -0.084266547302449 0.08621283838965095
0.1677926049600268 -0.08396425028069578 0.08656729346820367
0.16825124030377908 -0.08454943559923526 0.08684457397740519
0.16724865889691462 -0.08324171538274315 0.08643489952895754
0.1667419182547675 -0.08250763616396312 0.08630423398789122
0.16626179884450762 -0.08193124612787411 0.08596288114340127
0.1661092774027662 -0.08166121147708558 0.08631994856778262
0.166617345024843 -0.08222932119948476 0.08668529226895128
0.16550442766831794 -0.0809532483746782 0.08612863187506305
0.16496939715842074 -0.0804145264753159 0.08577213653521241
0.1647313464434917 -0.08012803019244098 0.08607979927727495
0.16530729841578448 -0.08067094074174057 0.08646542471068823
0.16406802685793562 -0.07941621019593466 0.08583325188522471
0.16360865910089364 -0.07894212801475323 0.08548878414997059
0.16344709807884758 -0.0786877393560723 0.08583924188718918
0.16381656334895733 -0.07910574302495994 0.08595370744414296
0.1628961870986631 -0.0779461808475153 0.08549170172337626
0.1625585559847107 -0.07747823660563127 0.08537094125144262
0.16251965853691697 -0.07720718422627812 0.0857749339873044
0.16285129118291086 -0.07779056499530466 0.08606058559969028
0.16224531138895815 -0.07647892109163643 0.08554219121935892
0.16206135618575448 -0.07578786851950231 0.08542321455373911
0.16191782782165956 -0.07524528040617066 0.08516890888067016
0.16204063256059623 -0.07491742146059466 0.08555338768655957
0.16220969509837851 -0.07548540949567176 0.0858542417464656
0.16186394946879185 -0.07417031787089376 0.08543244421862503
0.1617142997405922 -0.07339387521516366 0.08536747512033967
0.1613650914526195 -0.07279699098407992 0.08495039047974937
0.16130798413310432 -0.07232701546282104 0.08508577029465995
0.16179430601362374 -0.07286327343173553 0.08579196646883862
0.1611517591632835 -0.07163800788495771 0.08519275995205534
0.16082472702411896 -0.07107106299669118 0.08488116392378241
0.1607342523086126 -0.0706396317308792 0.08505317982324831
0.16114346219176898 -0.0711149512411687 0.08565697981833813
0.16054260761514696 -0.07002900762179849 0.0851894712322933
0.1602847544208844 -0.0695034039795622 0.08504274940210775
0.16029910629495703 -0.06906624575362831 0.08548082841336764
0.16058944289450838 -0.06961274629069378 0.08565547978858867
0.16003141631928616 -0.06835163434817798 0.08552161751196183
0.15958647977011708 -0.06748432594561946 0.08546990269727603
0.1598447116754954 -0.06792532553130626 0.08552651426565887
0.15913286494919865 -0.06638371010617662 0.085802904672504
0.15940506649259284 -0.0670018749232574 0.08569000526328296
0.15870460300175174 -0.06539179421826521 0.08585010121167408
0.15898176586726764 -0.06508674489990787 0.08693664951086477
0.15916106070536512 -0.0658091335366703 0.08662060882100793
0.15857744040133637 -0.06430038796961259 0.08627230653969323
0.1587284127502652 -0.06376699543888 0.087196663925315
0.1589322143392754 -0.0643690878077502 0.08738450083886624
0.15848915198447946 -0.0630835429450302 0.0866757675701185
0.15870992680332913 -0.06260961739660048 0.08757434961557717
0.15881638979310245 -0.0632025881441196 0.08768535379126842
0.15852039548155797 -0.06207974766476771 0.08713315022242445
0.15872756757084486 -0.06120096674293512 0.08769871171264403
0.15880634895360216 -0.061945071191733043 0.08803059168423613
0.15895253500896078 -0.060285717207361186 0.08805842356089509
0.15885906779624753 -0.05928697719120505 0.0878388199891967
0.1589625460573936 -0.05969733892505679 0.08810895189594861
0.18079878564509036 -0.1066658566741193 0.09267891752275177
0.18056771224541096 -0.10610765963890462 0.09249448416092577
0.18009289833412526 -0.10495152412595685 0.09250493642427872
0.1794065636427333 -0.10389073887447113 0.09191555592213874
0.17891495068634586 -0.1030534482242394 0.09184491317889283
0.17826420229234688 -0.10208766892291295 0.09164266102077356
0.177479001108019 -0.10114496562575159 0.091349151562412
0.17674281875538414 -0.10024016871164429 0.09105699831783205
0.17606919354867562 -0.09939412401385332 0.09086390824055447
0.17554429863345072 -0.09872913353702938 0.09059644954754437
0.17553328934659693 -0.09846504017215557 0.09104046625491338
0.17598302281389336 -0.09911929748699 0.09127053585367709
0.17514922793740978 -0.09766786291111375 0.09100198219648689
0.1748771577504609 -0.09696878421299367 0.09101064513005983
0.17430180528692782 -0.09589862168799357 0.08953265571147048
0.17449244505296624 -0.0959520771305636 0.09054161794603081
0.17415277258014644 -0.09527138483266309 0.08952124289302221
0.17385709325309884 -0.09432314251219427 0.0890415465037372
0.1735389478427488 -0.09312304248323786 0.08903256447911945
0.17318265259077223 -0.09216007120440148 0.08852841427339675
0.1729501656647542 -0.09146213520628481 0.08848481450190608
0.1726608657370006 -0.09069793453390007 0.08836833093270297
0.17237020802990555 -0.0899128864109894 0.08826334105637385
0.17202952204735192 -0.08923696600614908 0.0879471169533682
0.1719100863957512 -0.08887745958309737 0.0882715024407148
0.17234047575909184 -0.08954468813147473 0.08858816483044078
0.17138055267711444 -0.08808282368902477 0.08817202635500956
0.1709125438010678 -0.08740027624056015 0.0882227670093767
0.1697328087453074 -0.08617688977460511 0.08756558441151745
0.17054623086227877 -0.08686910383676702 0.08845001446057008
0.1691971902852813 -0.08552224537981987 0.08760806486494027
0.1686472317306685 -0.0849660768953515 0.08730589339447775
0.16848312642164723 -0.08466468596341789 0.08765694200186218
0.16898435297020825 -0.08521646818616112 0.08796002756655866
0.16796861938018842 -0.08397147616459748 0.08758734940175322
0.16744820657009468 -0.08327654284164525 0.08750852813270844
0.16700236872585592 -0.08268200864870452 0.08719845616538545
0.16685068870182249 -0.08240360866742093 0.08754365979392248
0.16731438155953254 -0.08300571206175651 0.0878869680363758
0.16624036726943073 -0.0816826404550392 0.08734217104151254
0.1657362462221977 -0.08109146767307127 0.08698205901630507
0.16544705708816673 -0.08080112478672419 0.08728998611258655
0.16600532232626142 -0.08138909559123496 0.08764420101472449
0.1646776028045977 -0.08007294306702507 0.08702959891318635
0.16405982715935324 -0.07937885442136874 0.08661209037651622
0.16419466429463775 -0.07962113135503474 0.08747084708628719
0.1643815572476688 -0.07980592648857661 0.08723902236431816
0.16376973013062082 -0.07906530787434034 0.08697762242618079
0.16367222811213966 -0.07887208925093817 0.08762101130583419
0.16402929300575508 -0.07941496456755608 0.08781432309677405
0.1632709667892328 -0.07839069375450083 0.0865100556453164
0.1631444943183933 -0.07798097650657125 0.08716592775810743
0.16275265249474447 -0.07705505146466164 0.08669592724181988
0.1624789313568171 -0.07637025468710591 0.08642178988630121
0.1623860363098797 -0.07589191852700512 0.08631608212128478
0.16254555870171208 -0.07559372163809629 0.08676396310623995
0.1626521469012918 -0.07620790239650303 0.08701496868619045
0.16243641238899195 -0.07479901423884401 0.08663086209187254
0.1623055713318598 -0.07404652396436268 0.08653014763769647
0.16220956606284 -0.0734187631472152 0.08650293179389165
0.16184869578899747 -0.07234658406677422 0.08628179226127043
0.16218365439743945 -0.07297786849173395 0.08665250775570424
0.16158960337545575 -0.07160493186907768 0.0863227934234656
0.16116238485277962 -0.07062466009982256 0.0861852895899044
0.16141606236209455 -0.07115169430043641 0.08631628965858859
0.16088536295126435 -0.06998541156217765 0.08605732097492068
0.1608673866262486 -0.06953702467724404 0.08653029506896748
0.16120658131140822 -0.07016393315524806 0.08674930618173032
0.1604565578975796 -0.06868624743639627 0.08652859950275775
0.16003068218583488 -0.06794304735955516 0.08618603153515234
0.16016387045049454 -0.0678093132161528 0.08701778696787969
0.1603025406231002 -0.0682182034154018 0.08680773612290757
0.15974106627511483 -0.06718506040562429 0.08646613428334604
0.1598742233408368 -0.0670461943805281 0.08737749202974435
0.1600254363110452 -0.0674324500527521 0.08719314298252266
0.15951070450193272 -0.06644911540822947 0.08693308425956038
0.15939174232002098 -0.06578250704305666 0.08757368512871637
0.15968786223681536 -0.06652094852849269 0.08768922445937037
0.15922496926008667 -0.06489191686525347 0.08783980828294616
0.1590055940911258 -0.06384199787188412 0.08798711857427442
0.1591302656614311 -0.06437004998261636 0.08794190817726019
0.158977486500288 -0.06267350574808732 0.08835882705818056
0.15901040100405478 -0.06328889799140094 0.08824741203300318
0.1591156534316496 -0.06105234430902009 0.08880978812607733
0.15902646268824835 -0.061971182816395215 0.0886576453680583
0.15911688657225556 -0.059940149826632635 0.0887649543064377
0.15938693640407725 -0.059814588445039604 0.08992954039165679
0.15933546808268595 -0.060280296631800054 0.08961691996861494
0.18074369687395053 -0.10636796516325303 0.09306553556490053
0.18055985746021175 -0.10569142964003432 0.09332651470351684
0.18049101119878833 -0.10515709880584027 0.09405090701547954
0.18035782152442642 -0.1050184090259494 0.09351723904287378
0.1798811721934626 -0.10409440559125487 0.09302215182570645
0.17924655269250062 -0.10299792541847641 0.09285747958169668
0.17856261201039872 -0.1019785286777994 0.09258651889298122
0.17777438931851386 -0.10101606837258953 0.09223055365304611
0.1769898381169437 -0.10018147075654169 0.09188099394792347
0.17651772862490972 -0.0996198698592195 0.09173314863682111
0.17654430730351195 -0.09937144653870345 0.09222892849031869
0.17713621811392036 -0.10007371355574715 0.0924859317816194
0.1759450033737461 -0.09851968109620436 0.09210959334641834
0.175408997406059 -0.09768125179708956 0.09193657250248116
0.17497812288275252 -0.09682015535315336 0.09172330988910377
0.17469994908287545 -0.09602494069584999 0.09160602882312921
0.17414506208618172 -0.09492117129622371 0.09003298116423471
0.1743553328065802 -0.09501741781379038 0.0910822137881107
0.17395187147348265 -0.09407705797432281 0.09007082440170193
0.17404996729254885 -0.09379984657961898 0.09104388006562068
0.1737332602035004 -0.09324164578163784 0.09006989129137316
0.17342214827688518 -0.09225837755015524 0.0895798760903034
0.17310653046424815 -0.0913394573518408 0.08918848264627971
0.1729403439347177 -0.0906918401393226 0.08925962721459975
0.1726815385628125 -0.09004101390676168 0.08905318750753737
0.1725576138184723 -0.0896982191067111 0.08939742082268941
0.1729222073463781 -0.09037324265155644 0.08965229621628897
0.17206476505165877 -0.08887469807888257 0.08928120082441439
0.17160365430998478 -0.08812588840034119 0.08921170022723802
0.17121327946402617 -0.08750840104640838 0.08922350652648442
0.1702307336954812 -0.08636714894997792 0.08894881454454737
0.1709341459052812 -0.08709595805788878 0.0893618718930168
0.1694896829443177 -0.08564878010769697 0.088532686981636
0.1691831220017457 -0.08524560017445262 0.08868116172731431
0.16992100038291225 -0.08586641446013005 0.089463963052598
0.16872528955480345 -0.08466784127524556 0.08869738883004533
0.16819182682457523 -0.08400990349858067 0.08865537420297634
0.16770876507076243 -0.08345429412178207 0.08838232559900273
0.16754595404977096 -0.08315591708707337 0.08872372930290245
0.1680572856238603 -0.08372852334798644 0.08903106681699886
0.16693519057101103 -0.08241097785821906 0.08853410737222753
0.16640368030168026 -0.08183309583995028 0.08817422924474513
0.16610408174481772 -0.08153425734761356 0.08850505276829085
0.16667111026792353 -0.08211464556130098 0.08886166092697255
0.16534956645832713 -0.08079279727236985 0.08830897332743312
0.16468464504584068 -0.08017365149762501 0.08795440153255958
0.1648769749337369 -0.08038038403030119 0.08876757480636167
0.16507382463854095 -0.08057052773328698 0.08857102031051707
0.16440748859916077 -0.07989286520313103 0.08829039744153248
0.16417613128451872 -0.07954883019532553 0.08868782158608096
0.16465026596445884 -0.08011760905222576 0.08901893226613558
0.16369392250362955 -0.0787804684240369 0.08853553263337664
0.16335793235209953 -0.0781838180057219 0.08826472409939502
0.1634301437102191 -0.07801799022166418 0.08882930194139738
