# .PCD v.7 - Point Cloud Data file format
VERSION .7
FIELDS x y z
SIZE 4 4 4
TYPE f f f
COUNT 1 1 1
WIDTH 793
HEIGHT 1
VIEWPOINT 0 0 0 1 0 0 0
POINTS 793
DATA ascii
0.1584993759163145 -0.16675379885877 0.08391550118137181
0.1589529108281826 -0.16638268042879462 0.08368139123500332
0.15918082737885259 -0.16577436081881916 0.08393922043140496
0.16003943565316164 -0.16511045961011728 0.08337761353231887
0.15963634808862626 -0.16513261892360037 0.08392836357169893
0.1600462515196026 -0.16472133525593116 0.08375719504802566
0.1603454684205868 -0.16412002197985362 0.08388117150796202
0.16056709947089937 -0.16334291461118655 0.08425640548526477
0.1611591361704846 -0.1628624723921545 0.08379247584436281
0.16139443874457024 -0.16212136867102736 0.08411849000718472
0.1616239535806049 -0.1613389854045775 0.08450893214148247
0.16222733206182638 -0.16084699164510102 0.08391608040194612
0.1624451954656298 -0.16012594879870357 0.08427227331584124
0.16282097646623953 -0.15947195218772084 0.08427648479192698
0.16298968746312667 -0.15884949358797623 0.08461164210443083
0.16358282720393869 -0.15831142152235364 0.08412632477102276
0.16381013461623978 -0.15751545636185987 0.0844538712368414
0.16394810379394684 -0.1568437814505917 0.08478301729170677
0.16480368178739713 -0.15597659405500308 0.08398184199145341
0.16432104931981642 -0.15608317285801282 0.084743797049825
0.16482920433543813 -0.15545073936644807 0.08431647595448276
0.16515476641115787 -0.15460006358526823 0.08425945315940733
0.1653552147128242 -0.15365541692952733 0.08450403093114073
0.16555639043398843 -0.1528408204624283 0.08466914174110812
0.16573138673788168 -0.1520341601120247 0.08485282882537261
0.16594024344668162 -0.15119759298382193 0.08507864130104228
0.16648467966817712 -0.1505032849107799 0.08440699371527458
0.16676236797279706 -0.14966181568846432 0.0846369691049536
0.16707399717004934 -0.14887423645394068 0.08486330875441604
0.1673815102375437 -0.14818556711113826 0.0851437215113783
0.16800234046647422 -0.14749721719683967 0.0845978182558424
0.16834252510581588 -0.14683607249237823 0.08495423675093997
0.16868824712592342 -0.14618364378154314 0.08533165524664921
0.16932602147106499 -0.14547614215027246 0.0848254247623043
0.16967523654684538 -0.14485080421803795 0.08511424289579017
0.17007637733030928 -0.14416674332286047 0.0853659035662872
0.17049174102983905 -0.1435123413964262 0.0855548011500303
0.17116069976022133 -0.14284457697016653 0.08502944645584873
0.1714259916954382 -0.1422245822752915 0.0855011925763853
0.17198231793374769 -0.14121262195192538 0.08571960730354898
0.1726013883003565 -0.14041707266343592 0.08551042041227637
0.17308406341426974 -0.13995268328234126 0.08511796436992346
0.17282339115815407 -0.13985232214842563 0.08565858788416036
0.17311001756719863 -0.13905765325644345 0.0857424366002739
0.17341919815661022 -0.1381676855783442 0.08586267609083353
0.1737021131797784 -0.137255007822326 0.08600412876048183
0.17395039980660731 -0.13640642275092232 0.08625513346787626
0.17466185458381348 -0.1356052997842205 0.08562672513125812
0.17495031756939533 -0.13490591122270446 0.08592178043417596
0.1753339646075525 -0.13416763760848194 0.0862054546355277
0.1757791487667767 -0.1334215677879109 0.08652549856352801
0.17672483245367868 -0.13281390463868006 0.0859056153490865
0.17719780367781207 -0.132119473689734 0.0862643285130468
0.1777109354151786 -0.13139068206288693 0.08651528738428829
0.17815379144412785 -0.1306729024467545 0.08675731089781492
0.17876276994960089 -0.13022449273184522 0.0863796421495153
0.1790264447858009 -0.12948620291171467 0.08688537383164567
0.1792165693421981 -0.1289082769488837 0.08721450472623796
0.15125025885371454 -0.18721893703092982 0.0853854679519193
0.15141575132781498 -0.18701576833975816 0.08521258292816673
0.15150024432020595 -0.18651672014849938 0.08530296054920353
0.1518707659455753 -0.1857759306085859 0.08514939477240055
0.15245684093274253 -0.185211284672935 0.08466485485808199
0.1519435187215553 -0.18515125022775678 0.08528497146813398
0.15249005671166296 -0.18477809751067517 0.08479877312997915
0.1527109530443735 -0.18443235130506674 0.08461447790673304
0.15252344165825749 -0.18443272470930405 0.08490300027598503
0.1524920685688894 -0.18399388943716724 0.08490466200768779
0.15261542440887801 -0.18341341716164933 0.08457123778505064
0.15246912440960533 -0.18244539196187734 0.08457145153262771
0.15230365355110098 -0.1813830494185264 0.08471045355924575
0.15279226874534232 -0.1807092553395467 0.08399574112649272
0.15239488873219428 -0.1807534532746651 0.08447419611800143
0.15239276165327229 -0.18014564862106175 0.08431458605377436
0.15225653887943927 -0.17928581292810472 0.08440527035635403
0.15262974391528547 -0.17877608782777624 0.08397277847624354
0.1523168157199628 -0.1780383587322771 0.0843413422032166
0.15299403439429762 -0.17752317173291468 0.08372644171672919
0.15255200773262048 -0.17746667067844837 0.08422929108060746
0.15277507008516653 -0.1770123577498297 0.08408562992221785
0.15281772778939962 -0.1762872998731923 0.08424620240775467
0.15332734850191282 -0.17584437122456947 0.08384533235424321
0.15320077044521005 -0.1751535309002074 0.08423263447262656
0.1541497045670234 -0.17466479925726133 0.08353146488011058
0.1535534732645504 -0.17461121620569578 0.08410782335189557
0.1539191816271863 -0.1740757008372974 0.0840067419636996
0.15419414522048477 -0.17364676224355918 0.08395069623444647
0.1537604692463772 -0.1734403881717821 0.08447457383471464
0.1541657191787756 -0.17322047435650956 0.08419087229366798
0.15434806970483503 -0.1727164239083684 0.08430502969006733
0.15520256775564764 -0.17223614102304668 0.08381090337633024
0.15476308400215558 -0.17216019656366216 0.0842602566432187
0.15514357467047502 -0.17178317133226237 0.08413420990674808
0.15536597429448604 -0.1711013164813978 0.08434938502212404
0.15597583465117323 -0.17066807336730494 0.08404076294282
0.15596434694710887 -0.16998388002903236 0.08447650537253559
0.15679594332425698 -0.169555447074869 0.08392060360512626
0.15635755737629722 -0.1694906583046757 0.08439532736195474
0.15669921044330706 -0.16911344135326034 0.08426265387467548
0.15687672527929367 -0.1685828504067327 0.08439661633076796
0.15767182299364318 -0.16789089877165975 0.0840369616805348
0.15716073428001923 -0.16784706520931586 0.08458129851981597
0.15761487208900296 -0.16744474900548492 0.08437529780272505
0.157858514660776 -0.16688532515193777 0.08452057516992256
0.15869668697392958 -0.1661447866377722 0.08416795939510789
0.1581951198915642 -0.16612162751814105 0.0847472070327029
0.15870045907848823 -0.165681427389502 0.08456545101318536
0.15906582696979593 -0.1649802897211718 0.08477968621120789
0.15973510303504698 -0.16451541309989276 0.08436559640566939
0.1599126862587111 -0.16378770591352512 0.08480882959953126
0.16026042303588037 -0.16300316832307335 0.08506553673424669
0.16081950100068523 -0.1626247841215292 0.08458233663061593
0.16102861699653748 -0.16190356751334503 0.08500425658579877
0.16127672065872473 -0.16135987161021953 0.08512233235263142
0.16196515494788788 -0.16068895457553511 0.08458116406610201
0.16153441302997443 -0.16079474802117996 0.0852360624411395
0.16201662823366558 -0.16024205068897607 0.08494533202143525
0.16237899423210883 -0.1595116521271879 0.08503507869786196
0.1626150313434718 -0.1585652876010893 0.08554732256468259
0.1632315929596258 -0.158067874862566 0.0849598970402858
0.16343178820323281 -0.1572316559221387 0.08534913648814908
0.16378774855890665 -0.15648632224917516 0.08536791705060962
0.1639309505248158 -0.15568228147779906 0.0857005229533854
0.16454258742510955 -0.1551775029361324 0.08501010575064195
0.16476545902773285 -0.15421524365808612 0.08526716104293491
0.16510505818367546 -0.1533713448107107 0.0851942039537358
0.16522639718427423 -0.15267276436153818 0.08543683496821253
0.16541453421669539 -0.15186264721187917 0.08566453173021704
0.1656179207957345 -0.15099530127545438 0.0860129918466515
0.16619745818840348 -0.1503612248040889 0.08531185184330028
0.1664589439584076 -0.14951712947118376 0.08561451476512202
0.16686224765466404 -0.14876473397481796 0.08562653290499754
0.1670673199414012 -0.1482090452340901 0.086021160781995
0.16769562850868222 -0.14753918733388136 0.08550875026850904
0.1680323154442315 -0.14688160951353574 0.08588611929073989
0.1683778850453335 -0.14622873978563874 0.08626940435412245
0.16902599735189175 -0.14554828586923851 0.08570506975310059
0.16940624588030487 -0.14487774920199384 0.08604289936205277
0.16984638657334591 -0.144111312783634 0.08635421957696134
0.17036327009270752 -0.14342755366188736 0.08616401982147341
0.1708139141620635 -0.14299414520944193 0.08571634845473337
0.17068797607552297 -0.14288329240279712 0.08632786635520942
0.17111441846941222 -0.14213070995858962 0.08651771716103202
0.17146091727158272 -0.1413393323853392 0.08681612712504477
0.1721603870257402 -0.1405537850570136 0.08621906887922852
0.17242280957749895 -0.13980798648715392 0.0864564005719199
0.1727158222936577 -0.13896960975183215 0.0866195054580864
0.17299971738767583 -0.13809200308723124 0.08675733683990894
0.17325928541984364 -0.1372239470627396 0.08694569447494234
0.173495067022627 -0.13637788941390755 0.08720333965013921
0.17418677053993745 -0.1356189756901417 0.08655385490469711
0.1745011280421248 -0.1348448149206374 0.08686187901296612
0.17486298571910538 -0.13405834424367327 0.08715879095581296
0.17525191806081508 -0.13321598238605564 0.08752109911268126
0.17624964409607943 -0.13267176297807334 0.08681838096781075
0.17671621710920996 -0.13186951542764377 0.08717361745950199
0.17738746500136945 -0.1311504266049989 0.08721639235941646
0.17763694235290434 -0.13051364036467003 0.08763196247651638
0.1785209527886642 -0.12994705973886614 0.08712235027065722
0.17886432303129893 -0.12917875461799658 0.08748280686699388
0.17911778199427414 -0.1284407010768109 0.08784197936508896
0.17939131593842633 -0.12752787842056174 0.08823683399197806
0.17979266522732504 -0.12652849829993273 0.08845653086141705
0.18017273161597858 -0.12604486373719087 0.08829317511285112
0.15093778919686335 -0.18710969462525734 0.08593439350624396
0.15127422610383007 -0.18695524812732447 0.08544957276758802
0.15131512054799 -0.1865694160668445 0.08552834502775822
0.1513884639257576 -0.18595531662292836 0.08569506230741916
0.15141164906975912 -0.18513214313710838 0.08595072218776863
0.1522140944110224 -0.18446679549396672 0.08520604441065645
0.151677517740135 -0.18450214582336744 0.08573121730253232
0.1518857653415557 -0.1838338469472057 0.0854850360028301
0.15212862925930942 -0.1831838157197498 0.08509956620956423
0.15143197528750907 -0.18301648446636412 0.08570440920208058
0.15166598140839557 -0.18229309018268872 0.08534186188714163
0.15191374194334792 -0.1816937089193284 0.08508233845791002
0.1513497642950828 -0.18135439631780756 0.08561372644188477
0.15187136884061903 -0.18112521693677955 0.08518775925569412
0.15202294481915918 -0.18074159299637024 0.08496412689097115
0.15178753870244374 -0.17993614280696493 0.08496333606152813
0.1515895173982343 -0.1790261644360229 0.08510362720930764
0.1521258852556963 -0.17850595701064315 0.08447697447062168
0.15172532602155636 -0.17849942940796104 0.08492934059882115
0.1518508485313177 -0.17800377860635605 0.08483530696118491
0.15186542730184444 -0.1772520072870705 0.08499908198650309
0.15233507502486165 -0.17674813671635792 0.0846280364055114
0.1521464624709887 -0.17605284191636666 0.08502675594636556
0.15289231731802166 -0.17556992966998647 0.08439693834070443
0.15245043837527245 -0.17551835102479055 0.08490083657750261
0.1527428665251982 -0.17509957192174053 0.08473995627071756
0.15285374444014826 -0.17444124107675246 0.0848720982277941
0.15336517278690032 -0.173947898319652 0.08459525895163898
0.15319123086116235 -0.17337251915335206 0.08502657847588792
0.15393617650189936 -0.17296398425210402 0.08454458779318179
0.15351908966130495 -0.1729042239564157 0.08496625289949467
0.15387249147473941 -0.17256901705784702 0.08481763655575823
0.15413803210593752 -0.17193170769644445 0.085015151511745
0.1547486091898509 -0.17150702418280925 0.08467177999362775
0.15476543987109886 -0.17084792688359526 0.085107791462671
0.15559325335845697 -0.170388840629048 0.08457285971420925
0.15516557857735347 -0.17033868997101556 0.08504392118854165
0.15552430167013429 -0.16991425186593473 0.08494173785985937
0.15576974158927803 -0.16924496208014217 0.08516915713567177
0.1563517398189907 -0.16884222257399897 0.08480317977138754
0.15647945402349006 -0.16810283397457448 0.08519633719736346
0.15678514022402368 -0.16734299690674515 0.08539238961426576
0.15730886128381558 -0.16710823650889756 0.08494954352680387
0.1575010705580397 -0.16637570884104677 0.08535080859962557
0.15785776354079398 -0.16563781335865316 0.08556769045254997
0.15840002104685053 -0.16538473889276084 0.08518320198458154
0.15854432426207107 -0.1647565621896763 0.08566868611640431
0.1594152476575531 -0.16428948016194417 0.08498788277895827
0.15901245617903756 -0.1642647782226893 0.08556273615814203
0.15943581521791794 -0.16386211338650722 0.08542006299348003
0.15970892029627112 -0.16328395209151117 0.08563391372308782
0.16055335993882525 -0.16241853700762768 0.08523390320719183
0.16009427661419964 -0.16249048666622443 0.08586985029211827
0.16059139666129657 -0.1619956191856324 0.08562953467666337
0.1609355724293673 -0.16133990287687408 0.08573773100647647
0.16119885439601658 -0.16047003844601213 0.08619053910430408
0.1617698797623906 -0.1600140434954544 0.08560510105748527
0.16199882379252553 -0.15920059173363152 0.08600030041674145
0.16224940480064068 -0.15856389192336884 0.08617730297003562
0.16295351146200063 -0.1578203150332332 0.08566068366768166
0.16249811184455304 -0.15784939059888542 0.08641373322524624
0.16299782877597654 -0.1572938558773242 0.08603679976617443
0.16332237740456373 -0.15644786024834945 0.08617096279808417
0.16354441141340456 -0.15566916729943628 0.08635099218039408
0.16426473984531897 -0.1548712426039698 0.08570890433570018
0.1637970455789395 -0.15488280510517058 0.08650241635073129
0.1643024361800902 -0.15428938046564256 0.08603137265689043
0.1646294065429862 -0.1533745840693937 0.08606614882754277
0.1649681582066454 -0.15244415759640634 0.08613596031489623
0.16508837222542436 -0.1517529353997329 0.08644467209914053
0.16521728245242695 -0.1511304913573129 0.08674963220276283
0.16596029408314808 -0.15020729445770414 0.0860250552810788
0.16554306978103975 -0.15039092500836115 0.08677245385668089
0.16603001526454295 -0.1497360268737632 0.08639846260665252
0.16643809519866753 -0.14897164144402478 0.08645944161064158
0.1667515876690016 -0.1481735153450777 0.08693019600522205
0.16738166556935477 -0.14753481817304565 0.0864152535419078
0.16773042667446003 -0.1468634120592406 0.08680965671759167
0.16810478536705012 -0.14619251322823062 0.08719757691169923
0.1687440060384651 -0.14556611356996346 0.08664007235129281
0.16913025682890223 -0.14487792916244627 0.0870038381412093
0.1694749384703682 -0.14419833687416786 0.08739294373999947
0.17007192905301238 -0.143528189189792 0.08686358912345905
0.17041092424997192 -0.14285311243862828 0.08716859429408055
0.17075513774664686 -0.14209840667936 0.08745602636079508
0.1710588822495835 -0.1412885353516671 0.08775398342100295
0.17174439733385732 -0.14055628930769645 0.08711707998662542
0.17204756323178674 -0.1397129556849003 0.08734670835344656
0.1723676329057492 -0.1388339950474371 0.08748759107236503
0.17263996382991917 -0.1379838554545575 0.08762503598922058
0.17285939659839442 -0.13714050519620077 0.08785440281879577
0.1730903957783 -0.13625607436362341 0.08812908426601218
0.1737559569339685 -0.1355393375260601 0.0874939310449186
0.1740714281886234 -0.13470631340734782 0.0877861000652323
0.174415817147863 -0.13391280032491212 0.08804155773300776
0.1746292025024165 -0.13328691509620572 0.08829337854535112
0.1758398066881559 -0.13247278597040157 0.0875329966283415
0.17513071741805733 -0.13256315744032132 0.08827100608919254
0.17594765967536097 -0.13197792273213982 0.08792130439678228
0.17661862036830936 -0.13122309343880795 0.0880490612726826
0.17699917239706 -0.13025115166000922 0.08863392514605936
0.1780470587226217 -0.1297086111949703 0.08798392846110958
0.17839960822377213 -0.1288486143086601 0.0883984003931807
0.17893217628618113 -0.12803444414233878 0.0884471019182324
0.17906949839034045 -0.12726107931329766 0.08879171524877685
0.17930939947018065 -0.12626153603119958 0.0891834361559942
0.18007352102182153 -0.12574913753098083 0.08867737809167105
0.18026695803458195 -0.1248906251641699 0.08917678461465214
0.15047439623371192 -0.18708991416454268 0.08663535494036531
0.15106782171785335 -0.18664186062040758 0.08590102223828779
0.15063694896263874 -0.18673496331416414 0.08653167750873138
0.15085255122939828 -0.1860720314264566 0.08642682335206955
0.1510692395641775 -0.18550480403120653 0.08628368338656274
0.15062313763928714 -0.18527429917853785 0.08684964579248784
0.15104235474441616 -0.18500175088921036 0.08642267572701123
0.15124535821818513 -0.18458031085445079 0.08621748689094089
0.15110191496091058 -0.18371711853641584 0.08616930323616107
0.1509596644900742 -0.1829023364133809 0.0861120530886407
0.1509157638593723 -0.18212936090065734 0.08609110906461034
0.15072666671696133 -0.18122357416410795 0.08622280570183112
0.15151374209496113 -0.1805733869818957 0.08541038421237217
0.15086852671317416 -0.18054300281985075 0.08596367781715895
0.15104840856082405 -0.17982455566255667 0.08571224003250728
0.15125903937224078 -0.17928543146664544 0.08546988840767344
0.1506734668762546 -0.17897287867059442 0.0860098828286252
0.15115051576138827 -0.17879152799486128 0.08554308812119549
0.15132347314122027 -0.17846789237426275 0.08535722020440874
0.15132991751460792 -0.1778072807599131 0.08546538505712123
0.1512203379581157 -0.17704789932544504 0.0857288419401869
0.15190265161362074 -0.1765056805755047 0.08516780409295263
0.15146637856570022 -0.17651787564226337 0.08560849314515626
0.15166149092605954 -0.1760328084668183 0.0855265390692024
0.15177154353626426 -0.17529630852919714 0.08566537924655367
0.15233012195071644 -0.17486774673846134 0.08523763883685163
0.15228619852250191 -0.17429528523688745 0.08551115436287984
0.15292164996529142 -0.17379269820613433 0.08506555053076863
0.15252894465664424 -0.1738418365949187 0.0854618747928975
0.15274922251536185 -0.17341016212130778 0.08544871411722285
0.15293990249255865 -0.17277647172490965 0.08568497408722259
0.15351181606778408 -0.17233465930467098 0.08534044194991308
0.15354627100350418 -0.1717305013767984 0.08579093010205337
0.15439360584397346 -0.17125094675244493 0.08521520524539883
0.15398026160592682 -0.17121886598081887 0.08571526339556663
0.15435997137693813 -0.170799121048023 0.08559746447813076
0.15464484136964862 -0.17014096206705215 0.08583031591451573
0.1551944049405435 -0.1696910934859452 0.08548849713931582
0.15522373136658127 -0.16909627262343943 0.08592403638663447
0.15603737113246505 -0.1685480324936217 0.08538992795257694
0.15560787368435838 -0.16847749510647933 0.08596291928640849
0.1560192715479744 -0.16809690330770802 0.08575606603531226
0.15620591322445135 -0.16751093287254845 0.08599742806150515
0.15703576740337835 -0.16678019219375262 0.08554089643361726
0.15660726231907066 -0.16674198524424735 0.08612797614576656
0.15703451738628693 -0.16635354539346964 0.08590796277789013
0.15728064369223413 -0.16575434755315685 0.086178873580196
0.15813332439290773 -0.16512025649273404 0.08577055828921624
0.1577428151749782 -0.16511570604322254 0.08623634884149405
0.15815774275550054 -0.16471308638717924 0.08617646661319016
0.1585154499332739 -0.16406028524621627 0.08643430279856326
0.15916671156368659 -0.16362366757276495 0.0860522229508603
0.15941592513241118 -0.1628702425000388 0.08650886515798273
0.1598397080860658 -0.16205562868887802 0.08674629444668101
0.16037445170042872 -0.16173652725292212 0.08627318257464492
0.16062425501436467 -0.16098370556217215 0.08668841622253128
0.16088455989982128 -0.16042238750627363 0.0868434438313721
0.16152555264675922 -0.15978078594645992 0.08627477904781454
0.16114204920728384 -0.15983503475377758 0.08694985956990349
0.16157757221999797 -0.15929968410052361 0.08665872257465504
0.16189391416312812 -0.15858028303846308 0.08677281210499282
0.16204981357857212 -0.15782528254391007 0.08718627152137742
0.16282024202147752 -0.15702018587914998 0.0865733810907921
0.162392669086857 -0.15697863095329934 0.08730988081173023
0.16289420292305357 -0.1564507394582882 0.08691255095729951
0.1631973048433275 -0.15559501225420533 0.08703363276673895
0.16344158055484004 -0.15480608186862493 0.08720074360488028
0.16410008348841174 -0.15400511353893315 0.08657816636345245
0.1636798074905706 -0.15399814647996474 0.08736259112184709
0.16416809717765293 -0.153396464327809 0.08688787941243452
0.16451460613801716 -0.15246794992289547 0.08698135350615514
0.16484343783671185 -0.15156829457711465 0.08709494665022427
0.16501330520429708 -0.1509092520896982 0.08738786018169523
0.16527030521769875 -0.15013147802668206 0.08765743449721691
0.16581299054591273 -0.14956632901805278 0.08712768536759447
0.1661286179487581 -0.14878131509842307 0.08747089013476836
0.16647915191574675 -0.14801714654015258 0.08786230681752732
0.1670897864157572 -0.14746223788684493 0.08733657411683782
0.16744608136945507 -0.14676903167604596 0.08773260927048719
0.1678332651681991 -0.14607370480530277 0.08811349505337981
0.16847758948191535 -0.1455161431196981 0.08757204206565992
0.1688416562516784 -0.14482814453930634 0.08796113246147885
0.16922392934171362 -0.14411611592986442 0.0883357688911334
0.1697944587448769 -0.14351932438907145 0.08776098283625797
0.17011831800608068 -0.14278331286506388 0.08807785209799499
0.17042002904465992 -0.14199349629526553 0.08836380932553382
0.17068839003756028 -0.14110252774890258 0.08873692670501075
0.17138214221670892 -0.14043072706255394 0.08801071586044525
0.17166868457499518 -0.13947879448604308 0.0883034233088807
0.17210323505539177 -0.13859154761692669 0.08820848163652681
0.17225672068050565 -0.13786221387614636 0.0884604257465709
0.17247424750479265 -0.13699158010505774 0.088712770485257
0.17268308710454422 -0.13601318495256523 0.08909578730358308
0.1733787486856517 -0.1353602474360146 0.0883994492400791
0.17365581083942963 -0.13442672528956018 0.08872208892690545
0.17410889146638991 -0.13366178777955595 0.08870202187534294
0.17434401824709855 -0.1330094592791557 0.08892522675455157
0.17468746229683163 -0.13221343941158195 0.08915136092878106
0.17553740548227267 -0.1317219699820185 0.08863608016591029
0.17595604471973275 -0.13091369590775426 0.08901995219860545
0.17616304709649064 -0.13023864410844666 0.08942005459825912
0.17760570711963375 -0.12947536657458988 0.08874203838593009
0.17678044615860994 -0.1295137271209648 0.08948520894253856
0.17765327690701208 -0.12894743194991715 0.08917794821792839
0.17816505673449773 -0.12810856338034518 0.08925208717760064
0.1783915420575662 -0.12712173315804284 0.08964275216695368
0.1785352558088109 -0.12640413481799634 0.08998952886848771
0.17986838203200203 -0.12538995130793323 0.08923888447052124
0.17908450828254355 -0.1254534498712292 0.09008384848782436
0.17996281320633256 -0.1248047337106109 0.0896202623140672
0.18028682820618358 -0.12400160022806125 0.08987780080840577
0.18051403923379972 -0.12338511631396963 0.0900497241405265
0.1502092569602488 -0.1869914644416662 0.08708083576956627
0.1502977042571515 -0.18681355701936062 0.08702064630903164
0.15028647283198568 -0.18609594553922437 0.08722550467020262
0.15004682142694686 -0.185209823171667 0.0874865250368243
0.15074840381116072 -0.18443947369291439 0.08665849044006207
0.15013785030012394 -0.18442906009617843 0.08724399952946765
0.1502782421717481 -0.18354418009125006 0.08692973624347522
0.15052201386455888 -0.1827729960367329 0.0865220076399618
0.14982981377437274 -0.18240886462838268 0.08723021887915565
0.15029025407744784 -0.18199288039171593 0.08667043496847167
0.15047892365005172 -0.18160301119353303 0.08648799927046519
0.15019814759473368 -0.1815575680262288 0.08670027123466083
0.1501811336073869 -0.18110819981819035 0.08666964045047282
0.1503883169844233 -0.1806014396133645 0.0864212605772913
0.15026328074863948 -0.1797786419176133 0.08645831920444381
0.14993514000926791 -0.17885519098930844 0.08669490375434262
0.15089997741299532 -0.17828748902699307 0.08580638060876086
0.1502685092345103 -0.1780986733091539 0.08644641741502965
0.1507787870482641 -0.1776874434490334 0.08606429579204823
0.15095893739544017 -0.17734695312773005 0.08594765912323084
0.15071921818592945 -0.1773238810284163 0.086189086367222
0.15070546097370358 -0.1769499046364134 0.08625578659254556
0.15102043399683224 -0.17652031517771083 0.086067104333472
0.15108474722948276 -0.17585556137575342 0.08615543951155659
0.15108096771788668 -0.17507827100034137 0.08645492311351767
0.1519606869592331 -0.17461111456112394 0.08572611812799537
0.15153068272442374 -0.17445775199149477 0.08628077044844978
0.15193964843891233 -0.1741994345275204 0.08593146144269484
0.1521473484720338 -0.1738813907689481 0.08584389306208147
0.15227480599666413 -0.17329972258903345 0.08606931680313294
0.15241060748026813 -0.17262827439462455 0.08639791741941913
0.15317169939316688 -0.1721391853184389 0.0858811020246665
0.15277853100489933 -0.1721777356969624 0.08633649989090436
0.1531171144139115 -0.17173822519987444 0.08630784601133522
0.1534400096010972 -0.1710630765141285 0.08655922128074241
0.15406173535235237 -0.17058200513944394 0.08617010064448971
0.15416258682494366 -0.16996481118331447 0.08661244234320631
0.15489338229182772 -0.16949447821534175 0.0860317751577419
0.15455616489674118 -0.1694845008881243 0.08652801492824463
0.15487320326823267 -0.16911752790493192 0.0863975175578707
0.155091908499643 -0.168618463323367 0.08655840674527161
0.15580052104424782 -0.16788757255245806 0.08621138492295771
0.1554145657312737 -0.16791275502717012 0.08678164285035954
0.1558128665505631 -0.16749116936567032 0.08659138382205557
0.15607750601918485 -0.1669398054988949 0.08675822429908274
0.15683127607271796 -0.16614105617035518 0.08639925157263104
0.15643082109366735 -0.16617480447936056 0.08699831517132645
0.15688316760985155 -0.16570053176788216 0.08682186441993055
0.1572598655562386 -0.16499508881480868 0.08705919722367188
0.1578754906606349 -0.16452572008471256 0.08674835049991149
0.1580145609683563 -0.16394138957150686 0.0872529776045649
0.15891327504837358 -0.16336164710599074 0.0866932594979922
0.15850091110054887 -0.16330205802249123 0.08730811607859972
0.15897957954946024 -0.16290837061642247 0.08711144159685102
0.15925926239728674 -0.1622816458042602 0.08738299519491449
0.16016562459478875 -0.16145989867380675 0.08690533720989913
0.1597545625392952 -0.16145764390249226 0.0875175497247945
0.16022724620789808 -0.16101827449403414 0.0872794226224435
0.16053904409748748 -0.16033113305146035 0.08749986206421556
0.16088147127087535 -0.15939814148069023 0.08780829832957687
0.16136784027978024 -0.1590180278748917 0.08730921146564839
0.1615777062245856 -0.15817988465463284 0.08768432512071363
0.16190868207058193 -0.15746487147257995 0.0877480866064006
0.16199595794593205 -0.15690159628923972 0.08806068744169789
0.16271621339515363 -0.15614160613312317 0.08743694136833295
0.16231597258226269 -0.15608241597239614 0.08816024398866176
0.1627832069264296 -0.15556197984154793 0.08775816900313595
0.1630955925834139 -0.1547139328115694 0.08788425293770342
0.16333496150689916 -0.15392741426263254 0.08806901410525675
0.16399572761791512 -0.15309387366650434 0.08746525365619374
0.16358749489020183 -0.15309725357146856 0.08827746340129315
0.1640779295353854 -0.1524887172406706 0.08782003182459219
0.16443206970440846 -0.15157062016159034 0.08793134912983752
0.16479655142523805 -0.15064512166760455 0.08808535818498589
0.1649685093693747 -0.14990725993532597 0.08855317904807955
0.16554838986966988 -0.1493605027849836 0.0880010509109451
0.1658270537347515 -0.14856884760035866 0.08846133565959939
0.16626782625829786 -0.14774872812127063 0.08872798251061717
0.16683750557553692 -0.14730805743129466 0.08822153161521891
0.16715228865869633 -0.14659830508813534 0.08870452188335796
0.16763284950573207 -0.14582530487034817 0.08897274964361677
0.1682282219856854 -0.1453923797397211 0.08847068162327985
0.16856330189234722 -0.1446728551422067 0.08894429166743162
0.1690402450933391 -0.14385775008475765 0.0891978749588978
0.16957308829014847 -0.14339193677302145 0.08864142644254439
0.16984974826396854 -0.14260986178396823 0.0890375865594646
0.17018970831755964 -0.14184158444736705 0.08911131689855353
0.17025706889377287 -0.1413169463631086 0.08953048515550663
0.17108100680275326 -0.14024131163727663 0.08876722901962236
0.1706025054992432 -0.14036226838550594 0.08966016393882821
0.17116080518232363 -0.13966203362605858 0.08912680346685262
0.17156407479231756 -0.1386635677516565 0.08914645109258744
0.17195254798276705 -0.1376461893740361 0.08919098067291216
0.17209020457768986 -0.13688494629815276 0.08951070653104114
0.1722231931119132 -0.13615416995086704 0.08981456305258413
0.17308383240664724 -0.1351159582107359 0.0891238348180588
0.1725730004519095 -0.13517997116278943 0.08991349104321408
0.17317633915797528 -0.13452353920231114 0.08946348305526024
0.17359242334976333 -0.1336061097771031 0.08952756420492523
0.17405136582017033 -0.1326762956208767 0.08961352581039626
0.17426096782190464 -0.13187718095432763 0.09004558805212154
0.17506151796914285 -0.13141301430049498 0.08948259782342743
0.17537281047131323 -0.1305925396313226 0.08994086979959863
0.1758777782137108 -0.12986854743319703 0.09002385114297883
0.17611839410599417 -0.12907878203075632 0.09050471502731437
0.1771533737921454 -0.12863017172698285 0.08991400721573403
0.1774513402792687 -0.12768533444707747 0.09033555557424237
0.17791979824350307 -0.1268753911427542 0.09038970124169363
0.1781475812626701 -0.1261966127593948 0.09069582823747645
0.17832941350532602 -0.12548194419343603 0.09096671374632428
0.17967220717073282 -0.12450274852145335 0.09015719248154082
0.17888711270762764 -0.12451588740472185 0.09100641607262841
0.17978724629965814 -0.12388963781153807 0.09047025544680422
0.18017163532971459 -0.12314419422548142 0.09056558663166235
0.18018450629192426 -0.12198194391446908 0.09112028604735294
0.1803698345858533 -0.12143879350503814 0.0911468599522096
0.18010076724828578 -0.12030514626262191 0.0917678984346778
0.15000258977038242 -0.186545353150324 0.08754886441129396
0.14940277399761398 -0.18611167256046204 0.08842824487001406
0.1498142390580829 -0.18602071510521248 0.0878907241806855
0.14989141097936579 -0.18565623781811508 0.0877309442302273
0.14968309947179634 -0.1856391179758314 0.08798153692759117
0.14958898193457185 -0.18513408055961011 0.08798353481464956
0.14968863930788712 -0.18452208110218835 0.08773447813314342
0.14948313813948053 -0.18349229531005298 0.0877620462059566
0.14905156795417934 -0.18231850545723155 0.08797318851675737
0.14988779609944825 -0.18152702785045688 0.08699220481054498
0.14922360100812052 -0.18130728792913384 0.08759059668285134
0.14967612931208565 -0.18083554570036398 0.08709589523716757
0.14994479094670582 -0.18041256331289374 0.08680885195074521
0.14962485852390592 -0.18035814172086545 0.08711668330955787
0.14953896343624895 -0.17982718800731345 0.0871135422157486
0.14969364248997621 -0.17932520764915508 0.0869208914578737
0.14941789671252867 -0.17932992924671362 0.08715588669481726
0.14936971315144998 -0.17889498856744873 0.08721993696409253
0.14948982764183852 -0.17817663710536813 0.08712686896185491
0.15038670206196011 -0.17737502953859302 0.08645951114914295
0.1497802357780239 -0.17746250601714147 0.08696410147163791
0.15009791240038986 -0.17682629334108466 0.08682684111919214
0.15055538500363136 -0.17632130452034703 0.0865443999684035
0.14991949605432053 -0.17611680339309616 0.08718154570975384
0.15049263020164808 -0.1757565447785572 0.08678056070802946
0.1507442737884142 -0.17541945345384335 0.08667107028851496
0.15049497201934195 -0.17541736167734237 0.08692173896891045
0.15053927829098998 -0.17506056974381648 0.08702193469796399
0.1508741659379227 -0.17445012852874853 0.08697360209249197
0.15180079548179443 -0.1738190673994389 0.08630170959086576
0.15129012805500544 -0.1738515335358826 0.08686154756956947
0.15168628190054467 -0.17328180983747948 0.08678468165226386
0.1520256296703212 -0.17286173206803276 0.08667075680173643
0.151669900230796 -0.17268120927656885 0.0872311175963744
0.15211437096952485 -0.17249602753731375 0.0868683225448973
0.15240726663105053 -0.17220874162142083 0.08677280577262429
0.15266443199608093 -0.17163310283590125 0.08699421898775231
0.1529041160054906 -0.17090909057548337 0.08742390191935837
0.1537786892818466 -0.170380775448245 0.08673971929184739
0.15340978235095287 -0.17039042372701171 0.08727885191016159
0.15381126056093947 -0.1699578902962764 0.08712616909792983
0.1541353721725752 -0.1693228125910546 0.08734126161306868
0.15466201473459915 -0.1689095835421666 0.08696707007437443
0.15486373582257232 -0.16823085384412184 0.08736517590522526
0.15517646811918487 -0.16751920252555821 0.08760719876238593
0.1556163553201121 -0.16722267076846292 0.08719195118246136
0.1558307936983506 -0.16652741132176707 0.0875876379081374
0.1561810626577859 -0.1657833443284131 0.0878444943545442
0.15666337702639685 -0.16544269373258577 0.08744825965332206
0.15682755441460744 -0.16482734031856677 0.08791274863176034
0.1576155530260745 -0.1643487994728385 0.08733290178193276
0.15727803646118643 -0.16433216745767382 0.08782686969061046
0.15766241410922813 -0.16395833666080215 0.08772796865013492
0.1579563979869064 -0.1634453869483364 0.08791013269032948
0.15879512546701563 -0.16269502267236097 0.0875937484412133
0.15838091652040118 -0.16271033610588748 0.08815660481207044
0.15885575535030697 -0.16227300164517708 0.08798493927760666
0.15918030964606653 -0.16167967978381875 0.08815357083326289
0.1600459804341024 -0.16081083248552716 0.08777632160968889
0.15961093827689532 -0.16084991379085717 0.08838761260102322
0.16009948823054027 -0.16035535716226132 0.08818605968011028
0.1603861377102681 -0.15969038981156078 0.08839025403832731
0.16114803392520233 -0.15871345042406146 0.08797026874560777
0.16073796768557028 -0.1587094097964487 0.08870503981125027
0.16119793729203613 -0.15818747420597873 0.08833818985367439
0.16151084949966368 -0.15738270222923267 0.08846968482605738
0.16183397092371596 -0.15656993436681302 0.08858066551702014
0.1619287200381891 -0.15599254270132834 0.08889415711123438
0.16262531903295724 -0.1552542833741358 0.08827967289181118
0.162254917257213 -0.15523636837391347 0.08894067424449209
0.16269286611280556 -0.15467609296359414 0.08862580721899602
0.16300733294844633 -0.1538783848787352 0.08870661213965374
0.16316626461417796 -0.1530334748260051 0.08910095413183677
0.16392727886526415 -0.15218362282160205 0.08841417688140714
0.1635325772746565 -0.15216189500089206 0.08920105633448146
0.16402442332200262 -0.15158966381631833 0.0887689453789471
0.16436814095742258 -0.15072177328247754 0.0889254605914238
0.16463531779725651 -0.14998699888399802 0.08916378117067177
0.16532298235819973 -0.14918418591457192 0.08870045922549448
0.1649153800426941 -0.14933625827182745 0.08935802759622571
0.16538905721820216 -0.14874952933821664 0.08913388053266298
0.16572271743113895 -0.14810973855881887 0.08933411757911013
0.16662769363975458 -0.14715258571410064 0.08892523665701146
0.1661835732876792 -0.14728130874729967 0.0895877347777513
0.1667029398435512 -0.1467568651057009 0.08936145351386907
0.16705313054383883 -0.14615354415489246 0.08955297028572487
0.16801234012100758 -0.14524335532439397 0.08916425279407593
0.16753787434923567 -0.1453558965576852 0.0898149003348841
0.16808903586375865 -0.14483995064004784 0.08959762281281848
0.168460445837103 -0.14421073004116375 0.08980771672210722
0.1693852638859159 -0.1432272219249414 0.0893506415464713
0.16894312516603763 -0.1433409395436076 0.09005958551564339
0.1694528614722678 -0.14276341760434053 0.08976803591565508
0.1697920124024702 -0.1419898713049559 0.08986525589660499
0.17003751248121066 -0.14110554808412198 0.09023418073717392
0.17019088413880212 -0.14038541063669424 0.09051012389990744
0.17098354624359655 -0.13939768955077755 0.0897248297032022
0.17052536321412676 -0.1394093388315585 0.09057152251410795
0.17107543723371638 -0.1387356339795651 0.09003192755686905
0.17145962449248958 -0.1376925562870681 0.09006114132136951
0.17181279900343122 -0.13668303497476894 0.09013755277150173
0.17193928715659842 -0.13594413978639877 0.09039960173597605
0.17205991205219384 -0.13520525596139094 0.09067024235062666
0.17297856272785578 -0.13422908319574567 0.0900075770323999
0.17244766337328687 -0.13420768807096764 0.09080272512336032
0.17308220219181406 -0.13359439437855286 0.09034632684080372
0.1734960587620315 -0.1326503954325697 0.09047159587754852
0.1738111624267306 -0.13185931348636876 0.09068954314029733
0.17472839182085043 -0.13114305504855833 0.09018574282007327
0.17419398547040793 -0.13117317791510097 0.09086097777177767
0.1748136317694878 -0.1306240601789021 0.09061762850105703
0.17524086880002337 -0.12986364384639928 0.09077165461706774
0.1754102915295701 -0.12907324917725815 0.09126282329648253
0.17669567427143376 -0.12829095982621633 0.09067574002765924
0.1759383579270154 -0.1282222045876965 0.09146452174679015
0.17677242557788492 -0.1277108790326182 0.09110011216014487
0.17724189797811135 -0.1268254424675659 0.0912435098681968
0.17772614786567867 -0.12593043422318925 0.09136046127335448
0.17790551567626123 -0.12520589915405264 0.09163484384028904
0.17813946226890487 -0.12448070537783042 0.09188417366124527
0.17948643127984967 -0.12354204070321491 0.09103986036296696
0.17871374512078483 -0.12359044232283502 0.09185694509139247
0.1796317776577027 -0.12271858926416811 0.09136702964246056
0.17897282167707596 -0.1223996331040169 0.0921750180771814
0.17974606571903867 -0.12192803786777169 0.09159327524742153
0.18007791625546207 -0.1212828661900371 0.09149602608769111
0.18006923772843608 -0.12059085432316512 0.09172081529994669
0.1797074328398133 -0.12040721487345074 0.09216041948300122
0.17973603355559567 -0.12095325230153958 0.09194940721957384
0.17949399484818157 -0.11984886627099287 0.0926196848904744
0.14852985383384168 -0.18758119966933717 0.08951509541245714
0.1485266654685019 -0.18726362626047058 0.08954084801465088
0.1486483982197937 -0.1863553707051381 0.08937850447563393
0.14942534645913674 -0.18557586802911819 0.08829166575718746
0.14883920313618462 -0.1853173932581146 0.08896640360292576
0.14913896677888394 -0.18483708921869046 0.088460916293225
0.14926842820095257 -0.18430206689116493 0.08816545627809047
0.14897884840822392 -0.184247766719923 0.08849852142520014
0.14883202563846817 -0.18356815470367124 0.08850319352423903
0.14892607606604652 -0.18293688206309847 0.08830098117737385
0.148650083967422 -0.18295500642713586 0.08855024159711569
0.14845789047160704 -0.18239395071719863 0.08852751273849276
0.14836927195372607 -0.18143174621814642 0.08836037982568681
0.14928124501058251 -0.18039514925739372 0.08743960907467413
0.14858543330614898 -0.1803617680401771 0.08803224580428688
0.1489804749128097 -0.1797747644864873 0.08761534344907845
0.149145135513347 -0.17932529272821496 0.08742212624905217
0.1488657319610951 -0.17934997000862402 0.08769490495638857
0.1488104630830286 -0.1788862791228972 0.08773300550501338
0.14907426636784166 -0.17846537580310462 0.0874856398739602
0.1487964988541069 -0.17841706614210537 0.08770687230498994
0.14889256403476195 -0.17800754073157163 0.08765945297755827
0.1492310184297633 -0.17755945684546082 0.08742110219903054
0.14931209024275965 -0.1768392975140067 0.08752162735994258
0.14926047311003704 -0.17611341770674324 0.0877750868639258
0.1501757908210446 -0.17548160479014238 0.08718442529964068
0.14963097752624904 -0.17556943816737103 0.08767177350268843
0.15001146747203226 -0.17502788597443292 0.08756308406832079
0.1503772853258647 -0.17463162735386734 0.08738331401953839
0.14997534490345824 -0.17443742377966814 0.08788943964662567
0.1504843559939584 -0.17424318650943654 0.08746233548547482
0.15080829651072392 -0.17392121167891175 0.08731102489356103
0.15101359252120938 -0.17328897930255613 0.0875035729853415
0.15117880796203462 -0.17262278740375048 0.08780975652161636
0.1520916817328257 -0.17213532786052804 0.08722214182162855
0.1516088784169485 -0.17217347729750734 0.08772629839666332
0.15206451114650288 -0.17168505816315563 0.08765807155359455
0.15244566445977278 -0.1712599333573539 0.08762220911378928
0.15207490392015557 -0.1712474189234661 0.08808390092825165
0.1525030894071256 -0.17088000444954324 0.08796256219064216
0.15292390282988652 -0.1702697797523775 0.08810500946960638
0.15355984673398915 -0.16978284345383618 0.08771363555592587
0.1537047012597187 -0.1691962123541694 0.08817835189949602
0.15446883015955068 -0.16867952900117475 0.08754891990826225
0.15413800075740347 -0.16868122466789018 0.08807864799631732
0.15450126822970647 -0.16828139163318914 0.08793180270332783
0.15473454638167677 -0.16775537599567178 0.08813361835615058
0.15541749797596302 -0.16698247371517166 0.08779234988716257
0.15507347842003832 -0.1670367915209529 0.08839804633189788
0.15545827300685547 -0.16658766773516734 0.0881886423433815
0.15572651090371178 -0.16604035813992798 0.08838174112661684
0.15643779388256443 -0.16523488166798828 0.08805419763626698
0.1560904171070979 -0.16531319748414552 0.08866114125959094
0.15651062495419618 -0.16483224241055272 0.08847775965414643
0.15690697244926782 -0.16416807109617612 0.08869392719544833
0.15747085218883372 -0.16373801900376223 0.08829542844367808
0.15777073096967725 -0.16303405201328994 0.08874189112217881
0.15818452091889681 -0.16226343080311945 0.08900154014217773
0.15867601503680875 -0.16196834854209136 0.08859084416278792
0.15896298131484796 -0.1612056816857023 0.08900181126849017
0.15936999711542377 -0.16037713878358723 0.08925899820419729
0.15987486505058138 -0.16004515057219115 0.0888111384763242
0.16012983129761993 -0.15922878263352347 0.08922297208688966
0.16040547090406332 -0.15859384578424707 0.08938654659028336
0.16104221133645527 -0.15790129733335703 0.08885301560776683
0.1606545110377687 -0.15787394419129708 0.0895655605656432
0.16112073919974135 -0.15733521240061663 0.0891845771316196
0.16144436650297708 -0.1564886872565603 0.08932480788036423
0.1617879964995502 -0.15560472356026872 0.08944842889044727
0.16194354335075634 -0.15477460577906474 0.08986220179189289
0.16247140294854887 -0.1543161197534606 0.08928657900229969
0.1626954000167702 -0.1534050926965635 0.08963880541863851
0.16302793573981758 -0.15265446924202433 0.08967019188331751
0.16314584935512155 -0.15210025279127615 0.08997448460212411
0.1638869437513287 -0.15131891940139247 0.08933917977100343
0.1635146407472132 -0.15136394550948143 0.0900233289405459
0.16398033236203344 -0.15077225547189377 0.08971302697094663
0.1643337670394324 -0.14999171712747902 0.08982680919487346
0.16463781679426465 -0.14901825883762548 0.09036048453464132
0.1651992203989291 -0.14853913395907306 0.08982335806392443
0.1655241421106615 -0.14772955212073557 0.09025868802622623
0.16598888339551524 -0.14688786628492204 0.09051643226995083
0.16650228554669982 -0.14652970568658602 0.09002332976555345
0.1668369415308405 -0.1457654671519674 0.09046961132845542
0.16731232903315832 -0.14494900067317334 0.09074876774092952
0.16787898064384288 -0.14460067494863432 0.09027947729806762
0.16821885608704742 -0.14378898534242893 0.09075076285130261
0.1686991828928154 -0.14286183320380283 0.09101813833456683
0.16925224991001667 -0.14247837716524303 0.09047470049224056
0.1695104067745689 -0.1415800756992068 0.09085496384052495
0.16982527384517582 -0.14081228939233018 0.09089567973057329
0.1699678720350872 -0.1401119759408191 0.09113688618649526
0.17009929784627986 -0.13936747986588865 0.09138089887653605
0.17088580191889316 -0.1383945752787111 0.09060403196610456
0.1704281860910534 -0.13835451688629719 0.0914238056280239
0.17097738448807903 -0.13770234372290802 0.09089329959836707
0.17133669784275912 -0.13669189973767099 0.09090793163220094
0.17165964250529278 -0.13571591186523477 0.09098502172653998
0.17177338858862676 -0.13495598020762584 0.09129537218529878
0.17189701027032567 -0.13412701203454544 0.09164250813762786
0.1728796626948353 -0.1332396829280014 0.0909203307337008
0.17233628459876132 -0.13312952104159118 0.09172227612827999
0.17298183775968914 -0.13259941494066982 0.09127550295604107
0.17338723881472573 -0.131715315259065 0.09144229688454211
0.173881703412584 -0.13064934366957712 0.09179377870963042
0.17452903966469627 -0.13028970177731478 0.09129691672736695
0.17478626472072617 -0.12942824274263512 0.09175260003263398
0.17520668989164337 -0.1287058625391346 0.09186486380776011
0.17531249539972923 -0.12813578081253013 0.09224426629151145
0.1764508799086152 -0.12738691804557858 0.09168100447514319
0.1757588938290662 -0.1272908204538671 0.09245031984042124
0.1765360161013098 -0.12677140260326686 0.09206018336969475
0.17703709551655686 -0.12583501383044313 0.09217683100511093
0.17752945750720908 -0.12490209116085231 0.09228981094754438
0.1777706168338098 -0.12414187673250357 0.09252779799907454
0.178072322758951 -0.12325087603855432 0.0927256142645018
0.17821377029126811 -0.12245318829344799 0.09294341567469255
0.1795283538110923 -0.1215445752080108 0.09197230864612288
0.1789223514691038 -0.12137764295040503 0.09265593126758481
0.17905347834611648 -0.12030745303393876 0.09294660172722483
0.17918984545794905 -0.11952236838969398 0.09327547341258319
0.1792679831843021 -0.11887060604164654 0.09366517614755439
0.148384520742458 -0.18750787544428169 0.08969389974946655
0.14803842760960856 -0.18719549418893144 0.09009309308918659
0.14829033197453725 -0.18722217638553854 0.08982504647049362
0.14841640150555063 -0.18691435289809366 0.08968686759531982
0.1482411675961243 -0.18691101314155573 0.08989764949838884
0.14819342056490772 -0.18643151813384445 0.08995435976395932
0.1481823914558897 -0.18546799590158497 0.08987420453949956
0.1487219043319428 -0.18427808459513392 0.08882893082641868
0.14817865426762303 -0.184163053677855 0.08951419356231022
0.1483620139054866 -0.18349505489444115 0.08900642436246817
0.14836412356720532 -0.1829502871651789 0.08876285488576038
0.14810396157921282 -0.18295797076626577 0.08901135521561189
0.14792363453878662 -0.1823732096573121 0.08898966062543437
0.14802694130488228 -0.1818588184240988 0.08874122080214138
0.14779768998502824 -0.1818226817434579 0.08897063014462862
0.1477224141125069 -0.1813764333232054 0.0889583600849093
0.1477753217032482 -0.18056022099269334 0.08875706269558577
0.14856755147113596 -0.17948400730747607 0.08797912196507396
0.14799793912495635 -0.1796895433182144 0.0885285965449765
0.14821149064351027 -0.17892575223610413 0.08831736959109493
0.14849404853522716 -0.17835059648480883 0.0880088297707968
0.14796501247950755 -0.17818697185189583 0.08859989564773883
0.14846273151570286 -0.1777760605549997 0.08810922831398128
0.14881125808532403 -0.17739611571131417 0.0878309137671598
0.14848423770344032 -0.1773719251856504 0.08812874652547312
0.1485497685031681 -0.17691320835995367 0.08817281886622204
0.14887578767440232 -0.17647168344874878 0.08797685703874236
0.14860357124223228 -0.17646480697233186 0.08823004762159682
0.1487620918408047 -0.1760818526883362 0.0882523262494637
0.14914713370173002 -0.1756712686993513 0.08807479865162193
0.14931273820834914 -0.17507617138697362 0.08821089133412198
0.14940993985448517 -0.17442174663375018 0.08850878260693028
0.15041012584377927 -0.17383871720620356 0.0877826680862457
0.14988036113462525 -0.17388330734570207 0.08836811881374221
0.15036327326385396 -0.17332191607854244 0.08822303608731139
0.15076697476446554 -0.17288567307759264 0.08807893636670205
0.15040586110162352 -0.17274868365657384 0.08863066060693553
0.15087480900364938 -0.17252962960800608 0.08823596552505539
0.15119541009272622 -0.17224471689727663 0.08812844759947384
0.15150547791847213 -0.17171585628260594 0.08831324561229134
