# .PCD v.7 - Point Cloud Data file format
VERSION .7
FIELDS x y z
SIZE 4 4 4
TYPE f f f
COUNT 1 1 1
WIDTH 794
HEIGHT 1
VIEWPOINT 0 0 0 1 0 0 0
POINTS 794
DATA ascii
0.16719807230700015 -0.14043728738845843 0.1001308484686926
0.16741821688107655 -0.1396182802009782 0.10037090201760347
0.16765451243126886 -0.13880568522458453 0.10056862175969823
0.16828761042690624 -0.1381705707979174 0.10003368760059245
0.1678994143695867 -0.137961617202137 0.10073988050908494
0.16836530635385127 -0.13753758837816324 0.10031570627987721
0.1686554158768098 -0.13671006980160036 0.10030746771617757
0.16869429772697261 -0.1356130550347724 0.10073775089369325
0.16942338988555572 -0.13499424462200177 0.0998939278611313
0.1690760316731378 -0.13484408453764118 0.10044540007913703
0.16948156767108266 -0.13417290774211965 0.10006290252741475
0.16909737358372395 -0.13384739278742724 0.10071493695410697
0.16953267124152605 -0.13316752205133087 0.10024494887008403
0.16915571205858937 -0.13280654422730925 0.10089722111606107
0.16959410024776517 -0.13216705742211998 0.10041214168701829
0.1692439375031438 -0.13169904019376338 0.10106482120134866
0.1696613304169067 -0.13135307167286334 0.10053605847064771
0.1699497692232323 -0.1305254646341348 0.10037772383125133
0.1700444798814651 -0.12941708560090256 0.10070301399122339
0.1700839525027645 -0.1284314814477731 0.10114104896112452
0.17084955997536064 -0.12787761507986317 0.10034804608600421
0.17052439122274543 -0.1276093033986117 0.10099718329008697
0.17093558433289374 -0.12729580310092284 0.10061450372495159
0.17122410074527053 -0.12659808411712567 0.10072158597510585
0.17201493418457897 -0.1258624831147939 0.10011848880409409
0.17165652289874034 -0.12576189623892817 0.10074097133608245
0.1720554115398966 -0.12529803606062995 0.10051753151684525
0.17232179600842862 -0.12445836135945054 0.1008340056227831
0.17259230926379965 -0.12363860051304278 0.10112386850935799
0.17326498076621474 -0.12303786204717038 0.10063711840138445
0.1728724351997036 -0.12279546012182325 0.1014084146821015
0.1733620251641926 -0.12241063759564982 0.10101609015537126
0.173686826557525 -0.12161085457244955 0.10117872803203924
0.17453404145481044 -0.12092072560745291 0.10045477801076395
0.17418127606885286 -0.12076861506478594 0.10111393659863775
0.1746345371642994 -0.12015344024397118 0.1008992865098916
0.17428787781950197 -0.11974143656585857 0.10175954876083589
0.17473378064361925 -0.11937457690017692 0.10134041174422427
0.17505826163103316 -0.11851886157007561 0.10147703255204427
0.1753364933701885 -0.11774666499478363 0.1016267811676667
0.17600342664552002 -0.1171066555483301 0.10100720069775605
0.17561789307425257 -0.1169735973817393 0.10175594130809644
0.1761089023759224 -0.11649916039078019 0.10129707764230406
0.1764832483895181 -0.11568557731812015 0.10133839464473245
0.17670037503829472 -0.11460364487766479 0.101850072217544
0.17707749435677025 -0.1138001694007081 0.10191561879799936
0.17717550256234524 -0.1131755158018054 0.1022509889080742
0.17810273500466783 -0.1123141700075004 0.10150794974675327
0.1776134595557885 -0.11221318542312883 0.10234794153815265
0.17825419797393577 -0.11168306080976395 0.10178452786985587
0.1787466294498447 -0.1108064293336461 0.10173547356967544
0.17902697994005193 -0.10974359266122562 0.10211846248488618
0.1793623186989278 -0.10867308957727334 0.10247812167805048
0.17992309251959868 -0.10773651428810534 0.10240390968044123
0.1801640974921762 -0.10701596893880243 0.10270694121847028
0.1804681080840738 -0.1062218231996002 0.10298681611450654
0.18064511136960523 -0.10581897432549904 0.10312584935833757
0.14954734545248694 -0.17799430867978755 0.10092427332054932
0.14956755080765355 -0.17750700857693616 0.10136851132283045
0.14985454413690108 -0.17716986158031117 0.1011756143800652
0.14964097773199403 -0.17718942589493855 0.10157268204474025
0.14991795812428677 -0.17667912847059575 0.10147163540355857
0.15040348315760982 -0.1760756444232466 0.10094166866273634
0.15015971750374627 -0.1761289522457111 0.1015214972764083
0.15046059618573293 -0.17552822542293342 0.10141957172809236
0.1510074495413072 -0.17479044176474817 0.10071707355288548
0.15073342643619586 -0.17494259472804785 0.10136893621246702
0.15098912910169546 -0.17431162967028815 0.10126374997779494
0.15155319381690543 -0.17354006294343138 0.10057192132529694
0.15126702411863818 -0.1737027726133047 0.10118714218245838
0.1514668038393558 -0.17311380184327796 0.10113563270536281
0.15184164218063148 -0.17248405232411876 0.10066500604589296
0.15166355495162803 -0.17258044401932093 0.10110026876365324
0.15184773008741037 -0.1720969293250561 0.10106521860907158
0.15222017776003713 -0.1714575638493151 0.10061491321081438
0.15242755287811174 -0.17062559823720996 0.10072003009000258
0.15258310886936127 -0.16972902809529056 0.10113676165476439
0.15331335535084534 -0.16893606319930424 0.09995217807691781
0.1530052001435932 -0.16889060744564913 0.10079500188235495
0.15338932161013072 -0.16843389391484545 0.10025849927304943
0.15363883110320667 -0.16810515841556894 0.10005755414082115
0.1535008186148112 -0.16808109277830674 0.10038259855954153
0.15367410829473777 -0.1677042670340672 0.10044578424491607
0.15407517217142758 -0.16721354054798232 0.10011684073463835
0.15445588678749064 -0.16646919711960015 0.10022589481340093
0.15474600841275563 -0.16591091223675802 0.10030817159268617
0.15505656828314893 -0.16538337072336287 0.10038793478914018
0.15539687220743081 -0.16483798371728936 0.1004572988586162
0.15575633095764266 -0.16424930912123825 0.10058995058422307
0.15606212343944623 -0.16342448816894803 0.10106186134755756
0.15708584455965915 -0.1627643728454079 0.09999491260021967
0.15667978919186537 -0.1626246246201077 0.10083330301697618
0.1571940471455988 -0.1622661122723351 0.10035041423737984
0.15747693729279522 -0.1619373345752698 0.1002229421253363
0.15731524556734822 -0.16192142773039786 0.10051105367159482
0.15746755560908962 -0.16150315787556693 0.10066846248232311
0.1578255347761721 -0.16068283829759328 0.10083683315595775
0.15880683275063262 -0.15984969830034998 0.09999760641259142
0.15835929103812343 -0.1596711392063646 0.10085674814490328
0.15886219353255981 -0.15916414122752795 0.10047788551516385
0.1592237631445473 -0.15879439632180747 0.10021451722222659
0.15900011909923514 -0.15834220066500637 0.10093807043113401
0.15952540631870238 -0.15813067299866895 0.10028118522250308
0.159330262041333 -0.15753295625215843 0.10108853691143513
0.15971667253945543 -0.15738337533627034 0.10059142611422084
0.15999735317131408 -0.15707926743828501 0.10042443763302061
0.15982894804971257 -0.15699370402973004 0.1007463853606005
0.1599994601833255 -0.15660548468174865 0.10085538366037519
0.16043183359345503 -0.15591736674577444 0.10089695019909078
0.16145912125724074 -0.15504308493299793 0.10020161363853639
0.16097818036199626 -0.15514403120811132 0.1008720790171199
0.16145675650297622 -0.15443764816702363 0.10087007054189595
0.16186912745083393 -0.15391198181889099 0.10074503055189517
0.16160177612254867 -0.15364635100474247 0.10149432877057027
0.16203710488606898 -0.15338145684768548 0.10101757466906938
0.1623625083049905 -0.15269908447257782 0.10109342114656406
0.16309490641133945 -0.1519781818672171 0.10032664808251963
0.16281737685188408 -0.15182656954810297 0.10100752425995257
0.16316356797647164 -0.1514473461649973 0.10063520371128681
0.16337250825657543 -0.15072455703133858 0.1007129193200011
0.16341979520902802 -0.14973929466888766 0.10126154575175268
0.16400338623627994 -0.14908130839427916 0.10034803863529909
0.16374622694670973 -0.14887601766100964 0.10106563764652737
0.1640510221934454 -0.14845928533356825 0.10062074060302711
0.16423699367276673 -0.1476813777190454 0.1006375190270943
0.1643142907598963 -0.1466696594066946 0.10102900710571709
0.16436319701525548 -0.14568356544552166 0.10145399160716298
0.16499290541189027 -0.14509171441162758 0.1005011929540452
0.16470169390170072 -0.14493179962449354 0.10118069908135394
0.16505057526379335 -0.1443028088658681 0.1008768454614721
0.1647521082385953 -0.14389817941623037 0.10168594695571727
0.16510332948245293 -0.1435526196030285 0.10125712197974393
0.16533706658970582 -0.14278858529734556 0.10135759091148552
0.1660607193312017 -0.14209147836063657 0.10067111741649608
0.16575032001237733 -0.14186938341907002 0.10131532720831707
0.16613419831132695 -0.14155321788150108 0.10095464114625756
0.1663928406106096 -0.14099513359038424 0.10096097690836657
0.16699881111871062 -0.14018936897312362 0.10063487014169631
0.1666680702302574 -0.14039315747717218 0.10098337932957961
0.1668409028655949 -0.1396056941394442 0.10126775589256315
0.16729622193294813 -0.1386344796946086 0.10122340144567979
0.16743335331908787 -0.13758161425667925 0.10163195552085381
0.1682293807018555 -0.13706879253634663 0.10078141546645647
0.1678695144685786 -0.13687822736739477 0.10137580930510845
0.16829192735320017 -0.13624945671792485 0.10107295210659732
0.16789787858271968 -0.13577976309889175 0.1018045268335052
0.16834311320640247 -0.1354353665044051 0.10132460979413709
0.1686243325595105 -0.13460441714575216 0.10118532598172805
0.168712669932101 -0.13348497104505114 0.10137463580706811
0.1687778878772007 -0.13245978413772144 0.10154852971957211
0.1688033471634557 -0.13149325898420472 0.10178845953994596
0.16952896770549739 -0.1308750136413109 0.10088714426447562
0.16919215329469647 -0.13073534371342826 0.10145307944189731
0.16959773219800292 -0.130065353690135 0.10108374214882196
0.16922738945515142 -0.12974926527891095 0.10179253658116369
0.1696628153789204 -0.12909996703936294 0.1014126163056046
0.16932319296258627 -0.1286414707348474 0.10216512716615159
0.16973852442312176 -0.12831057974153331 0.10170904461078088
0.17002000609106815 -0.12753706956813068 0.10177714750953906
0.17081062930140212 -0.1268875249768254 0.10108034368145963
0.17048502893722745 -0.1266278591663198 0.10173521524768106
0.17090512084041856 -0.12634269713362098 0.10135467170822728
0.17119595070151272 -0.12578756949408632 0.10137574766837162
0.17185102860122947 -0.12500967165226387 0.1010595948979778
0.17149738187986863 -0.12518572638684203 0.10141732695431645
0.1717173443738551 -0.1243799245191526 0.10176509015797999
0.17222746879044193 -0.12343577456338148 0.10181476720893673
0.17240019371534948 -0.12239548860518117 0.10239376160274152
0.17324333322047836 -0.12195380354033514 0.10156729443008583
0.17291949874848028 -0.1216366794515448 0.10229046093430846
0.17336298740200742 -0.12130862386075592 0.10191648542921493
0.17371407743791886 -0.12046463220696836 0.1020649571259094
0.1739579728417298 -0.1196364532919052 0.10234390042187441
0.1745941737981627 -0.11896950695299881 0.10189444495296754
0.17421140901424917 -0.11881312044732871 0.10260845819688441
0.1746864355660727 -0.11836889463452512 0.10221440305386549
0.1750174744300436 -0.11754376268834935 0.1022923253739593
0.1752911404285831 -0.11678850582066727 0.1024125775799567
0.17596738028080966 -0.11609994506093178 0.10182665436773405
0.1755627463004662 -0.11602038072621326 0.10253289768120136
0.17612073856335267 -0.11530734926490342 0.1021804114167694
0.17578306995355455 -0.11489519554132731 0.10300137008086442
0.17627370623455296 -0.11454111993875174 0.10251975155910813
0.1766592249067303 -0.11377925760609471 0.1025522615817008
0.17691145327959548 -0.11281929551757784 0.10293777529332404
0.17714384728185012 -0.11188176578985318 0.10337131329708567
0.17811131665572355 -0.11129084902540712 0.10232259413907031
0.17772141948141423 -0.11117606389089682 0.10304495823610384
0.17832760696948147 -0.11048296956027912 0.10262610180974024
0.177953812616956 -0.11021745291758568 0.1034654125842505
0.17858764376829808 -0.10953493467846245 0.10298117134231434
0.17825766865089512 -0.10922851317110265 0.1038505646821709
0.17882893022833737 -0.10876137091582734 0.1032822029937412
0.17937449174951964 -0.10787944998232636 0.10320107821172729
0.17975185536114519 -0.10689993813222377 0.10355701451714154
0.18012327672535275 -0.10609905068896013 0.1039356205041063
0.14956400852618915 -0.17718669235945078 0.101670847022475
0.14997641992345026 -0.17604587056520685 0.1019236098196619
0.1498223176358477 -0.17592349871639015 0.10227696333025928
0.1500128593078577 -0.1755439545298688 0.10227863101046705
0.1504263174979547 -0.17504219821013134 0.10193760968204149
0.15012172614805505 -0.17511051501750277 0.1024596982890863
0.15040637023908235 -0.17455350115201287 0.10243445602285839
0.15097231971596783 -0.17386444728242567 0.10180826202295064
0.15069366748142574 -0.17401892262325644 0.10242469990207549
0.15090848813360425 -0.17339232140324334 0.10230074843768566
0.15141402629787507 -0.17266336772797872 0.10161301679688595
0.15113240398557337 -0.17275561325523692 0.10215844350311785
0.151386587554851 -0.17214668068004374 0.10204687996950033
0.15195290470821915 -0.17145534653911637 0.10136056221922501
0.15166858180522996 -0.1715185986795099 0.1019270240655993
0.1518531585605765 -0.17090860295251858 0.1018833874594011
0.15224435951523266 -0.1702838946048436 0.10149899216940028
0.1520380977523751 -0.1703489870628514 0.10190531493974601
0.15218078308862526 -0.1698889181461491 0.10199042777035229
0.1525263561494212 -0.16911436430978244 0.10185359219178436
0.15330483501956202 -0.1681560163989089 0.10079283840680117
0.15294686596791807 -0.16832109993246425 0.10158983371773024
0.15336665567920618 -0.16761135470819513 0.1013338463449532
0.153868763501651 -0.16701871242381405 0.10085290744044077
0.1535825092761012 -0.166826142066072 0.10186085987195032
0.15413141358681523 -0.1663606725621426 0.10112682543823893
0.1545373857430592 -0.16590957420984295 0.10078177145568663
0.15432192946356674 -0.16593127750005413 0.10125934091379582
0.1546031690783867 -0.16542433315194305 0.10135827666583481
0.15514784947626414 -0.16487002066869916 0.1009501168535217
0.15491631302968936 -0.16489431135827518 0.10143657981006085
0.15521782982019183 -0.16438776201251568 0.10150669378386741
0.1556212270600607 -0.16392053216031988 0.10130564827706232
0.15542713448459622 -0.1639585689356137 0.1016394035964336
0.15561964124598154 -0.16352561363420628 0.10179267794976332
0.1560623419598537 -0.16271839578479158 0.10187425893064785
0.15709203485537862 -0.16192009847257471 0.10087733229655699
0.15669405210965168 -0.16177226492803953 0.1017207911335845
0.15718413268997253 -0.16137869616699682 0.10127412409410982
0.15744185448302297 -0.16103408883748718 0.10116526323012172
0.1572899255483704 -0.1610042438351213 0.10146447609626331
0.15742748647323715 -0.16057679063142744 0.10163638908340022
0.15775649313910084 -0.1597475605054771 0.10183078841032349
0.158612513009072 -0.1588472177548122 0.1011447521904455
0.1582343562000054 -0.15874982954600006 0.10188770787411171
0.15862709037886424 -0.15831113625165122 0.10157713956906696
0.15886266270759697 -0.15762287076774797 0.10179812025141421
0.15964057248472752 -0.15694955230302554 0.10109533826179413
0.1593104479803135 -0.156805942490891 0.10180070690128327
0.1597209311931213 -0.15643681953278038 0.10145154287980244
0.15999306439915129 -0.156137080203185 0.10131975773074177
0.15983299014244925 -0.15608361162045373 0.10162409349036061
0.1600470941923381 -0.15569688223042547 0.10172730673205464
0.16052616737101597 -0.15521975346714606 0.10150507353181307
0.16091971900953642 -0.15440390986272196 0.101798259034885
0.16118595076476583 -0.1535316955124056 0.10233436691417262
0.1619737759474592 -0.15301527120087038 0.10151668084809129
0.16169991686811347 -0.15280249719511935 0.10219979341687385
0.1621010002706927 -0.15250158085134183 0.10178823624882698
0.16237881589325864 -0.1518045010681027 0.10186995656097501
0.16305243491180943 -0.15108270104467492 0.10114048245193291
0.16276584687867077 -0.15098755526320035 0.10176297506052176
0.16310165370262591 -0.15036288908701564 0.10153808019987862
0.1628118219948127 -0.14996144481483273 0.10237015745513824
0.1631482898986133 -0.14962017395748411 0.10191951073669903
0.16334728150665997 -0.14882014305903682 0.10196505498661006
0.16393778100970005 -0.148053831678327 0.10111665350739099
0.16366789304460905 -0.1479622372384691 0.10175184807651175
0.1639788704830733 -0.1472789374368963 0.1014424110056873
0.1636834653590917 -0.1469680030845717 0.1022356751058154
0.16402798345982575 -0.14633614005036488 0.10182375438966303
0.16375384101708848 -0.1458939259274446 0.10262930517335125
0.1640833934178338 -0.14552826074741637 0.1021243163174428
0.16431858829956264 -0.1446374384507649 0.10211391075215286
0.16448409761646207 -0.14379775132193232 0.10224949218887652
0.164973514642236 -0.14314958164016509 0.10173621972954701
0.1646562656895966 -0.14298487165843488 0.10239033098794968
0.16503095313026692 -0.14258924501118417 0.10198448564371207
0.1652781722170663 -0.1419325980497379 0.10199589623154401
0.166029531382732 -0.14110372353116207 0.10142800196844008
0.16560482747806782 -0.14086807292894427 0.1021799552724332
0.16626348855784134 -0.1402922135310356 0.10163266049839782
0.16590396930950183 -0.13980732798332246 0.10241857917639394
0.16638411653958307 -0.13933363495986553 0.10206948252973412
0.16679007293863385 -0.13881098155363986 0.10183583357853647
0.166416655437081 -0.1384343356859376 0.10252932608776429
0.1669633520216233 -0.13805547595589704 0.10202229742060842
0.16669246459992698 -0.13752262857377542 0.10264064235398418
0.16709792889769126 -0.13733314646531342 0.10221805191390987
0.16740099051147525 -0.13660987815520065 0.1021485605148415
0.16745086337696208 -0.13567342950951852 0.10245975852760877
0.16817343298860515 -0.13491404566069606 0.10173163517032847
0.16772847015320527 -0.1346532355501896 0.10243220560670867
0.168263011708295 -0.13407176417702757 0.10186004721767877
0.167983403938623 -0.13363880675023757 0.10239298964235406
0.16835660479871067 -0.13310303303072682 0.10199924416875022
0.16800269274844312 -0.13277524386587256 0.10262358352739304
0.168414646268694 -0.132153579438608 0.10218998779305223
0.1680791093961155 -0.13170115002666746 0.1028568085959847
0.16847712238725687 -0.13135721864589334 0.10233830603203399
0.1687573076268034 -0.13053243483619056 0.10220116357415905
0.16885112026716756 -0.12942518909343428 0.10253018337349715
0.16889126898873028 -0.12844406868634628 0.10295240095136952
0.1696177805672258 -0.1278734267110809 0.10213705881290511
0.1693144520824009 -0.12761755702337113 0.10275176489104595
0.1697085149571789 -0.1273012544603079 0.10236509058904499
0.16998788224928682 -0.12665861127184602 0.10241173028825669
0.1708059872209518 -0.12585988552362753 0.10186000882979168
0.17035812463265812 -0.1255622664940775 0.10268714422680263
0.17108133116940638 -0.12502409879702886 0.1021195089433886
0.17074160733510005 -0.12440692390070521 0.10303486841397709
0.17127649130612188 -0.12402690403017125 0.10263372908586821
0.17171518004363848 -0.12356294931048509 0.10242593673493483
0.17139155091721933 -0.12314904553703371 0.10316508768718183
0.17191889398538748 -0.12283953499670754 0.10271094445653862
0.1716946622096894 -0.12232144683858164 0.10341251727661269
0.17207662478933866 -0.12216678261757108 0.10302470442662853
0.17238137579956767 -0.12150745336556688 0.10312852634373595
0.17324844146182605 -0.12086096530022167 0.10244573833951742
0.1728758632437241 -0.12062827698524753 0.10313868446864784
0.1733393679120704 -0.12026141263569806 0.10279357908629895
0.17363370034172615 -0.11952094436842764 0.10292184713887073
0.1737409531531401 -0.11855017191308234 0.1034895570350251
0.17455743060085444 -0.11796664487749675 0.10272620473844443
0.17420177180203764 -0.11772215683111352 0.10341733591481782
0.17464784655023277 -0.11735476487768405 0.10301814043304884
0.1749737155996912 -0.1165995741435362 0.10302815037413643
0.1751961346309859 -0.11546326507028253 0.10347149667096876
0.17547134332004505 -0.11474294700666281 0.10357197677203178
0.17614979570597375 -0.11412517889798598 0.10301611049790936
0.1757517820130712 -0.1140377972939152 0.10367437429315676
0.17632663716301997 -0.11337181660414254 0.10333981717635743
0.1759916484022312 -0.1129940881893952 0.10413792354197964
0.1765711925706728 -0.11246281948055711 0.10373356489823689
0.17629499592550038 -0.11198450911468663 0.10455235808567341
0.1768018716885994 -0.1116996492547019 0.1040580388026418
0.17726341796543604 -0.11085739267903902 0.10404771636809633
0.17770168968385675 -0.10990404984852377 0.1041626152400861
0.17781085074458725 -0.10926132986815858 0.1045492327325894
0.17872233728374415 -0.10839593454177589 0.1038109973514891
0.17830832351260745 -0.1083994256387656 0.10455323689553303
0.17902522972905352 -0.10762942875499522 0.10409125953855879
0.1787344699415133 -0.10741413408344139 0.10489980404695091
0.17943125760898612 -0.10673617740188998 0.10443180641893511
0.17919479538177022 -0.1064833675605092 0.10529643924484214
0.17978045100404988 -0.10605947008472429 0.10475336367760417
0.1800174926244892 -0.10566100686100664 0.10481168350278884
0.1499967520591174 -0.1750347918428952 0.10276189550562934
0.14999005588766298 -0.17450867417344598 0.10324975138680718
0.1503609868080053 -0.1740960083618817 0.10295685765328486
0.15002561487264426 -0.1741660722432837 0.10347891984235845
0.15024376193745614 -0.1736006258374972 0.10341493130937995
0.15081315953053442 -0.17287618887922257 0.10274068539092152
0.15046270392024444 -0.17299659789175006 0.10332235361872134
0.15074390445653307 -0.17236405875090555 0.10319781793214874
0.15132640211734202 -0.17161334233000558 0.10249645497074765
0.15101400066786927 -0.17172751819634052 0.10307525690803103
0.15125163508684283 -0.1711126697203396 0.10297850674994584
0.15177389837493852 -0.17043271427066992 0.10239238313876488
0.1515063229622872 -0.17051669841012823 0.10289970613007147
0.15171377362286542 -0.1699944476555346 0.10288974433097779
0.15211754525672527 -0.1694900634615461 0.1024516049039411
0.1519217362364412 -0.16949621135867102 0.10284326776247213
0.15212212897888902 -0.16906219740773187 0.10279409104437237
0.15256328859821072 -0.16850431257054382 0.10234491155371753
0.15287152877474403 -0.16771503782005595 0.10249425898649712
0.1531405162900704 -0.16689894937748884 0.1028777354028823
0.1540678325784654 -0.1660381148184402 0.10176093076375775
0.1536241928726752 -0.1662084598415875 0.1026175418667381
0.15416265326029394 -0.16548203287586996 0.10235489243002485
0.15469702357989662 -0.16486891502875695 0.10196398004989916
0.1543663718624092 -0.16470610887657663 0.1029345798997716
0.1549157053688313 -0.1643134505684475 0.10225087238378314
0.15525778245816504 -0.16395314981913872 0.10199593774914595
0.1550817591024935 -0.1639510267651394 0.1023699005947238
0.15527981925376277 -0.16352362756143404 0.1024783689921373
0.15561616099290654 -0.16311116449895585 0.10228348037913136
0.15546456117130522 -0.16309918517262453 0.1025988723605215
0.15563517956944584 -0.16267471098769584 0.10273053890337774
0.1560578952694359 -0.16185321779395181 0.10280065237934866
0.15708211424640828 -0.1610125377011194 0.10182125615060532
0.15668401103043025 -0.16087832676290925 0.1026535049853607
0.15716160450453626 -0.16045103530816382 0.10224099086382635
0.15739949484171778 -0.16009275567873216 0.10215309163372094
0.15725431820229577 -0.16006485526026754 0.1024483117292503
0.1573712634793422 -0.15964488743277522 0.10263499017071384
0.15768353592069165 -0.15882670770054425 0.1028500866232338
0.15847531746956556 -0.15800642517616298 0.10211858196637993
0.15816853822090496 -0.15786184402997552 0.10285485488708877
0.15854808522434286 -0.15750159794987276 0.10247164184406124
0.15883710801324025 -0.15687674415791927 0.10258277278085241
0.15963220903125477 -0.1561074393137943 0.10195951388725069
0.1592580047552407 -0.15616397471585652 0.10258720587481847
0.15972077439639285 -0.15550462683501745 0.10252450939018051
0.16027231994225596 -0.15496371906419354 0.10221985279284866
0.15995333213787277 -0.15464880323985575 0.10315398006258356
0.16050583626748754 -0.15431633462344305 0.10260604070531108
0.16082005165452518 -0.15395509375532573 0.10249912063992939
0.16064718338280462 -0.1539502332478581 0.10280565621603859
0.16082044905931758 -0.153545351041245 0.10296887808291284
0.16120390678771115 -0.15279413275496098 0.103076626832971
0.16201862174489132 -0.15213451180149576 0.10226825707849158
0.16172476164097158 -0.15192495368664377 0.10295683571699077
0.16211639894965113 -0.1515815138463798 0.10254967612595378
0.16238018872275414 -0.1508224372269181 0.10261502170875429
0.16243097027055617 -0.14978021396011917 0.10321710452703681
0.1630377279307148 -0.14918316267106757 0.10240670134572133
0.16277462371141657 -0.1489269800055692 0.1030672502481217
0.1630909450079548 -0.14856404562116243 0.10264832495637584
0.16330862909639599 -0.14776159995696356 0.10261874998483608
0.1633678133227448 -0.14657037266099934 0.10309729675334198
0.16350496455720318 -0.14578950344451042 0.10319760754243897
0.16396045004672255 -0.14510256867201682 0.10259562354766784
0.16364899945067957 -0.1449699296132198 0.10328931581316472
0.16400205425463696 -0.14449653125145254 0.1028132334451559
0.16421360091088835 -0.1437084201723323 0.10280049753451992
0.16426088224438257 -0.14269777375398074 0.10322730767048006
0.16492316020916464 -0.14216218673007625 0.10241639425897583
0.16462820839903602 -0.1419709998151486 0.10299828917040604
0.1650422446741076 -0.1414024445750836 0.10267359288607793
0.16468702447577502 -0.14091637597615886 0.10345344918668911
0.16514865883980598 -0.14064566738327933 0.10294199708413951
0.16542502441648665 -0.1399897220042516 0.10292799081616076
0.16604505374316633 -0.1390845239251861 0.102652424606005
0.1656832865876408 -0.13932581687336326 0.10296685505245796
0.1658084241426913 -0.13854359745551925 0.10321723500402938
0.16618351499478845 -0.1376862262894376 0.10318150914264046
0.1669517062455723 -0.13686736700955604 0.10262035714919458
0.16650158185955466 -0.13672007599238192 0.10323113882876174
0.16702096133142125 -0.1361110363700963 0.10284501391373506
0.16661083763666557 -0.13556728594890555 0.1035748211680381
0.16716850689164817 -0.13516756658099294 0.10301251994129226
0.16688319255610912 -0.1345654270108342 0.10362004434442562
0.16729746082743024 -0.13436644596824524 0.10313044771173203
0.1675629181837966 -0.13355127913628137 0.10302227987099648
0.16762637480394738 -0.13245844949024907 0.10329484978103319
0.16766461058899987 -0.13149235204907628 0.10360492030294641
0.16834975745594538 -0.13088637623905017 0.10270869319648691
0.16803469777934965 -0.130745465656297 0.1032987565104786
0.16842401724650577 -0.1300787914053012 0.10292597789611595
0.16808339292158098 -0.1297528290920472 0.1036617368339515
0.168500492614397 -0.12911849796877983 0.10325341015562337
0.16819075222524899 -0.1286847811731389 0.10400023679812889
0.16856862049500207 -0.1283380020144109 0.10353597977358253
0.1688276854754553 -0.1275416355875694 0.103560051625564
0.16960606147265794 -0.12686895912564 0.10280167128028735
0.16927829766821822 -0.12670489767002607 0.10339360065094377
0.16974273589990144 -0.126118831367617 0.1031263262454567
0.16938116364173267 -0.1256424209455519 0.10396564083422519
0.16986617759806852 -0.12533713409009617 0.10350111455877009
0.17016497619145152 -0.12454210104241792 0.103680690780868
0.17099080046851045 -0.12367803761066802 0.10326407753544034
0.17057697660636975 -0.12366141997505067 0.10380291021175264
0.17096207555428283 -0.12317915646089485 0.10367414069581819
0.17114400272492383 -0.12245297899900842 0.10399657595795958
0.17197472951231457 -0.12176733111467504 0.10348327466417398
0.17162231981735804 -0.1215565227765196 0.10408467418622182
0.17205371317013948 -0.12127599436711102 0.10375236474700017
0.17233497509432733 -0.12067695606013643 0.10381697188092245
0.173173825470943 -0.11982518035548004 0.10335246103786948
0.17268577694859052 -0.11963252093433115 0.10412605922755586
0.17328752081750143 -0.11908361564411474 0.10374407057974035
0.1730351883368322 -0.11858290957975876 0.10444543272244677
0.17342061431558942 -0.1183880420029489 0.10407376788283426
0.17369682631782332 -0.11775796841823567 0.10411292306333875
0.17450526393107602 -0.11689704265871281 0.10354625188862371
0.17404760697686375 -0.11668494910373421 0.10433380936849307
0.1746527837737235 -0.11609055292782545 0.10386517398419859
0.17439997627071824 -0.11554730050128248 0.1046045461356777
0.17481463516207663 -0.11530510166722456 0.10414772963211956
0.17516662882010073 -0.11457190539793691 0.10413566104329693
0.1754136098431233 -0.11355684278266835 0.10452346023974234
0.1756691249838888 -0.11250931279323176 0.10499784869425238
0.17597876053644593 -0.11181423363223213 0.10512798013363554
0.17671118046184398 -0.11128118250744883 0.10455297327658919
0.17632758800637643 -0.1111093681857525 0.10524640555490296
0.17685626123490758 -0.11070176481565153 0.10481097457240782
0.17727400379495084 -0.10991144511800041 0.10484292028806867
0.17761428356575712 -0.10882047262898509 0.105270293175987
0.1781587478841096 -0.1079670342967503 0.10528413382355682
0.1784576521993115 -0.10722459489085188 0.10564948127225347
0.1787896534348444 -0.10653362444850535 0.10600317777945437
0.1797258829410921 -0.1057903385665796 0.10525392966549244
0.17927543318601313 -0.10590956135934321 0.10594819212355094
0.1798289037440649 -0.10554176327887539 0.1053653872790506
0.14979130315195524 -0.17411576969829173 0.10387944394414231
0.14958936174596044 -0.17403376631069992 0.10425367827828666
0.1497621341025784 -0.17364048751847033 0.10424436059052929
0.1501376809079202 -0.17310368712092963 0.10387415113263102
0.14984183575914134 -0.17319212433591752 0.10439689045668703
0.15010092447922146 -0.17259456146019317 0.10432792808377606
0.15068647264678536 -0.17186158004295177 0.10367175686900584
0.15034438854950713 -0.1720058892442409 0.10426817115245503
0.150623194349927 -0.17138082276093708 0.10414407622915252
0.15120361217465136 -0.17062497936645984 0.10345447636312359
0.15089289400800537 -0.1707567554903447 0.10403942541389882
0.15117039725838738 -0.17017933122622647 0.10396630963451238
0.15168356156918963 -0.1695349153013734 0.1033331911501578
0.1514356227289912 -0.1695981271083664 0.10387028383678519
0.15170589921179461 -0.16905609166452915 0.10380073385465044
0.15226890671746057 -0.16842334535821335 0.10311187759133665
0.1520179796130361 -0.16846327671673983 0.10370323356529189
0.15228350391196938 -0.16791616649133775 0.10368672838308901
0.15273397041378042 -0.1673663502390818 0.10328419859621604
0.15253387815645725 -0.16741393451684702 0.1037116968535018
0.15275592754200903 -0.1669806047208573 0.10374121379778721
0.15320991367744655 -0.16641192277782899 0.10336455194508813
0.15356627793426553 -0.16564362274960265 0.10355000005570494
0.15385374733765889 -0.16476396802946575 0.10402566525540338
0.1548575674514796 -0.16397651995619447 0.10279636922707618
0.15447740056930293 -0.1638950622337864 0.10368086390364643
0.15500055056477893 -0.16344717764317832 0.10313422754870835
0.1553073927829292 -0.16307854425621662 0.10293745933778833
0.1551346954887272 -0.16307676503230337 0.10329045118365181
0.1552907371997604 -0.16264582556189922 0.10343293677207334
0.15560812748490285 -0.162219688226743 0.1032477615335692
0.15544391211495365 -0.16219766591417462 0.10358359955499132
0.15559321422212055 -0.1617775488184742 0.10372758574634802
0.1560404570014798 -0.16096500183360996 0.1037320795349228
0.15704937340729638 -0.1600992143488228 0.10278478116950629
0.15665243472700802 -0.16004912778319125 0.10354340163777065
0.1571005027342622 -0.15956615746375438 0.10322734709028797
0.1573335773526821 -0.1591876699301121 0.10317381093204116
0.15718244964854494 -0.15919302674791577 0.10346778713883699
0.1572785107385354 -0.1587673056894744 0.10370609994261086
0.15762681683002974 -0.15790280169412324 0.1038920488054881
0.1584595502172464 -0.15716101157935236 0.1029924635853684
0.15820526066986418 -0.15693374556692596 0.10378148688064992
0.1586038112408305 -0.1566626745059276 0.10326020473121379
0.15890748687675904 -0.15625214684603614 0.10314360676923345
0.15923354149034213 -0.15546162367995428 0.10348170048164385
0.15948823119836344 -0.15455715996785135 0.10409985554065469
0.16042979779085043 -0.1539540702954929 0.1031693796903865
0.16007415772731345 -0.15377287312162358 0.10397625327760134
0.16056705850859582 -0.15343764215317063 0.10353870707909665
0.16084064913299279 -0.15312177598543197 0.10341296840637525
0.16069923314735932 -0.15309022428840935 0.10369984647127793
0.16085862191144884 -0.15267728322517243 0.10382756625826843
0.16122998166695993 -0.1518771809723161 0.10387909380856712
0.16201101616529617 -0.15116647359266328 0.10305578298146213
0.16169566356812037 -0.15103870604420164 0.10370912868764905
0.16208102833008536 -0.1504161397085675 0.10345965670094949
0.16177625718517902 -0.1499862985783882 0.10430217847308157
0.16213944221423232 -0.1496569518474938 0.10384998851705458
0.1623532137883724 -0.1488589444077157 0.10391513170328598
0.1629792843569829 -0.14811567996346267 0.10311323256878878
0.1626932154124547 -0.1479961682850656 0.10373147152911948
0.16301994711181914 -0.14731925347175231 0.10343697572165587
0.1627115111214793 -0.14692945474325012 0.10423339825982476
0.163054855189741 -0.14653121691665566 0.10375708087894286
0.16324589302787418 -0.14572171672307363 0.1037493895218739
0.16326750369959775 -0.14472673532770453 0.10414499047378464
0.1638708383100769 -0.14408424528895222 0.10326732094013331
0.1635799172587266 -0.14395757155383287 0.10387789400110915
0.1639100723211478 -0.14330739338971304 0.10355428045531492
0.16358411684769233 -0.14289500928183715 0.10432096025790032
0.16395397268901413 -0.14253062039604092 0.10383454023652396
0.16420955154890465 -0.14173944185295703 0.10377673737623672
0.16426052967325078 -0.14081141064295308 0.10412290754779838
0.165002038806838 -0.14010968847696312 0.10342755494582588
0.16454085670718116 -0.13981049110590776 0.10418871764651
0.16522959739334564 -0.13923073890712503 0.10357722661309159
0.16482579749216075 -0.13861688324638577 0.10437422508896531
0.16534373092486085 -0.13824412245972206 0.10391426540811002
0.165736804083479 -0.13779989272035764 0.10365402120608895
0.16543538988222053 -0.137432539025633 0.10417884607015536
0.16591466584263617 -0.13706179499674281 0.10377824917219974
0.1655336118724072 -0.13651574032635183 0.10447920465251985
0.1660901302478516 -0.13616013737017318 0.10396516871123322
0.1657877097042022 -0.1356059854866848 0.10458498844858574
0.16618114118579186 -0.13541961679340128 0.10416855392915211
0.16641321413476515 -0.1347370654014156 0.1041631754596211
0.16712288320924126 -0.1338453037652998 0.10355819568768047
0.166673042783729 -0.13363588948083222 0.10427093825895563
0.16719360215396423 -0.1330513836792786 0.10373712044242447
0.16691859280749616 -0.1326267201415021 0.10432620429043282
0.16727977465845822 -0.13212447927132182 0.10396247740336595
0.16696267003916107 -0.13169947823607367 0.10466795154673375
0.16735116481182527 -0.13135499072554552 0.10417592636093413
0.16763047709091483 -0.13052975002879658 0.10408502214960377
0.16773295017649154 -0.12934990741163543 0.10447073407721919
0.16791311698069086 -0.1285714113098955 0.10454347887793657
0.1684423819142947 -0.12792027353646052 0.10397593106787445
0.16811067770410415 -0.12775633998700386 0.10464886412705374
0.1685174112344274 -0.1273111326247064 0.10420040107290099
0.16882088330278 -0.12650527333529482 0.10421512934166328
0.16890385688803583 -0.12544824195858567 0.10477952282981734
0.16971163242111892 -0.12487032244340568 0.10403616599496396
0.16936223709850784 -0.12459010220814974 0.10471376042267624
0.16980163463132278 -0.12429972684505697 0.10432329123567478
0.1700958053840844 -0.12373639997300463 0.10436141325409523
0.1707220227330454 -0.12296852604906923 0.10413394259653248
0.17038319985255507 -0.12315017617675356 0.1044306686836631
0.17056838076323383 -0.12240567300682599 0.104750245346304
0.17103852341249454 -0.12160520922427508 0.10475842348935373
0.17192016897278184 -0.12085660245643678 0.10422789297544274
0.1714750889614424 -0.12061711836665069 0.10495056758191304
0.1720778948852447 -0.12015963146948438 0.1045295917303405
0.17180249119448324 -0.11972269150858401 0.10517596788212573
0.172211621559139 -0.11945536292890535 0.10486191046174814
0.1724694170349532 -0.1186539633131464 0.1050961294472829
0.1733229626022362 -0.11795307834459827 0.10451084992039224
0.17297706523870246 -0.1177891729140627 0.10506044850108417
0.1734545363526497 -0.11723907891798692 0.10479771416835247
0.17308433700217385 -0.11676082155260918 0.10560057696017777
0.1735847395364852 -0.11647691714464128 0.1051120459438142
0.17390252891447358 -0.11573805284215556 0.1051724747040624
0.17470022171055044 -0.11482755808602503 0.10465100982332942
0.17427613992687718 -0.11461161320834563 0.10542082696488889
0.174869968750053 -0.11406439583819283 0.1049333773905559
0.17465212222764834 -0.113622856232288 0.10560165817286964
0.17511080168574505 -0.11315050420578313 0.10529451201423524
0.1748220095863162 -0.11272485467689086 0.10609213050088179
0.17528719827165748 -0.1124160361460354 0.10565187186414604
0.17567359457852738 -0.11162571769339036 0.10572698046658402
0.17601691605620584 -0.11091749942483337 0.1058482239800657
0.1767598710187576 -0.11029119895805678 0.10532120829465996
0.17636822140152703 -0.11019850612053708 0.10598560992026027
0.1769871749308257 -0.10950633445026817 0.10566098177479433
0.1767268149586968 -0.10906230707900774 0.10647929065607473
0.17724054965160252 -0.10872513977638155 0.10597549233628757
0.17775850420096517 -0.10794785697906743 0.10596964935737066
0.1782066970869131 -0.10701324112994492 0.10636019228632336
0.17868930810761213 -0.1062050151128145 0.10665104543828596
0.17892174143377654 -0.10564149368162257 0.10694421418152905
0.14971328923704388 -0.1731162544129877 0.10469026314144937
0.14972707314303646 -0.17258087226657146 0.10510853342431067
0.1500678233392272 -0.17212938297089259 0.10481449463112556
0.1497967971220916 -0.1722279879630891 0.10529616998539483
0.15011953815042728 -0.17162506212639903 0.10514560712502
0.15060292813153633 -0.17092047908354097 0.10464396260414223
0.15033286314622807 -0.17104465640756486 0.1052062385229352
0.15063128504520462 -0.170450309539729 0.10514617688280241
0.15116498158874786 -0.16973618938229884 0.10448122296796515
0.15088720837644207 -0.16988865326831343 0.10510800659486413
0.15117936869582926 -0.16929360403237326 0.1050071151626816
0.1517416810012207 -0.16856018827379257 0.10430531304223627
0.15147001349318992 -0.1686892880974488 0.10492098415774799
0.15174360789333952 -0.16811614817127693 0.10484961685734756
0.15228579743487095 -0.1674737040766593 0.10422519074515191
0.15203428406628477 -0.1675496693363652 0.10477807760993144
0.15232155779788759 -0.16702201286209956 0.10474271419768334
0.15290946604119238 -0.16638871010010153 0.10411343036090986
0.15263845434666531 -0.16645662270054745 0.10469088880967435
0.1529215320454393 -0.165911305474587 0.10472539114813749
0.15339235359519718 -0.16532935013392336 0.10439004916498563
0.15316859216613293 -0.1654138254991125 0.1048179000882349
0.1533848859236288 -0.1649484143086979 0.10492289985391443
0.15387643660357375 -0.16410179918937337 0.10478641247583675
0.15489762072883184 -0.16313822892656615 0.10367890487210125
0.15446766349802107 -0.16317262433427512 0.10449191199624198
0.15496800062104932 -0.16262375903798632 0.10408563357366726
0.15526200340298477 -0.1622015347929458 0.10394376749868202
0.1550486754745802 -0.1622446372442541 0.10431230535846807
0.15515538218854022 -0.161806333475734 0.10454068236248742
0.15554186397027506 -0.16131901897776468 0.10428412749621203
0.1553407004717613 -0.16130381031817823 0.1046822502960492
0.1555588292748157 -0.1608378821186822 0.1047471145878285
0.15612460918570406 -0.16014012459080104 0.10441431630266551
0.1569485568531455 -0.15929581745858667 0.103779864532594
0.15655370175729616 -0.159513632986686 0.10425638251114715
0.1568282792365234 -0.15877687607629387 0.10451274775325844
0.15721093727649585 -0.1582809666730591 0.10431738466803538
0.15703565744524203 -0.15825040847946148 0.10467706391932743
0.15719077702389425 -0.15780101421814272 0.10484591444482298
0.15761945562876284 -0.15695333392614766 0.10493663744553802
0.15867247254836706 -0.1561105867238169 0.10378904547939954
0.15829768741730915 -0.15593056583589038 0.10477622852167184
0.15883294463296188 -0.15544265748625566 0.10429464172375835
0.15911667785543557 -0.15502394132569433 0.10424426502863021
0.1589479258517528 -0.15504281317682556 0.10456028455667295
0.15910049487719083 -0.15460764297849552 0.1047803906127639
0.15949579321240492 -0.15381785173268492 0.10495437391180747
0.1604907437789776 -0.1530732443357904 0.10405382186583198
0.16010569289086693 -0.15288489782881592 0.10487876099313798
0.1605997897364657 -0.15251420199430862 0.10443495886976878
0.16087052957819747 -0.15217795503024614 0.10428667061531721
0.16072301901809546 -0.15211595656165156 0.10460333601325619
0.1608807306558433 -0.15163797278386107 0.10472085421556626
0.16129053986245248 -0.150797579739335 0.10462677550183566
0.16140591273777183 -0.14976944909230352 0.10513078695634978
0.16202207783267056 -0.1492159883965624 0.10433613260442043
0.16174139779340255 -0.14895166635328014 0.10500527086975295
0.1620764813711289 -0.14859665829427196 0.10459025238779242
0.16230409562586204 -0.14780276352579635 0.10457725630000675
0.16233212979907677 -0.14673886596088817 0.10504898490529876
0.162921574353001 -0.1461056741665421 0.10421801487876158
0.16263737441211015 -0.14598180545374692 0.10481363372386424
0.16294887540088604 -0.1453465400949236 0.10449714695996899
0.1626306897520054 -0.14494498147326293 0.10525532384211891
0.16297669787382682 -0.1445812398898967 0.10476188452257185
0.16319439452766513 -0.14377526869398602 0.1046729072604891
0.16321538257386747 -0.14284217539688226 0.10499314362059309
0.1638098970945339 -0.1420446397475746 0.10429236417365119
0.1634231977269293 -0.1418264595691643 0.1050204086950646
0.16388674305162365 -0.1412620599851639 0.10449647372587838
0.16363787789292578 -0.14082275268128674 0.10506238825906396
0.16400091806684702 -0.14036673830009555 0.10469832323595417
0.16364785879796545 -0.13991299061108103 0.10541348152594117
0.164068178670398 -0.13961005323312878 0.10492292893382121
0.16430081109138056 -0.13886319448508821 0.10494164683617173
0.16503755781042304 -0.13782732377290147 0.10448042397638507
0.16453887297038167 -0.137721659410537 0.10517051617764438
0.16506479690214682 -0.13709975661450513 0.10478504085258739
0.1647523206021941 -0.13664218028166533 0.10542452915467125
0.16512262613395787 -0.1364115532885329 0.1050379913397088
0.16533901636697199 -0.1357639690641672 0.10508654010397554
0.16601372340728726 -0.1349554131254461 0.10458584581160153
0.1655917005008449 -0.13474205751023785 0.10526607722711726
0.16612353709180694 -0.13420028119132985 0.10478486600013258
0.16584414295456998 -0.13365255062116418 0.1054630204180884
0.16623992884864583 -0.1334029329544149 0.10499820034424787
0.1665075374152709 -0.13256800933317436 0.10499754986962319
0.16655513734042504 -0.13151718870201304 0.10544435977374655
0.16723643361803975 -0.13089117594547373 0.10458815202236653
0.16692989491215413 -0.13075052245106714 0.10519016659195426
0.16731819170678575 -0.13009163664729695 0.10484192784191873
0.16700357421422152 -0.12969880968941574 0.10561870348563168
0.16739087168104677 -0.12930369302459252 0.10511794649961215
0.1676379859772908 -0.12849450565838036 0.10509537727871454
0.16771645042034128 -0.12749807284618098 0.10550973034011588
0.16840142675009043 -0.12687077371387412 0.10466685066487798
0.16809372971182693 -0.12673273299199456 0.1052913009209289
0.16848326186494333 -0.12608368793719646 0.10502098163124629
0.16815894708815027 -0.12567218316241865 0.10584016495181238
0.16856092223222466 -0.1253229909455653 0.10538463973106052
0.16884953443784426 -0.12461560088034007 0.10542708106387416
0.16968602818088452 -0.12381853642254682 0.10482579417330817
0.16924456363688914 -0.12351130346426148 0.10566011270182699
0.16996293349842484 -0.12299635853879552 0.10507655784904536
0.16963745276540448 -0.12235951313345027 0.10597581565094452
0.1701571238855625 -0.12203494075999875 0.1055370239269952
0.17058626343189817 -0.12163709477809134 0.10530072669045255
0.17032659305292858 -0.12117666986556076 0.10597572922501232
0.17085924233360664 -0.12095432560611334 0.10547345990815199
0.17066690093175654 -0.12037146267621932 0.10616262826637178
0.1710697783454263 -0.12030898231285447 0.10568632905038348
0.17137248114736933 -0.1197856646148186 0.10566749461320653
0.17200850836831777 -0.11910534517782763 0.10535458925191714
0.17166531914525313 -0.1192239785500254 0.10569351692303823
0.17189812079455424 -0.11847446515860119 0.10594019230551177
0.17245248675053831 -0.1175560970872213 0.1058677874497848
0.17264048204850083 -0.11661866793302816 0.10628360695779529
0.1734481176076303 -0.11596318397846508 0.10564405256916017
0.17302428718724158 -0.11569075272359929 0.106423659696977
0.17364624906193765 -0.11515759907463946 0.10591733056451468
0.173414591451278 -0.11459152649139673 0.10667477046258159
0.17385287022309082 -0.11435096758874842 0.10620242124031141
0.1742272111186856 -0.11354724387806905 0.10628630333530159
0.17439501368455568 -0.11256042900737363 0.10686730537119331
0.17519727130286283 -0.11200261773894081 0.10613989152766036
0.17490718737561795 -0.11175568635706755 0.10680649969969415
0.17535021613044335 -0.11142064001022725 0.10640660382765724
0.17574923098718534 -0.11073271958249993 0.106434008017843
0.17608914720798938 -0.10974925764468664 0.1068617501303881
0.17639768752502166 -0.10882916808255812 0.1073247751530075
0.17724014459603216 -0.10829010423009858 0.10645712714761126
0.17699447590109058 -0.10815076692852757 0.10707988119928971
0.1775829253992137 -0.10755548329043295 0.106748001282385
0.17742095189983845 -0.10725441832531298 0.1075147480650138
0.17806466167357027 -0.10667208625861231 0.10710237753158022
0.17791222441100085 -0.10632486008327034 0.1078702165054453
0.17851855489738055 -0.1058366391748442 0.10742313843153782
0.1783332433448766 -0.10550159839605294 0.10816695549218648
0.1787131921554409 -0.10530242540776724 0.10772665897632976
0.1785033168756123 -0.10511295928691741 0.10829686151104304
0.14971938256050232 -0.17224821962191747 0.10542619039134254
0.15022976363199783 -0.17099230039816926 0.10553281895625176
0.15028977976553404 -0.17047035182273207 0.10598740043132619
0.1506191283134486 -0.17001462574456594 0.10568157270393205
0.15035372107088432 -0.17013454253885696 0.10620119549812125
0.15066857639907788 -0.16953942805282982 0.1060647846179936
0.15118353588618147 -0.1688381454584642 0.10553890617941915
0.15088377321529958 -0.16896401744221648 0.10614407020172646
0.1511751467911707 -0.16837030763219946 0.10605953957086862
0.1517495273161015 -0.16766436710993393 0.10537450905366656
0.15145028211245126 -0.16779671205722482 0.1059911153518848
0.15176133046405285 -0.16723302111507396 0.10590976579950565
0.1523489183538161 -0.16655289109007274 0.1052709452737037
0.1520549786845871 -0.1666603405071337 0.10585218312998179
0.15236453705301936 -0.1661151916766615 0.1058455783104344
0.152911589164694 -0.16548905274436856 0.10530972233211462
0.15265700928980253 -0.16557021396584098 0.10583600296795824
0.1529405102863098 -0.1650396167662592 0.10585062051661438
0.15340276198955702 -0.16452774439891427 0.10539814660901023
0.15323220117609931 -0.1645269695081756 0.10579411440746136
0.15349903643296764 -0.16406657615826514 0.10571709316302784
0.15396999930556685 -0.16339816884967573 0.10537044897938473
0.1547548777140578 -0.16241280559066965 0.1046919686638164
0.15433875882119036 -0.16275373625229284 0.1052202194252501
0.1545538878197911 -0.1620133670970686 0.1055411942871237
0.1550867394902984 -0.16133349975994737 0.1051615953495425
0.15479700762733833 -0.16137698806916792 0.10568119880527796
0.15506270121205 -0.16078316793289987 0.10580750190673628
0.15567513273461586 -0.16017376696759317 0.10519625263595797
0.15544554699410187 -0.15982734624144118 0.10600428461644536
0.15615880542170912 -0.15941415449516602 0.10507040044425417
0.15595708860493362 -0.15899673497775021 0.10587585320524301
