# .PCD v.7 - Point Cloud Data file format
VERSION .7
FIELDS x y z
SIZE 4 4 4
TYPE f f f
COUNT 1 1 1
WIDTH 793
HEIGHT 1
VIEWPOINT 0 0 0 1 0 0 0
POINTS 793
DATA ascii
0.17163556480343267 -0.13011703817035708 0.09517786129564958
0.17212237947062758 -0.12970447006897054 0.09489682363843951
0.17249815622043096 -0.1289407649907696 0.09514726640582044
0.17281233632779172 -0.12821617966091084 0.0954173074822776
0.17355919076550796 -0.12758944339462375 0.09489689500898818
0.17312881682024228 -0.12745699617521103 0.09567503130249867
0.17367390565160606 -0.12698215688330244 0.0952914870427667
0.174103470339548 -0.12611822635055456 0.09549430131636982
0.17451532665519812 -0.1252412682364129 0.09569264090171654
0.17463308537757632 -0.12462376317870323 0.09608397306716805
0.1756012884830071 -0.12374764118287923 0.09544194154291472
0.17508922417046563 -0.12369888797039238 0.09626748799436302
0.17574485377594604 -0.12309946154061073 0.0958023581099052
0.1762818614998685 -0.12208809232264956 0.0958492510770455
0.1768146214354353 -0.12104286874648951 0.09589556235509891
0.17710635203179764 -0.12022985558795757 0.09620517374866258
0.17755465737229265 -0.11927422865134267 0.09641164647818008
0.17804065371576386 -0.1183441884326352 0.09657595956491465
0.1784673621388475 -0.11740095073182004 0.09674714199712518
0.17892686841364774 -0.11643407687191958 0.0969020390187072
0.17934690440981388 -0.11555108248524425 0.09712615021937882
0.1795763081298303 -0.11481192987061847 0.09746082386164079
0.17965150279693112 -0.11419161732020924 0.09788596197046952
0.14622384804393557 -0.1841083013612238 0.09154735690996188
0.14591588052295826 -0.1838934681046628 0.0920363662102684
0.14596336195704915 -0.18344463349791398 0.09168809642567992
0.14599516014673258 -0.18283734281130984 0.091295679684484
0.14583597315391372 -0.1829369989148676 0.09172778735307095
0.1457304248041883 -0.18236370602479748 0.09171096619496276
0.14571400363965134 -0.18167671135514896 0.09131250865346757
0.14560411288112293 -0.18180051286823876 0.09168764805120534
0.14555538997377576 -0.18128561859505626 0.09161248811539573
0.1455881087605649 -0.1805777039218125 0.09113756484066765
0.14558755044938695 -0.17981098516346108 0.09106423520846363
0.14557767907546124 -0.17911836812111342 0.09124779414748123
0.146014749822746 -0.17819294805420993 0.09031547909655568
0.14576826360641945 -0.1784544415144786 0.09096819455543591
0.14596274790061675 -0.1778178865408632 0.0907008311753694
0.14617055263324366 -0.17727451099440727 0.09040020557426938
0.14592426197731279 -0.17741174606371402 0.09105150561216867
0.14621589384117561 -0.17686724262263298 0.09071127827149685
0.14658829599610776 -0.17631192957884967 0.0903188064581044
0.14633285101427146 -0.17641277401314806 0.09103027188572678
0.14670096899889887 -0.175838660069777 0.09066104137443269
0.14708987356554548 -0.1752562167143044 0.0903431730997204
0.1467772616013 -0.1754162367237645 0.09104809568468318
0.14714997898570017 -0.17483675704800716 0.09077359333832442
0.14745541524049469 -0.17436161377069054 0.09057791458818856
0.14726581411120715 -0.17430661997976554 0.09118369821190245
0.14759285326646016 -0.1739996362775122 0.09073160541923052
0.14786054236267818 -0.1736498926891027 0.09059612250092891
0.1481164770445149 -0.17306020930628657 0.09081586335801103
0.14836583363307257 -0.1723847781565709 0.09119375134643469
0.14925169334127064 -0.17173247418089213 0.09053503112387624
0.1488011962627851 -0.1718630310897909 0.09110031384135232
0.14930080794057474 -0.17131231856410647 0.09102519491726001
0.1498191000445855 -0.1708615474506437 0.09083886836800822
0.1494841768821341 -0.1707469826613169 0.09152987532997638
0.15006688239900526 -0.17040444907982222 0.09109510896910085
0.1505487173757745 -0.17006593987131186 0.0908835882559365
0.15029571986853885 -0.17006569181639447 0.09122144107070049
0.15060527710090096 -0.16966593762105153 0.0913655569490912
0.15109937960243525 -0.1692714976892655 0.09121066311017828
0.1509057419155733 -0.16926942090682928 0.09149909940959962
0.1511930625479265 -0.16891017680875192 0.0915790929961615
0.15165929261525604 -0.16853902418217145 0.09144470869534531
0.15206495992508196 -0.16797330961548837 0.09168940607688877
0.1524836539904335 -0.16724546112805944 0.09216181818649664
0.15339301195216973 -0.16673414157252375 0.09136929135110962
0.15314408549348027 -0.16662132326779508 0.09203580537470336
0.15357815703083305 -0.1663327445788935 0.0916752882918634
0.15387978113057754 -0.16597615290285536 0.09163651065460886
0.15421243226121975 -0.1653428646696221 0.09197398890324263
0.15469152807246753 -0.16438872189906265 0.09248836199305506
0.15517697166936656 -0.1635604349427598 0.09274002480794129
0.1555757134682699 -0.1633126297912631 0.09224671890568466
0.15590722685375338 -0.16256973606609237 0.09267372548491792
0.15632366393911135 -0.16180866781052872 0.09291966693932313
0.1567039531045777 -0.16155036571458462 0.0924402244270856
0.15702414937667786 -0.16079762524322921 0.09289575021655544
0.1574517146031026 -0.15999670720448245 0.09317397396637828
0.15785767049422658 -0.159674475258255 0.092669923886868
0.15817355453922344 -0.15889265310442094 0.09311246453918438
0.1584647699192155 -0.15830250285515504 0.09326023530210947
0.15901863685998674 -0.1576214329511184 0.09270691417917734
0.15875031856169636 -0.15767915691290732 0.09338519314297634
0.15914176197656338 -0.15710467665584668 0.09309004750133093
0.15947357190099895 -0.15630361644503218 0.09322153873077442
0.15967251039574115 -0.15549606190537166 0.09371235407299419
0.16029448620446063 -0.15456577955601936 0.09306827411698092
0.1600128349606373 -0.15459647456638553 0.09387747531622366
0.16041615339401455 -0.15399223549276483 0.09347202868958226
0.16076116551846076 -0.15310891436740884 0.09365132107426273
0.16103496922380853 -0.15231315315412675 0.0939072188806311
0.16163303891667044 -0.15153541778696458 0.09338454613825824
0.1613214052472666 -0.15154044597250657 0.09415152279262383
0.16174457963462543 -0.15099083148034356 0.09379014650905604
0.16208385589489158 -0.1501763325001353 0.09398971295498311
0.16237825997125732 -0.14944693196124217 0.09422134384396509
0.16300937975538848 -0.14874298794046442 0.09371685509467526
0.16268064621940045 -0.1487219601878506 0.09445045916703032
0.16314216921578029 -0.14821759727120065 0.09409760432133704
0.16351140997673136 -0.14741830342337417 0.09431669206493418
0.16394784345331673 -0.1463982159419915 0.09472153932245478
0.16441309476900712 -0.14605639807198853 0.09424214482203741
0.16476201213930539 -0.1451573137131785 0.09474788772485333
0.16522908673017667 -0.1442245872938775 0.09502022209474834
0.1656961360461988 -0.1439618993371384 0.09451652593768167
0.16601733041318348 -0.1430727300188499 0.09494984582950201
0.16632082381771182 -0.14240333974190422 0.09510044261896569
0.16699851103573674 -0.14176404755754024 0.09455187824084932
0.16661869270158336 -0.14164276982624602 0.09527933503869458
0.16710105323474894 -0.14113598825472837 0.09487664069786697
0.16744387998198756 -0.14021389537998327 0.09494404440516403
0.1677732550920568 -0.13925151238037825 0.09499478178124905
0.16787902765003124 -0.1384278031712635 0.0952470134117642
0.16795918094553505 -0.137586682007324 0.09551140768245947
0.16872806035572116 -0.1365857722902497 0.09472439353559681
0.1682997864736292 -0.13657467076734903 0.09543686253484536
0.1688611155352817 -0.1357210012065363 0.09493939937984719
0.1685208930801215 -0.13539384611547894 0.09567478270299849
0.1690511019906979 -0.1346977999004037 0.09521861533684348
0.1687265772457478 -0.13431584764265223 0.09598904117400239
0.16919820806198366 -0.13387210685828366 0.09550132846933362
0.16959390799240134 -0.13296139719053154 0.09558398051174999
0.16991519090375876 -0.13217106511281024 0.09577763493547611
0.17059118241233034 -0.1315539261786378 0.0953074081490702
0.17021791319371318 -0.1314070861250573 0.09605133220144924
0.17069470364213593 -0.13097242688663333 0.09573617360582345
0.17103346423282853 -0.13018059679426253 0.0960243975722996
0.17197911189462495 -0.12936034950423797 0.09545252334923808
0.17161735282785193 -0.12919655645799347 0.0961673091989213
0.17210144889466739 -0.128794889018509 0.09587121055077025
0.17247039151002377 -0.12800639354395055 0.09611500180099426
0.17277671992711804 -0.12725440809617766 0.09638007909943569
0.17351687903172344 -0.12661620603492335 0.09587636833548552
0.1730876992819532 -0.12648795602643037 0.09663300968340266
0.1736405870150112 -0.1260116348705142 0.09626622977832884
0.17405021613420069 -0.12516622004008954 0.0964632990156923
0.17444727891173764 -0.12428243542626216 0.09665345363441817
0.17457309743090504 -0.12361754639723964 0.09707841888989147
0.17556404312155108 -0.12274033196476664 0.09638110897384228
0.17507209924904377 -0.12265047904603173 0.09720495517326684
0.17572897352977268 -0.1220788254026422 0.09668007020392752
0.17625194439019964 -0.12115526002336081 0.09666424447738413
0.1766472483332597 -0.11999531361453761 0.09714167911238587
0.1772689873373023 -0.11903050717886669 0.09711549021064865
0.1775991015132816 -0.118235571100286 0.09742570580004951
0.17806929984495246 -0.11727801192949684 0.09762635979778882
0.17856465899379698 -0.11635307446364065 0.097776066699867
0.17899187469458108 -0.11545965342600735 0.09797113528154548
0.1793327604666866 -0.11460583123426465 0.09821163832850863
0.17949468417712955 -0.11386813177917553 0.09855135740638611
0.17959586572907799 -0.1132407106839603 0.09900386199358956
0.14571900882489466 -0.1831680557427057 0.09213513715193704
0.14549172408547134 -0.18334663990158212 0.092766131462694
0.14549518613130177 -0.18270446417148817 0.0925479853159561
0.14552931722475324 -0.18196623889987174 0.0921597354839512
0.14532741352834685 -0.18222052794017551 0.0929311798652636
0.14539817940856997 -0.1814297070553752 0.09244453310807246
0.14543825397087323 -0.1806181868685259 0.09177722381150329
0.14527761321483523 -0.180725082218735 0.09268006698285758
0.14539122314643413 -0.18002711514284392 0.09185558695908712
0.14545738068161965 -0.17957977456097537 0.09157215142642657
0.14540088750441502 -0.17967926679090448 0.0918994379865512
0.1454353784118154 -0.17930871215910646 0.09193295811529516
0.14557365043914988 -0.17872851348312996 0.09156495450953558
0.1457134424789795 -0.17805050868080413 0.09153210990600387
0.14579892812401343 -0.1775146156941346 0.09151207686504591
0.1459598922962754 -0.17701812406544637 0.09152327700149085
0.14615648530612085 -0.17650339017515232 0.09150601029007675
0.146375183955781 -0.17602423791515115 0.09150942428123814
0.1465876498548639 -0.1755289273758017 0.09152093677828152
0.14681224646668098 -0.17503359045941028 0.09161406132162687
0.14700741778010937 -0.17441275027022818 0.09189766963858269
0.147621165306689 -0.17367389160921198 0.09109373215612988
0.14730697019065114 -0.17383169441254037 0.09173920849416341
0.147689872292924 -0.17320763372746328 0.09160968729625577
0.14801292066464158 -0.17271339906626462 0.09148504439313748
0.14782968330352095 -0.17257722474342652 0.09216130383945711
0.14815589062784384 -0.17231960413458025 0.0916995780040144
0.1484408274190117 -0.17198641494785863 0.09157637359162268
0.14876809652378684 -0.17141589646227923 0.09179615368967821
0.1490114971278903 -0.1708064207131368 0.09221386652846167
0.14999780354758324 -0.17013747877271732 0.09156982881032273
0.14951232918333945 -0.17026737298150993 0.09215524621121712
0.15009387704006827 -0.16970131947255923 0.09207794335395122
0.15068629674532463 -0.1692316787438515 0.09187657687427883
0.15033867707383286 -0.16912708446529054 0.09259664040323402
0.1509670508607995 -0.16876174987130974 0.09213280857543371
0.1514391271761383 -0.16842653592330797 0.09191897626847045
0.15121041243713182 -0.16842325447405818 0.09226526694463762
0.15150777487585032 -0.16803952091442648 0.09245296646352914
0.15199467193221552 -0.16761951939849348 0.09235136776473886
0.15179722476684104 -0.16763946777417293 0.09265790768347695
0.1520838334888303 -0.16725879230332216 0.09283390853027611
0.15267145225936377 -0.16663802261802454 0.0928566143899074
0.15365154578655651 -0.1659481444587721 0.09215931770125027
0.15325359992515722 -0.16602114370837026 0.09281385462444575
0.15378199993545189 -0.16537995707473593 0.09282083264287853
0.15422433203644464 -0.16483062007650812 0.09279117436509463
0.15397641317426017 -0.1646737345076609 0.09352314762684996
0.15440965080002753 -0.16433828468773745 0.0931778610712495
0.15474770486330394 -0.16370073675123836 0.0934224223684519
0.1555156614176189 -0.1629824849564512 0.09289932350908717
0.15525788187747985 -0.16289747683858957 0.09355921642208688
0.15564080665986632 -0.16254018793735864 0.09329537131504277
0.15593406523275308 -0.16194025569120554 0.09356013168196092
0.1566331759388956 -0.1612442768925604 0.09309834377809234
0.1563834099615826 -0.16121930538101675 0.09370815221237176
0.15673986997670206 -0.16083350694227477 0.09351161703070052
0.15701335397416566 -0.16022647932613193 0.093835192359029
0.1577771561646426 -0.15938519735392892 0.09335163844984846
0.1575053751514143 -0.15938866667187745 0.09403238519040044
0.15790820712751505 -0.1589301081146042 0.09376040588489935
0.1582551360908317 -0.1582071701654342 0.09398654302076624
0.15866649039287922 -0.15724365730676987 0.09432213823479184
0.1590536511202281 -0.15681557365786897 0.09379845306588191
0.15931761996621738 -0.15594470603182956 0.09422669057028053
0.15962248912371904 -0.1551802081439812 0.09430844117832853
0.15974828008799152 -0.15461590794364322 0.09465607502585921
0.1603377098460531 -0.15371942955411405 0.09403609312491615
0.16006061989158132 -0.15373327824732824 0.09480392926359504
0.16045994606788164 -0.15313898216555005 0.09440073941419404
0.16079159355928957 -0.1522568196741333 0.09459754094784072
0.16106998884750814 -0.1514633565889936 0.09484409236212386
0.1616508818875715 -0.15071660102109966 0.09435061662538806
0.16134847348955136 -0.15067758109030108 0.09509949231320235
0.16177202554901554 -0.15015495791196143 0.09473056977541812
0.16212587116717564 -0.14932373672953564 0.09493960893196562
0.1624271785872127 -0.14858899864452862 0.09516493551871948
0.16304436906102435 -0.1479402786617771 0.09465603976186925
0.1627354699128239 -0.14791009395687907 0.09533773056537832
0.16316145802534604 -0.14739347096052313 0.09508083713964091
0.1634871129228138 -0.14666367017988516 0.09531596120148471
0.1642910688214871 -0.14567900356432775 0.0949773431864058
0.16392395445437316 -0.14562721251844632 0.09574709950334628
0.16440875529666718 -0.14513707792093872 0.09545674538393802
0.16473733266869703 -0.14436959496460047 0.09575833453098169
0.1655837862754449 -0.14354377092966092 0.09519681928190064
0.16527815931998704 -0.14341083775761274 0.09587410416703956
0.165705434837557 -0.14299843360126285 0.09558654675477013
0.16603661871694586 -0.14223914263539802 0.09575072896320162
0.1663202522024271 -0.14149000279175547 0.09593167180900586
0.16695644525996806 -0.14076578295178693 0.0953960327936093
0.1665900149025375 -0.14065063040023432 0.09609683341793045
0.16706279496579723 -0.1401282348135626 0.0956634629736576
0.167388822961648 -0.1392632831652584 0.09563004241868184
0.16753679533736104 -0.138205353099827 0.09592072622568798
0.16771139972735077 -0.13718653568656117 0.09609333793269216
0.16792841086621135 -0.1360179895197616 0.09628426136566862
0.1682666230068467 -0.1350414745269136 0.0962657004634764
0.16831700553577747 -0.13437101255772402 0.09659790613242954
0.1690649519777011 -0.1334667517603588 0.09600012267486788
0.16866838150168995 -0.13333956548271286 0.09674055776755826
0.16919629931337418 -0.13282597722982012 0.09629360207815175
0.16959497482547328 -0.13196043144002578 0.09646080530135749
0.16991634553991133 -0.1311900797924632 0.09674037528318676
0.1705551157034561 -0.1306053650307046 0.096314222639443
0.17020716523317042 -0.13043661342791307 0.0970494890125445
0.17067148806109386 -0.1300178745876574 0.09674965035565306
0.17102259114622256 -0.129224281424122 0.09703282592886918
0.17197910215656342 -0.12842196542103254 0.09643960777342181
0.17160686055702692 -0.12823498863779573 0.09714421134744218
0.17208855225860709 -0.12783772469171198 0.09684192700805558
0.17244690694349063 -0.12704143910430835 0.09706915498196882
0.1727523827604411 -0.1262883621629494 0.09732621554231591
0.17348971817860834 -0.12565240587251986 0.096837702021637
0.17306536825055505 -0.12552161640095535 0.09756295652044264
0.1736184388033329 -0.1250568700948733 0.09720754951005062
0.17400311316385142 -0.12426366204463192 0.09733138984355391
0.17430276478957352 -0.12315508484610112 0.0978734670387274
0.17470167271870635 -0.1224294909352434 0.09796355515707554
0.17556150608854224 -0.1217049121001967 0.09723890332891384
0.17508509346006676 -0.12168853006099553 0.09801120375649597
0.17581379587128054 -0.12088030103713995 0.09758640845362648
0.17541884186861106 -0.12058297394616219 0.09847329337331333
0.17608106363251827 -0.12008189992387516 0.09794380814635444
0.17665891549785054 -0.11916944325874347 0.0979406598790233
0.17709658795965424 -0.11801753475804147 0.0984275139298913
0.17780810502744013 -0.11706053760860778 0.09839830958488267
0.1781391045347981 -0.11628435931047335 0.09863074315543635
0.17856850197303875 -0.11539069035169383 0.09881265906218219
0.17891684796624388 -0.11451922358183705 0.09903949863494237
0.1792455149376036 -0.11364826664940285 0.09930567556899723
0.17945494110509014 -0.11289221084742654 0.0996767522433085
0.1795460283984543 -0.11224280930415488 0.10012377052978001
0.1452934116558349 -0.1833395308028372 0.09320108997789192
0.1452555957303194 -0.18287559248711938 0.09325208201297928
0.14517748841969288 -0.18240477402325075 0.09344248103251498
0.14517538005496106 -0.1818002572766001 0.09347086927911363
0.14518067498606707 -0.18112766483628973 0.09371648060116328
0.14532896072963108 -0.17988772186547713 0.09237407420310997
0.1452294333649529 -0.18032609262452978 0.09327667503829343
0.14533351206833936 -0.1795199800277613 0.0928276488506718
0.14548468779750232 -0.17876731949124117 0.09221519118832784
0.1454196635826856 -0.17892079827593318 0.09322842105859419
0.14560864309611868 -0.17818355639964906 0.09237049829001025
0.1457437667241462 -0.17763607542471035 0.09196517956391827
0.1456907364255371 -0.17779441744829894 0.09243518851829453
0.14578869678544604 -0.1773441323259282 0.09247024106168282
0.14602943682045397 -0.17665561515632672 0.09197267843365514
0.14591956151503394 -0.1768269297621059 0.0924554387715839
0.14613681593871272 -0.17631740714537533 0.09245645054938247
0.14643964042126015 -0.17565711657344124 0.09199128782025266
0.14631740920806519 -0.1758030656627384 0.09246277133355063
0.14649295884252436 -0.17531559384033835 0.09249440277979362
0.14676288564426204 -0.17481533282293596 0.09218891739540276
0.1466543527733868 -0.17488045453706863 0.0925153017667197
0.14681681217072343 -0.17449380768128647 0.09251384279022631
0.1470632977058003 -0.17401879342387855 0.09227228097397731
0.14730372075475257 -0.17336102428748187 0.09249717109306606
0.14751365448736015 -0.17260954065238412 0.09299529750506123
0.1482371234191975 -0.17195016343111405 0.09208867080580244
0.14797523171969035 -0.1718847793814145 0.09286247096466226
0.14840540153347323 -0.17147975531584006 0.0924516794518314
0.14866119260326074 -0.17114947467572536 0.09237393241382894
0.14851813971823719 -0.1711796642107866 0.0926379632559598
0.14869287828320882 -0.1708463547123585 0.09276202685208422
0.14909625672445007 -0.17042533229649834 0.09264335140041566
0.1495018821912848 -0.16983717994394013 0.09290264249278206
0.14984121367862469 -0.16921457217115912 0.09335005293199322
0.1509188616157395 -0.16852337537299591 0.09262438928728471
0.15043521551181255 -0.16867266855273444 0.09324889711732079
0.151029940938479 -0.16813086575915748 0.09315635795801339
0.15157151126906962 -0.16766190645000145 0.09303869711644781
0.1512009236518908 -0.16768899156007008 0.0936824047913159
0.15177002440903237 -0.16720444239425966 0.0935173555074376
0.15224237673729626 -0.16681725364802702 0.09332855009524939
0.15211090120652143 -0.1665614885339865 0.09400913662917777
0.1525362007454255 -0.166426041969852 0.0934878857131866
0.15290558158864437 -0.16610147049589782 0.09334557073346103
0.15330902298679974 -0.16541750893440105 0.09366812177542246
0.15358773577073973 -0.1646529863638808 0.09427384652446517
0.15435334186858252 -0.16406549197311018 0.0936825829651857
0.1540861214910901 -0.1639624065450088 0.09429843476265441
0.15448815690035303 -0.163623599656685 0.09403667961617465
0.15479227667731765 -0.16299402061932217 0.09429778901395836
0.15557088837481484 -0.16228012058704183 0.09379985970312621
0.15531038584024992 -0.16217102401711916 0.09443176355936715
0.15569504517998953 -0.16185134615961097 0.09415355902207957
0.1559991837325957 -0.1613076591192892 0.09434045117221
0.1566463513795239 -0.16065240302420317 0.09400139744409794
0.15638755784415243 -0.16071482719500216 0.0944513599375156
0.15670611583256824 -0.16026495986323394 0.09445526490495997
0.15702156153193636 -0.15964383713165228 0.0947248610384479
0.15782972676022625 -0.15871854606823269 0.09431100056513249
0.1575181607205406 -0.15875664488156047 0.09501195452720701
0.1579571639237444 -0.15824250419737013 0.0947462047298701
0.1582850526901837 -0.15755763908376313 0.09495204403634067
0.15896093136334716 -0.15653194178686533 0.09451541228113952
0.15868723999390824 -0.15655710428526576 0.09529329030456976
0.15907307849796276 -0.15600989721451208 0.09492571990780703
0.15937689497479185 -0.15518214415724732 0.09508524696121047
0.15967949437607898 -0.1543253055804356 0.09521994936491447
0.1597963317453985 -0.15372820736826467 0.0955791883049722
0.16037262890901233 -0.15284968818610037 0.09496429921201842
0.16009508216322474 -0.15282606849873612 0.09573521742921662
0.16049562768678294 -0.15225092947832317 0.09534840025681762
0.16081931044503114 -0.15136282208689422 0.0955453765106793
0.1610942634068845 -0.1505530423374947 0.09579655535724316
0.16168325649386667 -0.14983320576793557 0.09530694822178257
0.16137641567210906 -0.1497437732821279 0.09606371581542697
0.16181550279083043 -0.1492341227154761 0.09571097291969524
0.16217915857149212 -0.1483733660407806 0.09593737503672921
0.16262124414082352 -0.147308772906878 0.09629040732240084
0.16305187792328693 -0.14700151244265827 0.09579962869776489
0.16336363491324254 -0.1461013894092632 0.09627373528002997
0.1636660994607668 -0.1454399058421003 0.09648916206833584
0.1642891679596853 -0.14483512060093648 0.0960347544041996
0.16396183488461866 -0.14472980837564986 0.09675889867874657
0.16440711272577999 -0.14428489012606427 0.09645039598645828
0.16475546858579956 -0.14349829880020243 0.09667827717367398
0.1656126162999395 -0.1426738811203333 0.09609652726055833
0.1653051328671283 -0.14253238082881248 0.09672807746931206
0.1657235925931024 -0.14212786375487965 0.09642108105117908
0.16602692590756188 -0.14139045990368462 0.09649501915924093
0.16615930666040649 -0.1403986172279577 0.09694919047125565
0.1669460033288075 -0.13971377614308622 0.09611809692104299
0.16661337917556862 -0.13961678879613587 0.09670140352142695
0.1670636345322605 -0.13888652886208566 0.09635714130008582
0.1667128077945196 -0.13860792624952956 0.0970396124578621
0.16720968633871727 -0.1378789001523939 0.09659164596672515
0.16686004990841624 -0.13753985844284286 0.09727024904481331
0.16737445124966893 -0.13683503092687904 0.09677995026264036
0.16704302503557933 -0.1363903640874604 0.0974806281252296
0.16751158717631795 -0.13598070856604189 0.09694643065413473
0.16784733351562425 -0.13510451340050542 0.09686709838508746
0.16804345051263087 -0.13405625972124857 0.09720029286262476
0.16820177391754906 -0.13307309689764163 0.09765850503665574
0.16907620366677423 -0.13242106609146323 0.09681939926461937
0.16874559859480476 -0.13219951827178092 0.09754702410384158
0.16921446690412234 -0.1317868769119314 0.09717193030973693
0.1695995164916007 -0.13096942949497187 0.09741365345297277
0.16990089685621765 -0.1302129285078619 0.09772417453710841
0.17056613095967596 -0.12963566562605952 0.09733962048113205
0.17019258547549182 -0.12946077026777508 0.09805222754103061
0.17067128240649815 -0.12904253864616472 0.09776052573421357
0.17101391032169164 -0.12824104692175514 0.09801206583901605
0.17195014941828787 -0.12745349120726573 0.09739442964758903
0.17160156972729332 -0.12725875549723975 0.09810284126345714
0.17207125177386204 -0.12686637576472998 0.09778555149906475
0.17243653378126406 -0.12608304701302467 0.0979943922270651
0.17272822442389396 -0.1253453545908239 0.09822762071487245
0.1734722051354872 -0.12466115903631977 0.09776654197058375
0.17304105433116415 -0.12457955772188509 0.09846212673552891
0.17365632791801108 -0.12386208083650478 0.09819801955163199
0.1733185856262715 -0.12342846562705463 0.0990778338900007
0.17385328380745513 -0.12305535042374273 0.09859667896732884
0.17433209284753526 -0.12218236173226701 0.0986823609982713
0.17481511317527756 -0.12125729018693782 0.09879320511563841
0.17493598785251518 -0.12061872913537293 0.09916947459103412
0.1759325517437396 -0.1197168955307479 0.09850853470084171
0.17540747191160838 -0.11975976675824478 0.09924576736810685
0.17618870027654407 -0.1189328318260757 0.09888962967733132
0.1757328331635183 -0.11865876973349856 0.09980412581429952
0.17643694557422482 -0.11812743075376733 0.09927351429503548
0.1771066421866414 -0.1171189416020762 0.09931226082499836
0.17778978096014497 -0.11609377383586499 0.0993478100211266
0.17811064745058336 -0.11532687799503306 0.09963105974248761
0.1784823970894233 -0.11443654086188093 0.09985799914437299
0.178833951775513 -0.11353610864966128 0.10013652510882513
0.17915815775207938 -0.1126414364264114 0.10041943958068071
0.1793969682407147 -0.11187961898498121 0.10077549755683649
0.17950627584326018 -0.111246658510811 0.10120166007319188
0.14510210437176016 -0.18240822568680773 0.09375591293679333
0.1449895702812969 -0.1820120683591186 0.09426877412136994
0.14505433238772952 -0.18166333552075536 0.0941539286912479
0.1449503718515114 -0.18177431416498616 0.09451921685661388
0.1449809669614072 -0.1813620009461226 0.09451256870248138
0.14512724221288859 -0.18075285194851728 0.09408927538844239
0.1451858254661 -0.18003935583782138 0.09408860675739511
0.1452869067291615 -0.17937393348474548 0.09435502488388624
0.14562102102870392 -0.17809545875751126 0.09297159426280162
0.14548999599068482 -0.17860129366323535 0.09390253233106197
0.1457034915491575 -0.1778206951143436 0.0934988878422195
0.14585688993674475 -0.17705221868251939 0.0930293874978604
0.1457872906940739 -0.17746346291733378 0.09397326303961318
0.1459741297407847 -0.1766810948614605 0.09346415415322407
0.14620545883296154 -0.17597014196722846 0.09300147249478816
0.1460813506461521 -0.17630649110632915 0.09389147389976195
0.14631507364326857 -0.17555814688487273 0.09340987446707473
0.1465702129517536 -0.17492957981892548 0.09294851220955556
0.14646465733256203 -0.17495210848817264 0.09380952822425086
0.14670930046438208 -0.17442331812829212 0.09313119758018418
0.14692860421783266 -0.17398647763372194 0.0928066136970516
0.14680520981724401 -0.17404134236770896 0.09321198720080179
0.14697116836740381 -0.17358854467860924 0.09334674050006356
0.14723460493675328 -0.1730860600080735 0.09317366378346437
0.14713036066895668 -0.17314169777255606 0.09349400896237373
0.14726249421872165 -0.17272551410195838 0.09363873715752495
0.14757664570359996 -0.1720557082945374 0.09372948683846306
0.14834573679960814 -0.1712353949656635 0.09295626141492325
0.14807508854774765 -0.17125258008170205 0.09366575463358416
0.14850150363664302 -0.17078554324362458 0.09331794710902541
0.1488817965207681 -0.17038979103978738 0.09314602972351906
0.14867781209010805 -0.17044158382278699 0.09350663501035661
0.1489513514093002 -0.17004013147375185 0.09369081502802362
0.14937916821094158 -0.16959135330621153 0.0935656711022671
0.14919940702452694 -0.16964295510652805 0.0938787499813251
0.14947766015847075 -0.16928132538955878 0.09400077439286081
0.15000172484977364 -0.1688331152528965 0.0937988885917354
0.15052306623301984 -0.1682148651827663 0.09398606506767851
0.15094871810687732 -0.16769849319682403 0.09414085902310539
0.15135865581924984 -0.16718625700735068 0.09431718028984666
0.15174134813618848 -0.1664824078914582 0.0948079965210421
0.15270733393347544 -0.16596453192859306 0.09392710799662708
0.1523874694442663 -0.1657812505088971 0.09475192736775293
0.15293840113840865 -0.16541829228169783 0.09436080820450597
0.15324116895236717 -0.1650726023547792 0.09433937727826419
0.1530786134982784 -0.1650958643058413 0.09460806393955415
0.1532394216457764 -0.16471266808206927 0.09482369008815562
0.15361820393583583 -0.16402491886388382 0.0950143426674316
0.15440479548767533 -0.16336668631657844 0.09452374802467126
0.1541110663141104 -0.1633063213844591 0.09507514093901898
0.15449531444328685 -0.16291962011884079 0.0949091648719027
0.15478392134084212 -0.16224262244317156 0.09523798039739283
0.15564530834114412 -0.16156010831122544 0.0946385773921815
0.15539897517508638 -0.1613656025251678 0.09532527326348485
0.15581360571782013 -0.16111952932162435 0.09493276052342701
0.15611533534777886 -0.16076893790849364 0.09488911991933995
0.15645572431621627 -0.1600947848118365 0.09522426853796734
0.15692046619242236 -0.15911978671367172 0.09576159269469725
0.15747205176329943 -0.1582068320041306 0.09600113682903853
0.1578878556328045 -0.1579154051344817 0.09545153477657838
0.15822153857422414 -0.15707749525583928 0.09586634803750668
0.15850039096225768 -0.15643886948814842 0.0960200938219931
0.15901046081804834 -0.15574442035736438 0.095484796216322
0.1587611679580242 -0.15570491586944543 0.09622558575185952
0.15913112101165264 -0.15517289148624167 0.09584782355081503
0.15942626236872876 -0.15429924110032545 0.09598836583269472
0.15971876781165664 -0.15340828692294228 0.09613246563728535
0.15982463199535568 -0.15279357976027022 0.09648558842950736
0.16040845178441718 -0.15192589645700255 0.09591557774988747
0.16011550752659764 -0.15187293735189414 0.09666408295762804
0.16051903904837334 -0.15130405654610504 0.0962880476368719
0.16083719035832364 -0.15041941773513262 0.09647337880270902
0.16111209763280335 -0.14960515311234932 0.09673476088030401
0.1617160957138664 -0.14887814520292306 0.09630136460450917
0.16138626094631855 -0.1487563716627915 0.09705394105892508
0.16183358390291788 -0.14826627351235006 0.09672069905487655
0.1621557273500203 -0.14745658614669302 0.09699880528358085
0.1629501049954294 -0.1465991604809509 0.09648620333918982
0.16265370458329687 -0.14650819653725278 0.09714224617041951
0.1630623084389751 -0.1460599933385999 0.09689565702512211
0.16339465119744698 -0.145296273430043 0.0971500463451538
0.16367788390638557 -0.1445695257357112 0.09742700043976237
0.1643110366492731 -0.14394025523581228 0.09699606384230838
0.16397464216339352 -0.14380598516144538 0.0976781558877654
0.16444650098948627 -0.14335487517239626 0.09736082612722735
0.16479573500090605 -0.1425578823987926 0.09752100185726575
0.16562387911015797 -0.1417523873983977 0.09689493952496547
0.16528888833650981 -0.14167225030648065 0.09745200272269695
0.165728677792842 -0.14102050721262196 0.09724580110694696
0.16540188525342894 -0.1406255446279009 0.0979628473904111
0.16584346609729658 -0.14025302114587326 0.09753908987250243
0.16618151690470082 -0.1394198161806736 0.09745882308679506
0.16634992315859898 -0.13828383580066453 0.09772187289052661
0.16649520367846843 -0.13721636411586208 0.09794167332951376
0.16659543081260364 -0.1362130353698757 0.09819559219397081
0.16739199802682564 -0.13552493827280362 0.09733883342701749
0.16705632978311583 -0.13541587685414375 0.09789236206628525
0.16753173323543072 -0.13471330475190946 0.09756052965200848
0.16717607231172074 -0.13442335749090742 0.0982640815265515
0.1676847725251223 -0.13375664787356997 0.09791848797906706
0.1673644421168219 -0.13330694354789183 0.09869296373065155
0.1678368614744874 -0.1329596378747463 0.09825991676136575
0.16820075969360102 -0.13215868660911625 0.09838710518115544
0.16910674090955857 -0.13139473154471937 0.09771653416040761
0.168759904985001 -0.13123248540730806 0.09839981642268304
0.1692231591538703 -0.13081149314652993 0.09810728152683834
0.1695640010161409 -0.13001452006935674 0.09838838251056044
0.1698629593140297 -0.12924625955623323 0.0987270272102846
0.1705326407555497 -0.1286509512813216 0.09832315808747404
0.1701620487388874 -0.1284657601167713 0.09904303177415408
0.17065514444433502 -0.12804099570487923 0.098730622977503
0.17102709484047693 -0.12723826271287406 0.09897308502391802
0.1719542919538541 -0.12648230147031317 0.09833102492016982
0.1716093117682249 -0.12628342175530186 0.0990276884769344
0.17207854540663392 -0.12590886777644877 0.09870363983973368
0.17243182128068243 -0.12517550355603357 0.09884729834397021
0.17268190021762328 -0.12404517805224093 0.09948829959145288
0.17299832899543657 -0.12327889312226567 0.0997158472030619
0.1737241082493426 -0.12264955027649371 0.09914428762703931
0.1733329665416972 -0.12251646374711421 0.09989156066907486
0.1738718371324858 -0.12204130010352082 0.09945509181485067
0.1743298763391277 -0.12116814252921372 0.09956404128171123
0.1747868837322487 -0.12026547151611426 0.09971077488675029
0.17500363677525047 -0.11946895126158819 0.10010734577070318
0.17522087253245036 -0.118695005268723 0.10052607377532048
0.1762638260574795 -0.11778439314515006 0.09985688668764298
0.17572254164264453 -0.11776107267836752 0.10065212917307431
0.17645835761007098 -0.11716211908630952 0.1001803045887718
0.1770683172321362 -0.1161848804143306 0.10022532833279106
0.17770911721067634 -0.11515841052184664 0.10031129168764487
0.1779399590905376 -0.1143706022495299 0.10065227161716264
0.17834371545961406 -0.11340694233360961 0.10098178962194111
0.17877364304420665 -0.11245435222650907 0.10121933396969801
0.17916170303779955 -0.11160930785895286 0.1014693578566683
0.17939653004680112 -0.11090700680486056 0.10183944940628241
0.17955648666626042 -0.11036294360369203 0.102256823073866
0.14488439478454335 -0.18174373287320952 0.09475482911082818
0.14478742345943088 -0.18131395678079698 0.09512030365885159
0.1449438227908834 -0.18087836179161104 0.09478412613063998
0.14479457338124363 -0.1810316412906659 0.09529624120739198
0.14492874878379614 -0.18057044694066351 0.09530326468701991
0.14512167888171976 -0.17997951396220327 0.0948944410595931
0.14504117859804858 -0.18017413263188123 0.09536674702281062
0.14513714778188613 -0.17973468561351147 0.09529727750081751
0.14533225992885568 -0.1790568159949161 0.09476205276072407
0.14552836998203228 -0.17834735040561106 0.09470410042440328
0.1457080734605441 -0.1777549609898778 0.09463407852793633
0.14586843030433067 -0.17717253790650378 0.09458214387834417
0.14603872159565126 -0.1765725494442503 0.09451814208829933
0.14613024084171192 -0.17596006174072662 0.09452973188782664
0.14626260634604957 -0.17525414295739858 0.09477787596699835
0.1466797265090463 -0.17419457864997664 0.09366773720304465
0.1464742324635471 -0.17449621764903064 0.09446879129639882
0.14672178886305068 -0.1737557807123722 0.09422046319826806
0.1470175359920728 -0.1731593700294644 0.09392164596729273
0.14684154458730797 -0.17311377740649603 0.09478754245995596
0.14711419982250382 -0.1726897372621797 0.09422874207305443
0.14728510335296283 -0.17238357508708088 0.0940698902594643
0.14719738346690098 -0.1723976504647298 0.0943563012108207
0.1473432203457678 -0.17207899490003498 0.09445773674718225
0.1476969282501119 -0.1714617656619172 0.09449240340012241
0.1484640209901821 -0.17057524363149132 0.09384396075637257
0.14813529765840408 -0.17077794049326955 0.0944478828565246
0.14857672952958964 -0.1701791518061087 0.09440763159626855
0.14902182204736897 -0.16968773868278514 0.09426805917899164
0.14873838886596136 -0.16975116399697687 0.09492554179658932
0.1492235618531709 -0.16927296027302233 0.09471844237595184
0.14978706566981437 -0.1687783796503269 0.09442878041258793
0.14947744568944454 -0.16881483944030165 0.09517646703747355
0.15009549431199226 -0.16823652726380783 0.0949129532643251
0.15072980820641005 -0.16769640792010057 0.09462177496911156
0.15044853357607973 -0.16756778060503943 0.0954922905842615
0.151012523645752 -0.16721588541588428 0.0949780781819795
0.15134534238682992 -0.1668843283884824 0.09489943850830475
0.15118694952630138 -0.16691313400032423 0.09516138750731752
0.15138630404362974 -0.16655286085147333 0.0953646670459755
0.1518418269770864 -0.16585647091467415 0.09559955550515196
0.1528580379375227 -0.16511828840116283 0.09493023770331795
0.15249569259684786 -0.16499334509741181 0.09568288065377163
0.15297953360917393 -0.164619128165778 0.09536437739512742
0.1532518091405572 -0.16430548490119803 0.0952908365913171
0.15310958143731024 -0.16426891810914615 0.09556719388019035
0.15329845772353243 -0.1638770172033932 0.09572143834589002
0.1537183728656303 -0.16333255191829185 0.0956766157414925
0.15435484485082138 -0.16269620700404738 0.09539584846932925
0.1540573777664669 -0.16283362192751505 0.09570586316218459
0.15431320748747937 -0.1621991242245023 0.09604225777224701
0.1548137207633929 -0.16138961503678295 0.09624536192165996
0.1559044462205903 -0.16063835551341688 0.09544831324833626
0.15552745648473604 -0.16050378195900075 0.09629123514697366
0.15610609280466037 -0.1600238968116227 0.09598175112190585
0.156451843475614 -0.1596031997718006 0.09597549138866114
0.15626942558868506 -0.15962896796133388 0.09629056625143755
0.15648114240841624 -0.15918438496615175 0.09656786771231186
0.15700767457353404 -0.15833937350529242 0.09679807403356254
0.15784186113539722 -0.15755911396209604 0.09613017146553385
0.15760380289743586 -0.1574561370973637 0.09683067232648054
0.15799377247640906 -0.15705434350843436 0.09650931984729687
0.1583107336488605 -0.15632790125119286 0.09668284359810872
0.15856182069350658 -0.15560921383114695 0.09689377253785762
0.15906434490715815 -0.15485673260860755 0.09640017191853882
0.15880792342865685 -0.15479002408971657 0.09714423372818287
0.15917699782059 -0.15425776377279346 0.09674148862067171
0.15946039964251998 -0.15337479912243493 0.09686347822113191
0.15973993571752104 -0.15248790534089202 0.09702415308082676
0.1598171338608162 -0.15185767956915594 0.09741752687391725
0.1604238180537227 -0.15095099000368206 0.09684904865840693
0.16011972914895198 -0.15085594354521603 0.09762153545214144
0.16053204612692806 -0.15033479425159182 0.09720421126405872
0.16083827834271003 -0.1495274616318095 0.0973318697875941
0.16099784097529363 -0.14852875651599387 0.09797840625288659
0.16173856829474242 -0.14788615443796285 0.09728557158187122
0.16146169723884782 -0.14768478869231616 0.09796028596817763
0.16185964669530556 -0.1473048954131464 0.09766090114290062
0.16217557348388834 -0.14659425925785116 0.09786108624301267
0.1629608362735884 -0.14577382609501993 0.09739613929427238
0.16264147592683992 -0.1457460089984212 0.09795250314031113
0.16305152012168114 -0.14525345457798577 0.097783072235262
0.16335123861377082 -0.14444304208787237 0.09807649244453383
0.1636600860222144 -0.1436401721671782 0.09832473322317281
0.1643541162598566 -0.14297121513448224 0.09787741632391285
0.16398109110317602 -0.14279588122597647 0.0985520432949548
0.16448925660470126 -0.14235061961379297 0.09819167893854075
0.16484278013883544 -0.1415241398645544 0.09823645299571147
0.16496641089390243 -0.14044034231773278 0.09870689221422929
0.16574092531090334 -0.13978558851965708 0.0979422707797099
0.1654033706880643 -0.13965523753630948 0.09846935047297807
0.16586217331809505 -0.13895886109426017 0.09814542803734652
0.16550489437598895 -0.13865075614113365 0.09877909285804087
0.1659921156171765 -0.13794108679938472 0.09836637639227473
0.16564162269532368 -0.13759353413585682 0.09900206254205011
0.16613252187199165 -0.13691993487947776 0.0985741872164901
0.16582044104356566 -0.13645978758657315 0.09921568889696943
0.16626422738740881 -0.13608801900573306 0.09873074806430344
0.166621507299998 -0.1352325404651038 0.0986193895182144
0.1668055151072274 -0.13410929549766282 0.0989856091325073
0.16692351134772018 -0.13311913238090312 0.09945445257548337
0.16774179036306516 -0.1325224451488189 0.09873182515741892
0.1674341896376462 -0.1322763369759092 0.09936535431579484
0.16787655759693734 -0.13193936895193648 0.09902117634679558
0.16822503170953093 -0.13123239960109553 0.09916913523177698
0.16907511799062652 -0.13047151191619383 0.09863528505944565
0.16872070549068632 -0.1303898446329311 0.09923681671384463
0.16915550955850486 -0.1299133102747003 0.09904842093057598
0.16949179381048485 -0.12907105402150093 0.0994057207871802
0.1698200283162651 -0.12825441818133987 0.09973109181743173
0.1705391864908417 -0.12763005886787404 0.09929956288424156
0.17015908891589127 -0.12741225024588734 0.10005079409073575
0.17068156100306112 -0.12701133518114766 0.09969900585267079
0.17106819608630408 -0.12621319085649435 0.09990224765072105
0.17197379660263284 -0.12549811356416568 0.0992499509149783
0.1716288327125973 -0.12536387436933383 0.09989068540338465
0.1721304006492567 -0.12474095056309663 0.09972076561628132
0.1718108492751301 -0.12434976134078145 0.10056967463710706
0.17228583848758525 -0.1239707740142775 0.10018721264221697
0.17267582306208465 -0.12311265846846954 0.10036604567953412
0.1730143329313564 -0.12233544106487869 0.1005536676213193
0.17374163410490828 -0.12167184192954403 0.09998835846309029
0.17335526825329153 -0.12155843870023483 0.10072068560302563
0.17389009973471806 -0.12106599912638832 0.10030022085731771
0.17433156706744557 -0.12024239687382748 0.10038580878917122
0.17463235414576478 -0.11916293045025461 0.10094424246746264
0.17508122938697812 -0.11835419898994493 0.10105817615018327
0.1752269405517552 -0.11773146185156734 0.10141852563582011
0.17626359307841186 -0.11683775837103305 0.100752848380575
0.17575540324698033 -0.11676509864333037 0.10157235585689059
0.17646699721559092 -0.11620855225904515 0.10105840886061415
0.1770501038223052 -0.11531682690937588 0.10106367473541471
0.17741320795835536 -0.11425131051911262 0.10149485756773802
0.17784007653292414 -0.11317591302776256 0.10191011413689209
0.17850467551276697 -0.11221738137510202 0.10189791066826773
0.17881338357210982 -0.11149722450993803 0.10224159578320863
0.17919607809198296 -0.11070156481945677 0.10256624289798459
0.17941610360183655 -0.11029706185131741 0.10272947795702991
0.14472034672634435 -0.18100593634314588 0.09558013219449468
0.14473955222492296 -0.180630219016404 0.09600701106686076
0.14494295523576262 -0.18029292791954946 0.095810505922459
0.14479977985827383 -0.1803667131471807 0.09620415891383538
0.14496433947541976 -0.17988918228165235 0.09609182111232747
0.14524654810653223 -0.17925837715080786 0.09555133617089652
0.14512429528546406 -0.17941619871921752 0.09613497882061509
0.14530966483205435 -0.1788386881656434 0.09602106731520818
0.14559147361620423 -0.17802023024221855 0.09530071922032518
0.14547330755528862 -0.17828196590354015 0.09596181000362713
0.14560473984740982 -0.17767185118335302 0.0958441528214607
0.14593121221468122 -0.17682871434016711 0.09513837969716048
0.1457777600570033 -0.1770788987131033 0.09575675157037
0.1458812343274817 -0.17651292157248563 0.09570088274061059
0.14607889264526913 -0.1758445572413979 0.09522933194082214
0.14600634534989473 -0.17600978912664372 0.09565599103134777
0.14612976987122883 -0.17554238144780188 0.09562346992752165
0.14632686373452 -0.17485626260460008 0.09519868183966937
0.1464696029064567 -0.1740963872126248 0.09533122198089138
0.14663910121107196 -0.17333015102055882 0.09576812832814702
0.14709609244431496 -0.17246551672106128 0.09471512707519932
0.1469356721371504 -0.17252070923634405 0.09551194576544776
0.14720091680075614 -0.17205218194563973 0.09504488003522871
0.14741688023611094 -0.17174070375642767 0.09488224374399569
0.14731886212799516 -0.17174314487521075 0.09518952849315535
0.14750529380377225 -0.17141343460617142 0.09528860901652324
0.14785704534740207 -0.17094778990687703 0.09503993764205139
0.14825504598996522 -0.17029009096970044 0.09522977282965371
0.14855876194167547 -0.16979605091488362 0.09537980125796236
0.14890022674965253 -0.16934511381561138 0.09552720671756121
0.14926840210670891 -0.16887332739790845 0.09566012839063388
0.14965899206124847 -0.16834442451784662 0.09584992398564557
0.15004855137066558 -0.16761785218139638 0.09638772827537262
0.15097341716859866 -0.16694526377696892 0.09551270445087455
0.15066826337767064 -0.16686427248784635 0.09629727493804571
0.15115001501924985 -0.16651575509834088 0.09590626652715771
0.15144250903279832 -0.16620873071222014 0.09583205870431738
0.1513126896724479 -0.16621770912274098 0.09609576298310878
0.1515029686383655 -0.16583353017690894 0.09629480654924179
0.15193662201476135 -0.16508198156387763 0.09656763874057968
0.15291172615634627 -0.16426138901786858 0.09590526247377662
0.15254435974045896 -0.16413507859774215 0.09671127544162043
0.15305419816452975 -0.16363737207358806 0.09641263641457318
0.15342453754042493 -0.16327457337174767 0.09621252717555974
0.15328467450477287 -0.16287501217850986 0.09692334858952129
0.15378656986564576 -0.1626503484272103 0.09634857122246375
0.1536957098826775 -0.16212371353856653 0.09715527347225504
0.15406555248913864 -0.16196522633261448 0.09671145513199271
0.15435986405347055 -0.16166723147699275 0.09659081811507399
0.1542204958975867 -0.16160525575350226 0.09689112212014084
0.1544277235775765 -0.16123811952646355 0.0970364552330889
0.1549277872584229 -0.16059069848077293 0.09715546440547856
0.15601035409675468 -0.15972563511957055 0.09661394968305327
0.1555479618313305 -0.15985237383576284 0.09721974693529328
0.15609711837688825 -0.15917986485362715 0.09729718494737513
0.15655098255143587 -0.15866940691450704 0.09722890782991533
0.15634728988865934 -0.15844957314657446 0.0979576914188656
0.15678550506641598 -0.158171770903958 0.09753592154322502
0.15718183695028626 -0.15751705261329604 0.09767103395209377
0.15794986531816826 -0.15676596206391258 0.09701633350931721
0.1577118374982537 -0.15665512894502737 0.0976648560965573
0.15807803672878662 -0.156259370901074 0.09735167423340604
0.15835367804507589 -0.15555030915994583 0.09748288962355611
0.15850407725542143 -0.1546065372300326 0.0980736306205808
0.15911190794108038 -0.1539009742226655 0.09726670443385374
0.1588945847060065 -0.15373492110368364 0.09796044150663102
0.15921861782000413 -0.15329272160607793 0.09757407857452305
0.1594761372021831 -0.15252315957205573 0.0976570729716272
0.15964945325145757 -0.15154230453546472 0.09810403471312794
0.15979674115609563 -0.15058803129046214 0.09858365045231468
0.1604496470044367 -0.1499330821899266 0.09774360609614209
0.16018847213779225 -0.1498155637431763 0.09839125459891142
0.1605820587058827 -0.1491661303702182 0.0981591128576952
0.16033216136898917 -0.1488089885819435 0.0989483872006984
0.16070522864267361 -0.14843414604390684 0.09857993532013917
0.16100678050312064 -0.14767080455652679 0.09874470845156524
0.16177573214572788 -0.14693856772482414 0.09815582224731942
0.16149371628732134 -0.14674687819472385 0.09877966157388433
0.16190226576941996 -0.1464124785804618 0.09846884599442536
0.16220669918819935 -0.1458553731401653 0.09851717055682893
0.16287822556611126 -0.14502498431371252 0.09827630531690884
0.16253066074882547 -0.1452490935758876 0.09858405721152545
0.16277959688665905 -0.1444688998443104 0.09892083560955006
0.16332033177073046 -0.14349454099772743 0.09895654620873293
0.16355189779833118 -0.14245289250918108 0.09941771564732511
0.16439086648868062 -0.14190031697630512 0.09866136095470582
0.16404709230531822 -0.14173499974083126 0.09922906390286966
0.1645182466344856 -0.14109078859930368 0.09898748793267534
0.16416127162367197 -0.14064982545872995 0.09970097680991868
0.16463132002886502 -0.1402832546567971 0.09927198347514368
0.1649719956517566 -0.13943693240183697 0.09918330947703499
0.16514755635994238 -0.13830168967372797 0.09942100005763126
0.1652930830753533 -0.13725798461638594 0.09963576077680203
0.16539952237636768 -0.13627714255518616 0.09991190793942926
