# .PCD v.7 - Point Cloud Data file format
VERSION .7
FIELDS x y z
SIZE 4 4 4
TYPE f f f
COUNT 1 1 1
WIDTH 793
HEIGHT 1
VIEWPOINT 0 0 0 1 0 0 0
POINTS 793
DATA ascii
0.16988224677650393 -0.12696582233281897 0.10148672533288285
0.1695642133073312 -0.12635670511095584 0.10240063985313076
0.17011033229383227 -0.1259694676324939 0.10201690952835224
0.17056386709668186 -0.12550110622497995 0.10182581214775915
0.1702525647377057 -0.1250957280725448 0.10256087322276188
0.1707873624286826 -0.12478053240476725 0.10212212889619862
0.17057944379333503 -0.12426862364678647 0.10282425565696693
0.17096477737372015 -0.1241096681362283 0.10244613127073948
0.17129153198885122 -0.12344917130711586 0.10256564176756067
0.172179774644311 -0.12279043425155704 0.10191205394325285
0.1718139430480479 -0.12256589544696596 0.10259848539809469
0.17229033073886435 -0.12219294329606258 0.10226975201225179
0.1726058111553454 -0.12145224568821962 0.10241308996412803
0.17274221385058716 -0.12048560941777993 0.10299523139787077
0.1735790334068155 -0.11989086528800307 0.10225919389178971
0.1732286025044131 -0.11965334548438203 0.10294411908998227
0.17368692427025859 -0.119280971256281 0.10256005023191399
0.1740351758085184 -0.11852221471793332 0.10258560754974207
0.1742910385668693 -0.11738445373332429 0.1030471973884865
0.17458893116314403 -0.1166609263642984 0.10316322508918661
0.17529351295274526 -0.11603485919228904 0.10263230056540264
0.17489411343620043 -0.11595401877873934 0.10328225577065703
0.17549640628791457 -0.1152822207042462 0.10297124274685984
0.1751699272787339 -0.11491210576523808 0.10376729963423523
0.17577371998224844 -0.11437416191336791 0.1033849000041355
0.17551185533642302 -0.11390324997369984 0.10420528390636002
0.1760339476632678 -0.11361232115082981 0.10372730409666596
0.17652630095082522 -0.11276863472143372 0.10373886811821112
0.17699802309691853 -0.11181319600832776 0.10387609805398494
0.17712877966733231 -0.11117327200138942 0.10427483983096848
0.17808027028007764 -0.11029265038993226 0.1035675328657739
0.17766082551699947 -0.11030668655897202 0.10430259805311984
0.17841487788253146 -0.10952522054699372 0.10386721070264876
0.17812883035468452 -0.10932089655379328 0.10467496849356778
0.17886076432636025 -0.10863150244814011 0.10423131801284731
0.1786334280635475 -0.10838951934200278 0.10509711152465086
0.17924403801586897 -0.1079550652618305 0.10457217644505339
0.1794996888306728 -0.10755466583128633 0.10464153507449851
0.14792356415965538 -0.17651268042545099 0.10050521275767894
0.1479267792988164 -0.17603088135345127 0.1009906617495858
0.1482489715410169 -0.17561277673974526 0.10070419731082639
0.1479604902214585 -0.17570898388452796 0.10121915732090606
0.14813402831682054 -0.17514807865646387 0.10115407567440544
0.1486049333065505 -0.1743984915983785 0.10047751000431501
0.1483049514589853 -0.17454951150628087 0.10105862657090581
0.14854459080758214 -0.17392027103279303 0.10093023858828867
0.14903076233634047 -0.1731387992940303 0.10022641855102853
0.14876890516631872 -0.17328359323466638 0.10080485309403643
0.14896905441430727 -0.17267300582271886 0.10070668546955718
0.1494204898388387 -0.17197774429314014 0.10012373702785343
0.14919373027119043 -0.17208480759149167 0.10062723298677596
0.14938182076985676 -0.17157600077602125 0.10062611411295233
0.14973915699109894 -0.1710669290948957 0.10020085469621759
0.14956921981821414 -0.17109152902081917 0.10059071638541242
0.14975941798068115 -0.17067604299649958 0.10055505724219707
0.15016011350482986 -0.1701196537648081 0.1001263914179501
0.15046624547591905 -0.16936489387878154 0.10030394202332285
0.1507494577682628 -0.16859112096945167 0.1007116415385825
0.15159492856684595 -0.1677132229251534 0.09965926905038776
0.15120901885466717 -0.16791245478429878 0.1004879597461091
0.15172735555944172 -0.16720152026545224 0.10026469909051738
0.15223177528971063 -0.16659349358137845 0.0999134689829267
0.1519626455657878 -0.16646911841751016 0.10087094829306668
0.1524685452999182 -0.16606523211561597 0.1002216878159106
0.15279712029266554 -0.16570732985993367 0.09999283725125026
0.1526447639082492 -0.16572078549803618 0.10035720122968178
0.15285117018321207 -0.16530958620033104 0.10048570565824914
0.15317969049280955 -0.16490319608512313 0.10031805958065766
0.15304444483792376 -0.16489977067381234 0.10062539893561993
0.1532291609270761 -0.16449259747128944 0.10077764571505718
0.15367086820038797 -0.16369959255925198 0.10089235899636234
0.15466502830073944 -0.16285716432907002 0.09998823587000683
0.15430915237969917 -0.16274891167637268 0.10080367802304849
0.15477700686056736 -0.16232205679984907 0.10042326178955838
0.15501854945838126 -0.16196987537642146 0.10035955364034747
0.15488596465751947 -0.16194857482278285 0.10064506949730692
0.15501925147428547 -0.16154001630331466 0.1008498161803979
0.15535800266249186 -0.1607411185924733 0.10109927644074837
0.1561453717846531 -0.1599230811173096 0.10043054679505951
0.15586913237038685 -0.1597962920696809 0.10115286378363202
0.15624578050018162 -0.15943824361835526 0.10079747851309348
0.15655661389670203 -0.15882654744404978 0.10093337966993422
0.15735917203296787 -0.1580626515504809 0.10036317277251072
0.15700153715264284 -0.1581287677392821 0.100970807484133
0.15748744512190985 -0.157486767287075 0.1009408286084529
0.15805087075545532 -0.156951885195031 0.10067010744340239
0.15776890282477624 -0.1566610128287707 0.10159469021848738
0.15831923858083868 -0.1563260820636906 0.10107690988089023
0.15864309697460563 -0.1559695400989115 0.10098788915866785
0.15847924220830117 -0.15597159274231387 0.10128655511032383
0.15867133682444434 -0.1555773553746171 0.10146082915373691
0.15908484125365266 -0.15483903043507743 0.10159729969292274
0.15990558437774952 -0.15416932906579445 0.10083499833822973
0.15963245503138374 -0.15397642100447173 0.10151272380798977
0.16002795397660913 -0.15362550688405643 0.10112912985377442
0.16032051368743203 -0.15287163506188867 0.10122182188149803
0.16041876450115392 -0.1518497782182795 0.101845513796188
0.16103183798590306 -0.15123840076159165 0.10107365377647518
0.1607895174362546 -0.15099802953009697 0.10172909607654029
0.16111061315118577 -0.15062786722874166 0.10133191469593174
0.1613541145107852 -0.14982830578885353 0.10132908259786373
0.16146128274259203 -0.14865166257688367 0.10183829748301074
0.16162661276992266 -0.14787363171873025 0.10196390703436989
0.16209517364922305 -0.14717275972902497 0.10139585143083057
0.16179648290723017 -0.14705334435879902 0.10208024592938154
0.16215642537142755 -0.14656884194322817 0.10162723081221912
0.16239126473081883 -0.14577670519877178 0.10163990369131033
0.1624770093967866 -0.14477093014704465 0.10209333551883634
0.16315000393331647 -0.14421816614529606 0.10132241254315864
0.16286679824663822 -0.1440370636721118 0.10189755215281016
0.16329644011895725 -0.14346065221841575 0.10159936382871747
0.1629676865712826 -0.14298835266449314 0.10237868732936498
0.16343260403444795 -0.14270793402810358 0.10188770703800241
0.16373127113101632 -0.14205058368452692 0.1018951444752263
0.1643833492938919 -0.14113463497796758 0.10165951451534763
0.16401388171687792 -0.14138354619160223 0.1019560356641595
0.16416744586577944 -0.14060250984953013 0.10222638374540437
0.16456960350822533 -0.1397419760128622 0.1022175206952451
0.16536328297999353 -0.13891062138113935 0.10169416952987356
0.16492080242048268 -0.13877190327143357 0.1022941548807421
0.16545939376411045 -0.13815487574883725 0.10193562417883133
0.16506906293155452 -0.13761929113758667 0.10266127986182368
0.16563648708679854 -0.13720785456677778 0.10212309313121637
0.16537338363137186 -0.13660934735489486 0.10273119763803236
0.16579179956307524 -0.13640054383762854 0.10225839045355156
0.16608225158707637 -0.13557811183927404 0.10217002731875394
0.1661833818861172 -0.1344793166896687 0.10246045927963879
0.16625906507044141 -0.133509151641545 0.10278766209110679
0.166959581180138 -0.13288417998237803 0.10192279393081476
0.16665282674452828 -0.13275178511686692 0.10250535629903153
0.16706101046531296 -0.13207333738983182 0.102153455861328
0.1667354107456542 -0.131756680194491 0.10288321792379067
0.1671699126449284 -0.13110977148632477 0.10249633617691224
0.16687937369694072 -0.13068706465106883 0.1032384937306826
0.16726419692768618 -0.1303284549954673 0.10279056787790108
0.16754868881827134 -0.1295262401174011 0.10283164460000276
0.16834762060521158 -0.12883178541336787 0.1021074198486697
0.16802657564279613 -0.12867777024592955 0.1026906929699257
0.16851065405227003 -0.1280819523481333 0.1024460322321954
0.16816663571914758 -0.12761587379170763 0.1032806076021954
0.16865928283171278 -0.1273000115614314 0.10283345969465499
0.16898468124120053 -0.12650061538888902 0.10303105129667489
0.16983617675538162 -0.1256277521617143 0.10264377799381627
0.16942357118888374 -0.12561885022411462 0.10317364049032063
0.16982194579982393 -0.1251334625042808 0.10305839658848252
0.17002544152985816 -0.12440784413538215 0.10339391742654327
0.17087733116592177 -0.12371408901562995 0.1029084400874537
0.17053166916111612 -0.12350883388342729 0.10350459232062557
0.17097095520877945 -0.1232244180069324 0.1031853299661166
0.17126958670119855 -0.12262387341255158 0.10326269368004562
0.17213722760254754 -0.12176217184322732 0.10282958591567516
0.1716540541743511 -0.12157915132527229 0.10359348434831323
0.1722730174404646 -0.12102324058932096 0.10323298963212318
0.17203580584997702 -0.12052822536415012 0.10393527482165635
0.172426251634885 -0.12032915946110284 0.10357464703720516
0.17272117729118514 -0.11969695304612855 0.10362736204128628
0.17355715366327037 -0.11882660669844942 0.10309001244891704
0.17310512052377747 -0.11862077894407318 0.1038694350225969
0.17372863910831968 -0.11801977808839532 0.10342168442855997
0.17349176527985757 -0.11748002926410761 0.10416240310588015
0.17391238563479514 -0.11723292240766764 0.1037165363949164
0.17428797652331712 -0.11649549213993675 0.1037217390494333
0.17456862707655352 -0.11548051236675991 0.10412984242205081
0.1748626900626453 -0.11443491810010624 0.10462719367038498
0.17519795080478587 -0.11374021438389752 0.10477551730211615
0.17595611411073903 -0.11319905164735974 0.10422702206156705
0.17557343910153478 -0.11303427803221996 0.10491386933171166
0.17611951916394275 -0.11262166909404564 0.10449639096079634
0.1765662898229062 -0.11182891931494757 0.10454861759504845
0.17694449424080097 -0.11073926955172578 0.10499916554847152
0.1775263505702945 -0.10988134112713316 0.10503872459812211
0.1778577693499211 -0.10913947333603362 0.10542304691639452
0.17822401544421065 -0.1084488399059957 0.10579610309912334
0.1791998971035084 -0.10769163294067337 0.10507692664493351
0.17874135309868897 -0.10782094819596694 0.10576158654809788
0.17931402893097384 -0.10744258904487036 0.10519457274339088
0.1477554929383615 -0.17568171269835134 0.10161448086908012
0.1475767401251569 -0.1756189894250431 0.10198478876515203
0.1477235724422234 -0.17523011499585503 0.101976439035877
0.148031045383968 -0.17468229433821833 0.10160813715602547
0.14778686169827546 -0.17479663229773404 0.102127571879455
0.1480077878974051 -0.17420967095505768 0.10205964947011086
0.14849748921986936 -0.17344922210061944 0.10140247625145442
0.14821193796885254 -0.1736266061973684 0.10200039705213595
0.14844779895495055 -0.17300310478403738 0.10187592328690127
0.14893868956621814 -0.17222107261513056 0.10118209430839283
0.14867865089450943 -0.17238287504322652 0.10177098227977467
0.14893125569242832 -0.17181768549922852 0.1017050783662443
0.14937118209909053 -0.17115766203717933 0.10108097367735461
0.1491698319549642 -0.17125098191146554 0.10161919340454525
0.14942352398879793 -0.17072688802079 0.10156287478144578
0.14991885427930865 -0.17007848405575632 0.10088997180618231
0.1497147371409767 -0.17014765046730795 0.1014775274475744
0.14996915609627365 -0.16961787449159638 0.10147864369052456
0.15038093477954437 -0.16906552898746197 0.10109446234208175
0.15021279551393682 -0.16913234980334033 0.10151620979600055
0.15042881450707457 -0.1687105227030021 0.1015626137983708
0.15084713591870672 -0.16814105434406884 0.1012138810717002
0.15120899911086433 -0.16740345251957953 0.1014330657660504
0.15152257633662455 -0.16656944676550473 0.1019441208518013
0.15244655379041216 -0.16576042621056508 0.10077256380646807
0.1521201325861406 -0.1657097162182316 0.1016461099938605
0.15261033486377373 -0.16525586700223882 0.10112943331358736
0.1529070723102012 -0.16488939005032882 0.10095646422202027
0.15275625462726009 -0.16490030430608213 0.10130173622570555
0.1529233047292682 -0.16448541354094068 0.10146575321167497
0.153235278616822 -0.16406743821538186 0.1013092534549529
0.15308742552002286 -0.1640541383161138 0.10163897688463927
0.15325053613005896 -0.16364915249580095 0.10180448732026492
0.15371541553051687 -0.162860297738822 0.10185400867261211
0.15469518751103176 -0.16198961365656053 0.10096965111718889
0.15433438515179554 -0.16195996144154357 0.10171486179981175
0.1547782469491857 -0.1614779615887931 0.1014286426980956
0.15501576962081662 -0.16110444418715625 0.10139455061686337
0.15488079945854652 -0.1611202851657271 0.10168017521439858
0.15499373350459597 -0.16070684985252232 0.1019329020852498
0.155368722911754 -0.15986022723978952 0.10216033186860726
0.15618492132834239 -0.15911306063684408 0.10132071096172941
0.15597132604717134 -0.15890988594420957 0.1020999124314421
0.15635478117382284 -0.1586294733957163 0.10160434800975149
0.1566658091481811 -0.1582238762380528 0.10150855552907395
0.15703056730805934 -0.15745971655643515 0.10187482746425643
0.15733775376653078 -0.15658993758698242 0.10252209455738606
0.15827274927341797 -0.15598427589332955 0.10164009125103687
0.1579447936608811 -0.15582099411631578 0.10243557123423898
0.15843564502987123 -0.15548435229924068 0.10201883992882306
0.15871693792695907 -0.15517003987002959 0.10190889759376426
0.15858337152831178 -0.15514495466729275 0.10218975873849166
0.15876306908556545 -0.15474192514901902 0.10233359960846583
0.15916262859930722 -0.15395079551278948 0.1024147654468296
0.15994737962988856 -0.15322333765408572 0.10163866251851972
0.159651232383088 -0.15311112546755348 0.10228097103542769
0.1600523844336207 -0.1524868017026219 0.1020613745019144
0.15977953936830963 -0.15207735152113058 0.10289979246361464
0.16014323715717693 -0.15173967550481773 0.1024697459603996
0.16038755522339543 -0.15094952547613547 0.102561595087964
0.16102180881446332 -0.15019159312516037 0.10180222802448582
0.16075168881314436 -0.1500865544627678 0.10241059749633619
0.16109530917210266 -0.14940562019635545 0.10214699403394653
0.16081462704936614 -0.14903449405410868 0.1029391806631186
0.16116164291234006 -0.1486267999927536 0.10248745409045502
0.16137865878271163 -0.147817519944534 0.10250685976750298
0.1614358891660373 -0.14682775394341444 0.10292602161362845
0.1620436827211002 -0.14616402672621043 0.10208537267560823
0.16176594784744971 -0.14604930841974548 0.10268860638918538
0.16211026830417902 -0.14539034446004703 0.10239094121902975
0.1618096946349668 -0.1449917768528577 0.10315665022972333
0.1621854668789418 -0.14461654612849986 0.10269377516101295
0.16246715464209102 -0.14382153372859738 0.10266586711352062
0.16255240993886538 -0.14289575806175572 0.10303551786810503
0.16330866294098983 -0.14217972314451227 0.10237995313940461
0.1628653131151821 -0.14189135611461426 0.10313197723528506
0.1635673693218688 -0.14129930074933905 0.10255376415208832
0.16319201424745214 -0.14069494462503138 0.10335153995360005
0.16371806661331098 -0.1403133109759571 0.10291556777025525
0.16412267152709595 -0.13986408195903427 0.1026743696918131
0.16383712952517207 -0.13950225069645214 0.10319719270857552
0.16432552612910828 -0.1391237518359959 0.10281680045614973
0.16396927535600897 -0.13858554837832962 0.10351595594774883
0.16453289171254365 -0.13822080405376563 0.1030251629153233
0.16425389491670148 -0.13767516714205336 0.10364419264966292
0.1646485119529935 -0.1374811968062337 0.1032423065064415
0.16490155974168613 -0.13679222410509184 0.10325486199640124
0.16563631373129878 -0.13588205090219832 0.10268847299600507
0.16519847077775376 -0.13568279738227138 0.10338815001692005
0.16573375654828357 -0.1350848868291501 0.10288018134358963
0.1654797005511272 -0.13466745807814506 0.10346710939155877
0.16585422524905827 -0.1341545728108181 0.10312188627545094
0.16555810807606758 -0.13373821416671391 0.10382383210632873
0.16595409502263633 -0.13338047821871632 0.10334992801162038
0.16626106875153132 -0.13254651075873589 0.10328123060691743
0.1664049110203438 -0.13136731738586022 0.1036861315378818
0.16660931371025559 -0.13058474609947401 0.10377402417074086
0.16715519740243354 -0.12991532645095805 0.10323167704444192
0.1668333505174003 -0.1297643350843121 0.10389662728818554
0.1672513347091927 -0.12930609579711977 0.10346605316434972
0.16757938002660627 -0.1284931713322895 0.10350046494705786
0.16769750767912806 -0.12743556603277703 0.10408212488517085
0.1685216793671697 -0.12683721103257847 0.10337008233611009
0.16818261881267413 -0.126566941684064 0.10404160548081814
0.16863077213503128 -0.12626619731623562 0.10366717729867188
0.16894189233050888 -0.12570002408094402 0.10372056962783505
0.1695877330634734 -0.12492798028294955 0.10351538520569911
0.16924514171067934 -0.1251129952323163 0.103803389665515
0.16945329125454078 -0.12436997493119377 0.10413623264492368
0.16994783386619933 -0.12356695568458463 0.10416470213081144
0.17085030480995883 -0.12280814961213794 0.10366278107747853
0.1704156074402681 -0.1225766156237447 0.10437915733583852
0.1710302277603008 -0.12211280417633502 0.10397666045438585
0.17076808869639476 -0.12168245032457153 0.10462129405359262
0.1711845393998718 -0.1214103143599793 0.10432044207544873
0.1714677376177089 -0.12060764691208291 0.10457100502861419
0.17234251777121717 -0.11989670746418062 0.1040155101343048
0.17200290947426575 -0.11973738309743705 0.10455944685732456
0.17249641496920876 -0.11918240357670104 0.10431432437597979
0.17214197497966965 -0.11870973855830001 0.10511525931490046
0.17264879734342983 -0.11841890378927916 0.10464047746325067
0.1729892576104353 -0.11767615087192135 0.10471727644457791
0.17381335128677503 -0.11675818835835025 0.10422407834822794
0.17339705592626894 -0.11654811095941567 0.10498833726329097
0.17400668415309242 -0.11599493143466229 0.10452007691480047
0.17380482169220254 -0.11555695761986567 0.10519102472367246
0.17428008534857004 -0.11508015020523396 0.1049009768404525
0.17400691956615277 -0.11465987003183674 0.10570036095164442
0.1744831780721091 -0.11434819057310112 0.10527515028862641
0.17489611467911523 -0.11355722617713161 0.10537042766677279
0.17526621392399055 -0.11284741534036839 0.10551116733971544
0.17603604704194462 -0.11221461870167723 0.10501128561416197
0.17564549555227627 -0.11212833273788551 0.10566883588997125
0.17629098592697903 -0.11143134138013153 0.10536795036137928
0.1760456291393169 -0.11099475958499573 0.10618786878754957
0.1765724163322087 -0.11065117661313482 0.10569921559301117
0.177124610043843 -0.10987101356844217 0.10571682887464975
0.1776156516716664 -0.10893522091443682 0.10613313479718528
0.17814055701247436 -0.10812472640374482 0.10644978385375824
0.17839964677502013 -0.10756005596539227 0.10675851238781982
0.14768007781127698 -0.17473804003910776 0.10241923718938412
0.14770356184485653 -0.17424097121748172 0.10283916503543186
0.14799562039921538 -0.17378468169684297 0.10254811127966638
0.14777267409169326 -0.1739092052805477 0.10303016764093122
0.14805031477325192 -0.17330922244492702 0.10288427916014188
0.1484524831192348 -0.17258621142194275 0.1023830136018808
0.148241435599374 -0.17274879677747443 0.10295173253771425
0.1485114460052507 -0.17216292488288168 0.10289809660004956
0.14895855345232512 -0.1714239684784285 0.10223522580833003
0.14874267657648443 -0.17161245029641425 0.10286855731728767
0.14900729906098617 -0.1710265134845977 0.10277721400324305
0.1494878819938755 -0.17027150752010875 0.1020805638198067
0.14927104651258913 -0.1704299548121915 0.10269984231939959
0.1495226527151043 -0.1698665093766965 0.10264140034636322
0.1500011928606686 -0.16921151783415428 0.1020290405756505
0.14979299319542672 -0.169309746417382 0.10258201221174768
0.15006791988925663 -0.16879600835521388 0.10256496172846088
0.1505984197525249 -0.16815211711320557 0.10195988639470922
0.15037007061127972 -0.16824426453906888 0.10253369943716173
0.15064643857169915 -0.16771362800390405 0.10259077449426798
0.15108848071506129 -0.16713352586200356 0.10227993737229939
0.15089554766068938 -0.16723524664407236 0.10270334042647829
0.15111700500140485 -0.16678658956419443 0.10282796065889825
0.15159420549880723 -0.1659546427974397 0.1027309170600588
0.15254255084446527 -0.16497412635995953 0.10168156006975333
0.1521604031161379 -0.16503293690255172 0.10248389281039672
0.15263778025407782 -0.16448431457791568 0.10210722981131556
0.15292520104841298 -0.16406697020966646 0.101990875093644
0.15273176621197362 -0.16411888451955972 0.10235054655251485
0.15285703477912296 -0.16369901536907955 0.1026042428637683
0.1532363532344161 -0.16321765923269624 0.10237946330600342
0.1530575815719991 -0.16321489856767527 0.10277373032484177
0.15328760361379487 -0.16276438819600578 0.10286177502993515
0.1538476393855036 -0.16207425442473514 0.10256534880809011
0.15465812470525772 -0.16123006089687966 0.10198199294198987
0.15427870881482658 -0.16145508653424093 0.10244080792346702
0.15457770950749755 -0.16073702030923312 0.10272519761077914
0.15496073266972293 -0.16024177691721836 0.10255444458796625
0.1548017124706861 -0.16022064504476377 0.10290970017612895
0.15497774771306075 -0.15978511402176537 0.1031003832023399
0.15543379817318023 -0.15895892246034493 0.10323078521505362
0.1564616059538668 -0.15810160080229757 0.10214482274307997
0.15613363682412917 -0.15795301948417007 0.10311936080150697
0.15666256663186123 -0.15746208716809204 0.10266775517913725
0.1569569320976289 -0.1570499080895429 0.10263893982884985
0.15679977142347434 -0.1570773847964638 0.10294513095642875
0.15697260382476763 -0.15665532107937144 0.10318325028876398
0.15739768145442065 -0.15588586725455575 0.10338970259362676
0.15838649539946212 -0.1551358121279085 0.10253874803650137
0.15803346249157124 -0.1549667163154558 0.10335458732145046
0.1585271331802786 -0.15459521804222895 0.1029356227047601
0.15880498360484063 -0.1542614393196211 0.10280258502245775
0.1586669154925844 -0.15420656652777542 0.10311538397164591
0.1588413828152221 -0.15373295271818727 0.10324671283851825
0.1592758358270789 -0.15289417506057976 0.10318546845800038
0.15943535317194008 -0.1518822725855646 0.10371695840652896
0.16005255351371436 -0.15131197904504096 0.10296231021663885
0.15979606304221955 -0.15106515620586347 0.10362658333267438
0.16013352652508744 -0.15070278796542474 0.10323304532481392
0.16038626957411872 -0.1499126020077079 0.10324622205830396
0.16045618975922535 -0.14886160800443587 0.10374430685652927
0.1610517565703452 -0.14821189815155209 0.1029538735284637
0.1607815583978059 -0.1481000936844721 0.10354049051842805
0.16110571176405972 -0.14745702830712107 0.1032519446674169
0.16081234124617916 -0.1470687812600656 0.10400811612159709
0.16115910791352903 -0.14669416244053307 0.10353558243839692
0.16139734121202365 -0.14588320173524377 0.10347159829505348
0.16145233744705365 -0.14495284341320436 0.103815517754339
0.16206493990539442 -0.14413804492371501 0.10316071666344867
0.16169457807621965 -0.14393174657136 0.10387938279009468
0.1621687271745403 -0.14335565204842923 0.10338646822798443
0.1619420767806289 -0.14292336474232567 0.1039551773418846
0.16231389964956477 -0.14245990561207622 0.10361252462495729
0.16198393843700362 -0.1420155484198043 0.1043255303269927
0.16240678252439775 -0.14170257523112315 0.10385552703604943
0.16266491419832702 -0.14095180879425842 0.103898222835758
0.16343066954954613 -0.13990231421302315 0.1034806902362905
0.16294340797844598 -0.13980697516225313 0.10415653962790457
0.16348515305423383 -0.13917622878546532 0.10379834623515963
0.1631953870068223 -0.1387280560292734 0.10443625264816378
0.1635678543453353 -0.138490760860723 0.10406348085506385
0.16380511555963165 -0.13784103659274577 0.10412961972929109
0.16449833456039856 -0.13702098393936196 0.10366031370631329
0.16409164227456768 -0.13681652140723902 0.10433155157622331
0.1646342459310539 -0.1362622358297298 0.10387387324331211
0.16438140867493978 -0.1357228402467482 0.10455089646091305
0.16478088103103006 -0.13546166066686915 0.10410341072407867
0.16507711115391285 -0.13461974672923366 0.10412522065894603
0.16516601353366261 -0.13356928669525875 0.10458968461825711
0.16585939949002065 -0.13292011805183576 0.10376572982391119
0.16556337835220566 -0.13279139824593572 0.10435907008858053
0.16597082976065985 -0.1321203216533651 0.10403421638363718
0.165675800581622 -0.13173962596931785 0.10480623069039983
0.16607016661321297 -0.13133213296413176 0.1043238899329706
0.1663413822016274 -0.13051703376105211 0.1043194685902729
0.1664517374747173 -0.1295203890967221 0.10474984028501994
0.16715220314870285 -0.12887163015343395 0.1039358630393643
0.1668514228646485 -0.12874346588269958 0.10455419765544137
0.16725834060629935 -0.1280834510058256 0.10430295356437792
0.16695137885696634 -0.12768222303545376 0.10512026684674416
0.16736073930411818 -0.1273215178690793 0.10467956260208548
0.16767014292356405 -0.12660632187384072 0.10473986138842353
0.16853047269703045 -0.1257907794009777 0.10417264878846111
0.16810015354626898 -0.12549492500020623 0.10499978606479672
0.16883220609554728 -0.12496712454370013 0.10444117891628904
0.16853042452668357 -0.12434113773478452 0.10534130440307368
0.16905717876299498 -0.12400823232963912 0.10491878811450091
0.16949711240510912 -0.12360539755937372 0.10469782632751384
0.169256267634716 -0.12315152325054346 0.10537362776143346
0.16979265718647332 -0.12292198271760227 0.10488570548966628
0.16962178263206348 -0.12234568536605707 0.10557874731809495
0.17002340892040474 -0.12227754278496712 0.10511108143528637
0.17033871217811744 -0.12175261781579061 0.10510287677470251
0.17099254942079384 -0.1210652621899593 0.10481214047183472
0.1706470017938406 -0.12118923360962465 0.10514128350209692
0.17090412844178515 -0.12043941716665744 0.10540400293718845
0.1714858225635183 -0.1195140021546143 0.10535652531297855
0.17170513387049818 -0.11857532666978815 0.1057904548063875
0.17252963798529478 -0.11790791864193896 0.1051767252596742
0.17211730603893782 -0.11764488254777913 0.1059517407038191
0.1727521996472989 -0.11710202715048519 0.1054642967790287
0.17254160293469362 -0.11654326177162595 0.10622547548966771
0.17298428363942944 -0.1162945325318917 0.10576436787022235
0.17338409630391866 -0.11548736387874971 0.10586811954086005
0.1735863030985552 -0.11450182790541334 0.10646919268163409
0.1744066099888163 -0.11393768154321401 0.10576811751090029
0.17412617832352334 -0.11369400399764577 0.10643278159502936
0.17457918021883223 -0.11335492727084248 0.10604708495160206
0.17500451797070174 -0.11266619807602646 0.10609496916868953
0.1753833411087019 -0.11168647630802193 0.10654783288613857
0.1757297539983341 -0.11076906532992083 0.10703267828258513
0.17659113745750915 -0.11021960178320597 0.1061889496722281
0.17635406033195872 -0.11008541655496196 0.10681056339971316
0.17696688446959788 -0.10948458315088512 0.10649973672245848
0.1768243002401852 -0.10918941106921795 0.10727090399436476
0.17749254091198424 -0.10859871025530514 0.10688064695533882
0.17736026616030526 -0.10825778697011341 0.10765421374675602
0.17798814019544196 -0.10776024766207841 0.10722752065129779
0.1778200653930746 -0.10743040741731605 0.10797690568906032
0.17820737981083468 -0.1072258189580939 0.10754600367529231
0.17800617357349496 -0.10704039517838762 0.10811783941533493
0.14770803615831243 -0.17393458595406874 0.10315955181895159
0.14816586792108066 -0.17271710421789743 0.10328408306323283
0.1482440274131831 -0.17223381442177144 0.10375441708150894
0.14852887782086502 -0.17176895247302468 0.10345020659175305
0.14831090840348268 -0.17191670765682734 0.10397863792285655
0.1485896861309221 -0.17132202236316668 0.10384890666816521
0.14903877982317512 -0.17060617897381508 0.10332385661855727
0.1487879798660714 -0.17075764701536933 0.10393785509257968
0.1490553327978736 -0.17017265451887686 0.10386352269496547
0.14955704190185365 -0.16944905401907426 0.1031810810279555
0.14930728594543605 -0.16960589133073553 0.10380366935929582
0.1495996784732369 -0.16905317523998145 0.10373629303834152
0.15012441931146606 -0.16836286892605723 0.10311241693781234
0.14987401025562264 -0.16849103539391033 0.10369360835876966
0.15017461709791893 -0.1679603636482576 0.1037078060744923
0.15067314344178406 -0.1673285450039966 0.10319368456762726
0.1504579735430838 -0.16742985816677436 0.10371967056537025
0.15073759492859806 -0.16691316438526682 0.10375613597104345
0.15116312981088864 -0.16639330804527455 0.10332013123207656
0.15101973635763238 -0.16640847453245303 0.1037180884782587
0.1512803785593881 -0.1659560987102646 0.10366192913130166
0.1517232075425524 -0.165285664081279 0.1033447863211735
0.1524585169945491 -0.16429365196223816 0.10271979253328498
0.15207801515271777 -0.16464604160574978 0.10322822376125196
0.15231862301647153 -0.16393589806488781 0.10359036562798073
0.1528336402726483 -0.16326142209133535 0.10324675155544807
0.15257451800715174 -0.16332116740818092 0.10376123098353665
0.15285443190685083 -0.162743167289392 0.10391571765821718
0.15343629971515807 -0.1621272529000813 0.10333750259072218
0.15325951378209196 -0.16181255876723336 0.10415837587222906
0.1539251205558067 -0.16137875010903166 0.10324882822071484
0.15377598621257174 -0.16099623219534867 0.10406718019117817
0.15426530922437126 -0.1606355388364221 0.10351628427911291
0.15462532415896438 -0.16021542828199847 0.10330078043491354
0.15443215652587156 -0.16023890977751432 0.10369758264954582
0.15458904981422386 -0.15981359269450388 0.10390842435059727
0.15497827314054508 -0.15933935859527643 0.10369793139002027
0.15480741382577115 -0.1593423003741348 0.10407568477223288
0.15501198460705307 -0.1589140839668349 0.10423057171561428
0.1555382611397526 -0.15807670793747133 0.10428574144176775
0.1565974094431456 -0.1571366462187353 0.103301353221394
0.15624939955403905 -0.15707741003141468 0.10415318257553985
0.15672466263130522 -0.15660376239888696 0.10377914850714327
0.1569955457419204 -0.15624335163395728 0.10370946326824562
0.15685574707559616 -0.15624306376743677 0.1040031754731094
0.15703601486859872 -0.1558502108747957 0.10418318341064568
0.15744817731306004 -0.15505867306261034 0.10436380458162843
0.15845471131311087 -0.15418481185325433 0.1034933023995466
0.15804856961824482 -0.15404729011073515 0.1043519339476756
0.158556498533666 -0.1535008588151698 0.1039862902436317
0.15889797768868774 -0.15304923383586613 0.10377564248758456
0.1586852399833553 -0.15269799654652402 0.10446542695797338
0.15907799342541826 -0.15236366124390607 0.10401581357692624
0.15891639590541082 -0.15188144446981516 0.10468820782217807
0.15920191997835692 -0.1517145354653257 0.10429396758719625
0.15942002292041488 -0.1511111061756736 0.10431373797041847
0.16002618237913238 -0.15024893717384166 0.10373950258356415
0.1596777366157896 -0.1500649030498781 0.10450604840234949
0.16011204627347847 -0.14946319319886478 0.10405907492605576
0.15990098407522582 -0.148953471684754 0.10474808364097436
0.16020172718287456 -0.14869491495367224 0.10433649245147708
0.16042845644388626 -0.14793085552691032 0.10430797773191926
0.16047254479239223 -0.14702782669728082 0.10466603450899968
0.1610361697818577 -0.14622269430380216 0.1039896599292837
0.16068640302538706 -0.1460211366999563 0.1047180236080075
0.16112031480051875 -0.14543533048526222 0.10419365839268542
0.16090543027077708 -0.14500075986011904 0.10476488410930654
0.16123907480803493 -0.1445177667920824 0.10439134107065191
0.16093809687837757 -0.1440590018542032 0.1051101267823739
0.1613221512487926 -0.14372118889297789 0.10459789282795999
0.16156648717852412 -0.14288319423729365 0.10457047350086232
0.16160656232808523 -0.14196907500457287 0.10493689507421365
0.162250810910535 -0.1412103725163889 0.104335946157416
0.1618601181917762 -0.14098273446966342 0.1050592365512005
0.1623840888525142 -0.14040928857984544 0.10458595159862027
0.16213632884788007 -0.13986401005707969 0.10528867384301369
0.16250839684166177 -0.1396369889172214 0.10485051660087022
0.16275571549080978 -0.1389315465502284 0.10493590584047342
0.16342482914522877 -0.13806221943995634 0.10451004126752422
0.16305020866197162 -0.13784341250542 0.10522487731057652
0.1635640953976357 -0.13734428666323303 0.10476331632956684
0.1633648739814126 -0.13681042998518067 0.10543692892255892
0.16370944601443535 -0.13662629335900994 0.10501158866410468
0.16395530938842476 -0.1359417886382938 0.10508189323802215
0.1646417462697617 -0.13496878624886846 0.10460628085930727
0.16424937245274016 -0.13481315791733817 0.10536412968883901
0.1647584517792714 -0.1341847155943665 0.10490669276418109
0.16455905846499916 -0.1336891055892318 0.10558671777123751
0.16489062370164345 -0.13341211901943148 0.10517333034382725
0.1651828817473019 -0.1326207792241657 0.1051546593233033
0.16530357075440916 -0.13158524750924505 0.1056192874207125
0.16596674101704434 -0.13090707331170653 0.10477764797012888
0.16568637687462967 -0.13079747864810595 0.10538168041616613
0.16606934263420922 -0.13014574898606024 0.10506888206336555
0.16580116212394977 -0.12975627021088063 0.10583342497957587
0.16617636971356706 -0.1293841600612435 0.10535808132391489
0.16647117719728327 -0.1285791821241049 0.10534925184714837
0.1665790122378951 -0.1276489988328768 0.10579925863738197
0.1672618147286189 -0.12684313659069787 0.10519663344143483
0.1669043742917438 -0.12660915216877258 0.10600099937672373
0.16747669751108787 -0.1260340528420366 0.1054914315697418
0.16728938279877173 -0.12547426394005076 0.10625342136750196
0.16768009344045548 -0.1252459763509167 0.10580805273731536
0.16799142606199943 -0.12446768103343686 0.1060058685555398
0.16882342704658287 -0.1236173759615689 0.10553925426653753
0.1684583875526964 -0.12349571534629782 0.10617697835994248
0.16887859076244213 -0.12309397416349686 0.1059209371117339
0.16915563055579 -0.12246935020014006 0.10608815237972538
0.1699565400800858 -0.12177269624090704 0.10559828638692366
0.16956569950721048 -0.12146536455273922 0.10640667393763353
0.1702712941463748 -0.12100688680179564 0.1057922903271458
0.17001598662943407 -0.12037137075208637 0.1067005433591207
0.17052941434473357 -0.12004977255074022 0.1062146821590291
0.1709724795803343 -0.11962216685205788 0.10594277754466996
0.17075366113627902 -0.11918466908041285 0.10663177230127587
0.1712521350662109 -0.11891155094253447 0.10613742274702472
0.17110455132575872 -0.11846000018214584 0.10673162655564937
0.17153199521362458 -0.11811456028559253 0.10640675625804152
0.17130360260577454 -0.11767561620036526 0.10716557580384338
0.17173569118015572 -0.11742899048254192 0.10669156206008619
0.17206870603828994 -0.11674845118522052 0.10677671135391821
0.1728830303934043 -0.11581305224218727 0.10632396642292746
0.17248732258210153 -0.11565253460827368 0.10711919148500286
0.1730849677115337 -0.1150684362210534 0.10669853189722633
0.17294027705672435 -0.11459809478511139 0.10742447205940016
0.17330531407566874 -0.11437948657256505 0.10703956297298466
0.17365544158109933 -0.11377231599671254 0.10710680411230467
0.1745266854572783 -0.11292258089015755 0.10657396490286491
0.17416197245924914 -0.11274975519835738 0.10736298423167621
0.17481539245012953 -0.11218579742716871 0.10692643401415293
0.17468957322750497 -0.111798053395402 0.10760649249970156
0.1751751719283733 -0.11134230090998047 0.10732264445780505
0.17500743806712593 -0.1109929917975689 0.10810608059621792
0.17547952117966847 -0.1106500186612925 0.10765318236389684
0.1760715491657872 -0.10988264348430249 0.10764861054206319
0.17669211216626793 -0.10885570268668784 0.10808794113466334
0.17720244109694655 -0.10790401125314991 0.10843198218367554
0.1775584272644476 -0.10723043358990185 0.10865566653417662
0.14824844140517604 -0.17195088106239867 0.10412085729022465
0.14865669276134233 -0.17077527086963515 0.10441389051804752
0.14856870498677788 -0.17073751552028035 0.10483760324857608
0.1487434235537144 -0.17034112072371851 0.10479085515506624
0.14910405892128675 -0.1697800088980277 0.10440779132217273
0.14889701024705995 -0.1699273955415839 0.10493831154183941
0.1492066408931728 -0.16933359521633454 0.10479937974554607
0.14965674925233477 -0.16865468570962394 0.10430554701814113
0.14943805216938474 -0.16879320593113933 0.10490533442669282
0.14975422718613227 -0.16824492003108807 0.10491568944826547
0.15025186067344856 -0.16755860547542267 0.1043151371237974
0.1500320661971427 -0.1676915844692272 0.10493351494826726
0.15035504210705788 -0.16708773520182682 0.10493936244043979
0.15087422099392173 -0.1664235027342105 0.10420680665571178
0.15073407576953293 -0.1663401119867058 0.104851779229803
0.1511073700085003 -0.16587794934265776 0.1044040286372691
0.1514445804214281 -0.16543062774920758 0.10400443458537174
0.15132996814979133 -0.16531666120740623 0.10463199374478874
0.15174473208033862 -0.16479820304313975 0.10404676944533425
0.15151816996806086 -0.16486580190069658 0.10474680455027947
0.15180057697831317 -0.16425150829712432 0.10485182741428073
0.1523127390188408 -0.16344907491620753 0.10434054110875629
0.152078743543631 -0.16360609171745044 0.10495243056490798
0.15234077882983565 -0.16302801606629325 0.10506259378250693
0.15276678454133463 -0.16239017691900703 0.10467250588217605
0.15256688408769803 -0.16248242605125324 0.10513069941823201
0.15280592177242802 -0.16199253047840437 0.10514496390860449
0.15329465011992544 -0.16125686416866883 0.10480325982671744
0.15415280854251082 -0.16037165546056584 0.10410295982584168
0.15370816175817836 -0.16065606100262467 0.10463475462177523
0.15400038379683295 -0.159999986424612 0.10487266361781684
0.15456782550910533 -0.15939126050854427 0.10451441619861485
0.15429457422443182 -0.1594441719424625 0.10498270301342195
0.15457079599839746 -0.15895384089939688 0.10510322199768544
0.1550435530341494 -0.15847300393926225 0.10480450259856271
0.1548587482142948 -0.15847130636600767 0.10519334222858465
0.15510106691453515 -0.1580397682901803 0.10530217084813827
0.1556718119631003 -0.15722477735218862 0.10524731683511418
0.15667554496020328 -0.15630947868073045 0.10432645169954942
0.15635094879701636 -0.15631868015747688 0.10506631164747056
0.15680854051480234 -0.15582343918468242 0.10476819166162882
0.15706306793175415 -0.15544284197526942 0.10471106299603743
0.15692611088752104 -0.155470564197035 0.10500479454513717
0.15705219089168015 -0.15505281467223422 0.10522502860844783
0.1574548111119673 -0.15418473817404865 0.10535311381938717
0.15833737097020983 -0.1532320117695524 0.10462881719566064
0.15797005677687956 -0.15316294609063796 0.1053458747659205
0.15836941800781437 -0.15271672642482848 0.10502672727551902
0.15856639367231679 -0.15207818954446897 0.10517367097299771
0.15911976910194053 -0.151286122441228 0.10474981584875415
0.15879646223303268 -0.1510985218620897 0.10545449515267907
0.15923581956732574 -0.1505877901676802 0.10499629566625088
0.1590343814025624 -0.15007095482686053 0.10569449705038277
0.15934762874316913 -0.14986074446546932 0.10525004343569659
0.15954302824556427 -0.14916445917844087 0.10528905315193508
0.16009345240368192 -0.1482326718200258 0.10478596874859923
0.15975443308384893 -0.14805701416078584 0.1054829953304327
0.16016382820434114 -0.14749368296841814 0.10501698171929529
0.15995558114899563 -0.14707641451019304 0.10558183746130913
0.1602640848121726 -0.14660580737248796 0.10523442889404282
0.15996918124435303 -0.14617230306452544 0.10593436714846449
0.1603304029236972 -0.14582355498784588 0.10544461285151602
0.1605488343080531 -0.14496765852739005 0.10540759202305519
0.16057544504949628 -0.1440116915589222 0.10575986128721233
0.16117818837514994 -0.1432148160134666 0.1050628400656335
0.16081228609159726 -0.14298584254445498 0.10579534234600405
0.16126315827898596 -0.14243092731081788 0.10527595632430821
0.1610487734112152 -0.14199276362644941 0.10585092560441213
0.16138825013288693 -0.14154016341093487 0.10551120627389511
0.1611080740862097 -0.14108350417474477 0.10625234396406473
0.16147828038346512 -0.1407893373076436 0.10577317896502618
0.16172207374083833 -0.14005627884628935 0.10583773298327522
0.16237773566105904 -0.13915470466891286 0.10535785387735393
0.1620274133742195 -0.1389245228487642 0.1061298795923196
0.16253167707467256 -0.13838448442942222 0.1056655598105857
0.16235733205457906 -0.13781948425265908 0.10641726914903321
0.1626909888961202 -0.137607755266884 0.10598419915416005
0.16296075110488015 -0.13682092050222738 0.10613471294561345
0.16361663419400332 -0.13617270920955446 0.10547189548280965
0.16335916564434405 -0.13600405354540268 0.10606170018917324
0.1637504058518243 -0.1354430384357843 0.10578677866879464
0.16349907725216226 -0.13501714576951387 0.1066021552884279
0.16387292535280207 -0.13467322065576437 0.10614370205295999
0.1641425434036806 -0.13382394161582592 0.10627430732817547
0.16481161857484436 -0.13297572384830586 0.10560587189670285
0.16453878445119446 -0.1329033005934213 0.10617748378922755
0.164919617999352 -0.13223855702495724 0.10591674001064978
0.1646607069813415 -0.1318677541811424 0.10668850119291391
0.16503442165000246 -0.1314687919583884 0.10622773891405712
0.16532792577243763 -0.1306354644022551 0.10619826756860486
0.1654481671263479 -0.12958513308636826 0.10664756120442025
0.1660962986045057 -0.12893706726462206 0.10580631252071403
0.16582877499251425 -0.12881371262862468 0.10640507646972716
0.16621231078843973 -0.12817094832248757 0.10610540133138097
0.16595386827785852 -0.12783385487295565 0.10685955000141305
0.16638230493561723 -0.12723706399669293 0.10646648328525439
0.16615090235860505 -0.12676204433037774 0.10730280630356523
0.16653294521889214 -0.12643161925190205 0.10680768461012723
0.1668363991671423 -0.12557935303894902 0.10697894815582147
0.1675850847021358 -0.12480924089902096 0.10633059178321003
0.1673140032805386 -0.1246204665442821 0.10698866853915219
0.16768497146595587 -0.12428090802118173 0.10664002534818716
0.16797159066953754 -0.1236458497714169 0.10678727163326503
0.16874270508018527 -0.12273310562250202 0.10644601612866786
0.16835300179073684 -0.12258284321635572 0.1072351175728821
0.16893621022331334 -0.12200561288334784 0.10683551376763294
0.16875654507253357 -0.12150606700428589 0.1076613978883277
0.16915063808384928 -0.12126246794655801 0.10722823159203614
0.16949232516618024 -0.12048411211043249 0.10745816074000249
0.17033247055079248 -0.11966185679984415 0.1068531343477594
0.17001339240901855 -0.1195438535564665 0.10752830695361858
0.17042292933276457 -0.11912837044748265 0.10721972498713898
0.17075142644249697 -0.11841586684461257 0.10737096875963474
0.17095645596177866 -0.1175179003126889 0.1079932370982925
0.17167588590555638 -0.1169820909296381 0.10718889948647538
0.171421633356937 -0.11681493505090317 0.10783317267348153
0.1718983862753632 -0.11625037471959582 0.10753393327779533
0.1716834139371865 -0.1158531881667527 0.10840808774238804
0.17211176260796435 -0.11549674445377021 0.10792984463673908
0.1724922097633751 -0.11469068389336312 0.10811434808038677
0.17328594128536745 -0.11398708283852481 0.10750122598646844
0.17303195396891788 -0.11386114670185489 0.1080820158158765
0.17352314469803187 -0.11331215823283564 0.10781884650015447
0.1733429209702732 -0.11290123339503462 0.10867804076556144
0.1738131162736814 -0.11256680155510673 0.10817462531186889
0.1743324687431975 -0.11179266367975971 0.10827853349609809
0.1746874682623399 -0.11097500026863799 0.10879014994131622
0.17552127946128437 -0.110226331238943 0.10815466255546416
0.1752743376488266 -0.1101349015335096 0.10890962108125567
0.17599550259676194 -0.10942678812823275 0.1085234404378578
0.17588925927954108 -0.10906093427241276 0.10940412852451195
0.17656527455990306 -0.10844232767688027 0.10892899757717642
0.17644291743193502 -0.1080228016470524 0.10985590020487226
0.17704409889737513 -0.10756811349052998 0.10919698747683147
0.17687275350799164 -0.10739312651625302 0.10977780398385292
0.17725520049757937 -0.10716775524460952 0.10928213110646154
0.1488324873385508 -0.16996953245168184 0.10508845750015569
0.14936037237114272 -0.16881724567239068 0.10541474509851793
0.14932291655406085 -0.16878658279359793 0.10587096447182438
0.14950692435991833 -0.16839363810141156 0.10591561282647045
0.14985155285093152 -0.16784808482847963 0.10558694711980654
0.14967053590509616 -0.16798426236083386 0.10620193293627726
0.14993443976098492 -0.16738410371032306 0.10631729428151784
0.15048530282089795 -0.16653919506122225 0.10566234191568619
0.1502255970412619 -0.16658796243576954 0.10669069301465103
0.15071020824389053 -0.16591383166214071 0.1059986746725572
0.1505563361230686 -0.1658857235760627 0.10675473291284808
0.15091735179306442 -0.16584173637631325 0.10515604361917273
0.15087758509627439 -0.16547349557763097 0.1062359879742686
0.1511904625489969 -0.16515752081778506 0.10549362289096531
0.1510764452232602 -0.16512658482091766 0.10617010606254647
0.15133643071249267 -0.16457303137644574 0.10618554362029542
0.15185023163755598 -0.16377060120564388 0.10558184388869372
0.15162277692888193 -0.16393532870400593 0.10622553939069881
0.15190896123053835 -0.16332301282238398 0.10625883518179337
0.15236700020576296 -0.1625889754809293 0.10566587888914525
0.15218561153693702 -0.1627105009902169 0.10624352821966171
0.15243149999609373 -0.1620848020035704 0.10618002255475377
0.15293084734394596 -0.16145462144546202 0.10549657572065405
0.15280279453296441 -0.16126814905026937 0.10606718997419358
0.1532988556831451 -0.16078264441165466 0.10540762128371271
0.15304224445105372 -0.1607982399237559 0.1060370980505956
0.15334960336646403 -0.16022050682127556 0.1060506971917952
0.15398133070727626 -0.159524130619135 0.1055146524368432
0.15367026057996158 -0.15961218980524255 0.10606802831968229
0.15400674880865642 -0.1590765921824025 0.1061230352721238
0.15460592534900677 -0.15850035030357362 0.10565813207488359
0.15433994234991047 -0.15854326020292356 0.10615636290037171
0.15465546193315705 -0.15805943403380293 0.10621903509578415
0.15516146343824147 -0.15758806710531847 0.1058312688226315
0.1549782208440967 -0.15756904594026586 0.10623802676494838
0.1552786616146049 -0.15711958804553733 0.10625867036989135
0.15587258158443193 -0.15644047359695912 0.10591955480174282
0.1567086989948903 -0.15559062781799743 0.10530853499545334
0.15633710335841522 -0.1558264021913955 0.10576628534319987
0.1566367176582803 -0.15509085795003077 0.10602504874971684
0.15702532016433857 -0.15458123016738712 0.10580356726335104
0.15685808025455356 -0.15455157740954742 0.1061653211097647
0.15704432732887597 -0.15407557893832446 0.10627487750204996
0.15746694220011956 -0.15332528242878635 0.10615785218064697
0.15822320539552973 -0.15237624398412153 0.10555743348020846
0.15782796235157506 -0.15225946959452352 0.10638286114465009
0.15834031355058922 -0.15165628688239385 0.10589697986509122
0.15812630157244834 -0.15117932537546008 0.10664763766857749
0.15845900873728047 -0.1509381627321337 0.10619008467296445
0.1586649803791105 -0.15025956053378042 0.10624743742173454
0.1592343393004903 -0.14938970345600733 0.10573828808409354
0.15888583294317973 -0.14918931547582004 0.1064629399228298
0.15932836828653343 -0.1486293151376327 0.10597444897975088
0.15909273915373615 -0.14809582518674122 0.10664462423943384
0.15941684702308676 -0.1478388787328845 0.10620031301531832
0.15961125760871334 -0.1470278121712917 0.10620471688735449
0.15962024875255704 -0.14611891617742212 0.1065619218503642
0.16018053725479076 -0.14533744388079556 0.10590285472614067
0.15982867562471814 -0.14520797139275782 0.10656180571658297
0.16023076729530586 -0.14451121743103296 0.10615099348435876
0.15990284827976695 -0.14400839715489464 0.10692366964047294
0.16034917860375214 -0.14353355315013255 0.10635321838166598
