# .PCD v.7 - Point Cloud Data file format
VERSION .7
FIELDS x y z
SIZE 4 4 4
TYPE f f f
COUNT 1 1 1
WIDTH 787
HEIGHT 1
VIEWPOINT 0 0 0 1 0 0 0
POINTS 787
DATA ascii
0.17912399498582537 -0.09440284047243076 0.04620929457816954
0.17838527750256095 -0.09287269791135201 0.046046038899161756
0.17807365968726574 -0.0921519019841743 0.046082468262294875
0.1773893024173687 -0.09096846693457102 0.045594050747421996
0.17777604754218332 -0.09153347283819681 0.04605619331957532
0.17713543068883694 -0.09033580131165056 0.045909553421030244
0.17743448595464162 -0.09072779146299516 0.04635133665721308
0.17677482511552714 -0.08970054325984707 0.04596549927261204
0.17708364805772028 -0.09002282847547226 0.04661705409022157
0.17595261357450806 -0.08837667054257252 0.045745370788772964
0.17629445621541803 -0.08886596232385936 0.04611191983044929
0.1755822436578414 -0.08774239987223176 0.0458223776178
0.17585882575472384 -0.08805587927692138 0.046494829286057124
0.17475989152320182 -0.08626296191778664 0.045622224151217326
0.1750886451549435 -0.08683395999295103 0.046004644643881924
0.17438114903397905 -0.08552935518358491 0.04579336016175788
0.17463998529660335 -0.08594221660163501 0.046462147168809774
0.17357036163798295 -0.08393462183776736 0.04560680640828871
0.17385849208031104 -0.08449657335666708 0.04610210224212554
0.17321024085970463 -0.08314629240811947 0.04569150658580986
0.1734630770548318 -0.08370406344278318 0.046219602366467986
0.17285015976298712 -0.08235256535515416 0.045747327340285485
0.17265034211711122 -0.08180209261488036 0.04607462693992101
0.172102988803806 -0.08040061682174725 0.045520260681646316
0.17236073902754775 -0.08094083930479887 0.04610331509418262
0.171857688571672 -0.07960235284009351 0.04545459063053294
0.17207158812753953 -0.08004467244277895 0.046114357755383334
0.17158496564720827 -0.07847736200084397 0.0459021582754641
0.17133224512792897 -0.07757704220048443 0.04593719795380709
0.17124039276141848 -0.07694015261002175 0.04632490822349661
0.17074323653920412 -0.0755917066937006 0.04578587442843547
0.17099678592425047 -0.076039870356529 0.046349321553646385
0.1704927030629907 -0.07472889223199775 0.04578115703700995
0.1707522223710469 -0.07521055957258131 0.04632597938810909
0.17029188899253542 -0.07390883659424374 0.04593201705195548
0.16988529931004823 -0.07271395369407609 0.04554907555822426
0.17011944875136642 -0.07315286837419613 0.04604669135120587
0.16966750398987746 -0.07193576873614882 0.04551660009974945
0.16991617259178035 -0.07231237110682324 0.04609036699285844
0.1695760022698877 -0.07086912108324477 0.04607863735778334
0.1690382309982397 -0.06958777822256752 0.04524212566880031
0.16929913350212245 -0.07000009186036116 0.04576331080162767
0.16888213362632493 -0.06876663965460991 0.045321776816446634
0.16914570650367844 -0.06915298823790197 0.04580145460799313
0.16887110802069413 -0.06777926245842938 0.04588562680588313
0.16834455739300064 -0.06654297601889257 0.04526923960372832
0.16861313019891996 -0.06694011329222213 0.04571759811484362
0.1681780485397279 -0.0657636380982369 0.04543763416804756
0.1684535172970881 -0.06613601942403127 0.0458589256596055
0.16767418993720765 -0.06480895837386229 0.044879214411095915
0.16789199362589138 -0.06508902235627005 0.04520766253556658
0.16713729730298385 -0.0633757149736377 0.04469510527949665
0.1673722499309832 -0.06367389236062336 0.04505749015149056
0.16773093385103915 -0.06425729793979289 0.04550700809594451
0.16657641050354247 -0.06213458035238967 0.044449573752498674
0.1668029575160345 -0.062247772431740685 0.044909488415081675
0.16719282057116394 -0.06281829692083074 0.04532118621745256
0.16662508867639392 -0.06191886130693062 0.044775704434166536
0.18114305734009692 -0.09985389132119245 0.04695507352185665
0.18092486514998268 -0.09884622926385787 0.04673610811140102
0.18064679590474314 -0.09770688880561322 0.046794066203837484
0.1802807516641015 -0.09680044569739085 0.046570868819443854
0.17996419109225958 -0.09600059700093583 0.04681885486941191
0.17966771249013502 -0.09520708990766721 0.04707908841125355
0.1788180042541083 -0.09361973966969463 0.046507688317902064
0.1792612309962057 -0.09436546004401443 0.046995590510278386
0.17854635562716278 -0.09284614367680659 0.046821003409322375
0.17886548157440302 -0.09332190613708391 0.0474118012009736
0.17814580978831196 -0.09201835295522395 0.046813448618119965
0.1784962103862563 -0.09253835819673906 0.04736113774002895
0.17773906080154017 -0.09117429012675339 0.04681343386009416
0.1774190575405672 -0.09051158113701076 0.047192954673376815
0.17664803006925492 -0.08927301983759271 0.04686479145222077
0.17700172944396905 -0.08974945294333175 0.0475108020591552
0.1761871281590451 -0.08846870169514966 0.04714610647048712
0.17541334232904626 -0.08724281685088077 0.04680320115420228
0.17575075689735706 -0.08767760899725932 0.04743240644987757
0.17494282072411071 -0.08631906778181578 0.04722378165839833
0.1742028499159764 -0.08505010256521015 0.04686991818244269
0.1745385013233037 -0.0855883008185014 0.047278807309316946
0.17387788515949876 -0.08438360793469904 0.04696885296108477
0.17324521728572495 -0.0831673162353841 0.046565826107358134
0.17356048731171955 -0.08366924903885273 0.047088808832359066
0.17292006992249834 -0.08234866572177875 0.046613376564342925
0.1732040672138244 -0.0828667482974047 0.04715647066069084
0.17261508632616387 -0.08151821004219321 0.0466555611617118
0.17248202030508902 -0.08091713931405511 0.0469861169510974
0.17189881462220147 -0.07924097401747578 0.046433956876364896
0.17222975151560094 -0.08000273581323639 0.0469751595403823
0.17174814457417237 -0.07843974846441464 0.04673742265913011
0.17201161732645134 -0.07883860764755533 0.04735800989630206
0.1715128838851371 -0.07760737582243728 0.046687473926390465
0.1717723439443836 -0.07802148997273993 0.0472712877348588
0.17132237559686628 -0.07653910976851219 0.047094738122387014
0.17111527077125147 -0.0758279763309349 0.04709723674343012
0.1706480625665554 -0.07461166306226358 0.04661078896655935
0.17090855742750444 -0.0750924091129214 0.04714329791266696
0.17041667626481918 -0.07377942609784992 0.04665300279527794
0.1706736094342804 -0.07427610051258053 0.047158969051269574
0.17023555955299502 -0.07301844963377117 0.046757968949809055
0.16982535569211368 -0.07154020229956831 0.046461311392534434
0.17008136913869742 -0.07227379427238988 0.04686553327873005
0.1697586615567044 -0.07075739816518369 0.04683421008385304
0.1699666053916098 -0.07116499758280162 0.047398394725525955
0.1695928022526946 -0.06991735899983552 0.046839444561666076
0.16981307704479953 -0.07034848502682335 0.04739273228347894
0.1691149528537838 -0.06841122416453023 0.046171948069190845
0.1693490301900833 -0.06904623442186483 0.04652299947719888
0.16908195575081036 -0.06768394950658232 0.0465450529182256
0.16929460760953494 -0.06810670332319677 0.04696309604175999
0.1689128234369042 -0.06698058841128092 0.046562504538128144
0.16917393198843103 -0.06724207442132517 0.04716930025956015
0.16840667497490264 -0.06554683633931532 0.046212822470643074
0.16868135408654392 -0.06599400516874532 0.046667009270328866
0.16819977988452509 -0.0647150594207378 0.04636925872569428
0.1684964435415758 -0.06523065762573639 0.046737866612223865
0.16765726435779238 -0.0631243772515934 0.04623214338980076
0.16793274298056834 -0.06381875468880244 0.04642206374963793
0.1671047772144892 -0.061990480325829586 0.04590251166613416
0.16737901649571357 -0.06233653554461948 0.04624114420150464
0.1668818722833559 -0.06173598822762174 0.04558592629598088
0.18151033156014093 -0.1009530420836796 0.04795102890706278
0.18138538005021373 -0.10035345687003959 0.04775147163920081
0.18120849322373078 -0.09956313434733689 0.047560475356592725
0.18145180806327665 -0.10025821259596866 0.04826047739426692
0.18097835574759674 -0.09857945712152692 0.047541378602057996
0.1812529150246958 -0.09935773080554562 0.048289009858312484
0.18074442717503067 -0.09774332242220793 0.04762852625946953
0.180976583381908 -0.09830935310877953 0.04840715926653299
0.18037623627672064 -0.09682598312604983 0.04741138781910043
0.18065083150367728 -0.0973742384718676 0.04813889851825006
0.17997326370494504 -0.09570227309445174 0.047742564601900024
0.17957932332192816 -0.09482789409234173 0.04762203912029915
0.17928881122738552 -0.0940843079914429 0.047913871973407025
0.17900472577446838 -0.09337565352315673 0.048205703278238365
0.17827841226665064 -0.09202212047963641 0.047677989042171465
0.17862344201159755 -0.09263317651142841 0.04812340686559582
0.17786466198257897 -0.09125025270903071 0.04769480006912628
0.17823152751591997 -0.09183388427982075 0.048435528208104414
0.17736451636119063 -0.09031513269783582 0.04824042777615333
0.176546504873333 -0.08894474894037364 0.047925299676666505
0.1769282192923845 -0.08956011577788199 0.04830180538283376
0.17605163024988654 -0.08806853246319131 0.04811523938558006
0.17533236829876495 -0.0868506968088992 0.04786515593205774
0.1756872607891732 -0.08740060883055475 0.04823267093391822
0.17499375669144143 -0.08621883198531116 0.048001051013187745
0.17431497866366746 -0.08505111666853093 0.04766868562057891
0.17466240798324978 -0.08553108242964404 0.04815641985946619
0.17396112404243735 -0.08428170193956463 0.0477419700661331
0.17429096843943517 -0.08476122171862584 0.048253060722387366
0.17364961673751558 -0.08356038285355301 0.04786290109883271
0.17304214140311092 -0.08229727944091911 0.047444057082783375
0.17336844156818004 -0.08277225359354881 0.04798927864106074
0.1727742191454529 -0.0815328168320994 0.04739340743854315
0.17303947395957053 -0.08191486044467816 0.047965133931896185
0.17256102514796431 -0.080542540489822 0.047708646766810844
0.1723725699833704 -0.07946287546515611 0.048008168170910866
0.17217207708785537 -0.07871287764450527 0.04801044777364222
0.1716455618049195 -0.07724661101119396 0.04755009235158538
0.17198853418311782 -0.07796238060730357 0.0480264353971764
0.17150983698345917 -0.07647889954881874 0.04784655033875738
0.17180908732503142 -0.07685905767902423 0.04841188077603989
0.1712542956868635 -0.07564604180886578 0.04784527960020094
0.1715582291003762 -0.07609917269961625 0.048375164786834526
0.17103616872256192 -0.07491458968658292 0.04790226801048101
0.17057192255884307 -0.0736947610130466 0.047482330995792035
0.1708279043726635 -0.07423103015974325 0.04792423129301279
0.17035513515029585 -0.07290244322007523 0.047478995803092075
0.17061222449859537 -0.07330083782424275 0.04820631491311153
0.17019626933585516 -0.07190217966697961 0.04783509919768533
0.17011090599213438 -0.07115847304475226 0.04817701793650896
0.1697586436688555 -0.06971509377621195 0.04766169443609895
0.1699628313220344 -0.07026494822144048 0.04824637078023428
0.16958305750836947 -0.06878526031677641 0.04763962993260819
0.1698176158316794 -0.06935594023612986 0.048235034727592795
0.16940100649345888 -0.06760371911207186 0.04778141529782069
0.16901518140019797 -0.06637242083230385 0.04741748509869139
0.16925069576891008 -0.06685673228801747 0.04779944987388833
0.16884546426922586 -0.06575966906454879 0.04742314307285579
0.16847102635866257 -0.06483310004750675 0.04702645742059104
0.16868215860552732 -0.06517040669418105 0.047420683661691325
0.16794051116776884 -0.06334259429639058 0.04680782005993952
0.16815986494818866 -0.06368431833152015 0.04715155202400505
0.16846962372505875 -0.0642961982540967 0.047582917520332314
0.16731721426097013 -0.061821108140258714 0.04661629213816014
0.1676101424033503 -0.06210008443337334 0.047089351357301926
0.1679977489976615 -0.06280489760592026 0.04742101717306343
0.16717584727290163 -0.06150486581672202 0.04659234584895062
0.16739458649512456 -0.06151815820227151 0.047150306953506214
0.18172035696772285 -0.10174451359004054 0.04861733010734898
0.18166909183589064 -0.10138519165588586 0.04849484966017625
0.1815590946099164 -0.10086163449938974 0.048231246621882315
0.1816895977853625 -0.10111636631570674 0.048878029446706654
0.1815418585265046 -0.10021441216942836 0.049005643066676215
0.18132571018890536 -0.09928036986854669 0.0491045731231737
0.18111613535481488 -0.09849683548821044 0.0492687656338432
0.18036845492268014 -0.0965703361251321 0.04834990133845352
0.1807566945983695 -0.0975089494658126 0.049046962705979115
0.1800873103273022 -0.09577484585727376 0.048579435249542995
0.1803558442805275 -0.09637281300506968 0.04932788547625395
0.17971299708625488 -0.09489817900409113 0.04844927706684129
0.18000414312825117 -0.09546151478660979 0.04913508900256595
0.17931096706176133 -0.09389843315332705 0.048859905895793
0.178915084679168 -0.0930970286000846 0.04876694673943148
0.17858478700143254 -0.0924667603848019 0.04905225742872538
0.17780870249158304 -0.09108443532252461 0.048748757945210226
0.17816440186765484 -0.09172580651298483 0.04937077760391451
0.17746338230522096 -0.09047415038785475 0.04914051984962269
0.17668999202127536 -0.08912333594640812 0.048744007048462976
0.17704378260045206 -0.08973675635152806 0.04914672577010358
0.1763334886300058 -0.08845321386398262 0.04887210224003291
0.1766396741792885 -0.0889457116743627 0.0495352659044957
0.17547779490295348 -0.08691892366786112 0.048645646357884514
0.1758445677695593 -0.08748044992663628 0.049148459113156955
0.1750963207977716 -0.08615921635754678 0.04875604903313427
0.17544554451714156 -0.0866835682862018 0.04925322977559477
0.17477707781401428 -0.08545030417855899 0.04891342134887037
0.17411118435699677 -0.08422082643799743 0.048561756832491206
0.1744615130635186 -0.08468882089660433 0.049091251694566636
0.17379563092496825 -0.08348387938733447 0.04855261963953527
0.17410227584005936 -0.08385696693689508 0.0491158425001954
0.1735715796447769 -0.0825377895654384 0.04901292169739664
0.1728819310789951 -0.08113829777636342 0.04823999692507182
0.17321701614169402 -0.08180531931503043 0.048661088309353874
0.17273078495087404 -0.08018472916063625 0.04854266848132587
0.17308035908594618 -0.08084329930456709 0.0490656990092809
0.17261339172784382 -0.07937932192390885 0.04877073226757637
0.17295217495594775 -0.07976818380799817 0.04939837406691378
0.17236607962542544 -0.07857633479972344 0.04863724258704088
0.17269839816579688 -0.07891827979845918 0.049264320830372875
0.17220098858043875 -0.07747504956937952 0.04895826920251544
0.1720050523517625 -0.07674759264428094 0.04902377627709076
0.17145327125312387 -0.0755190004528679 0.048658388687059066
0.17179541310105803 -0.07598210597667122 0.04916485343248196
0.17118088064627215 -0.07469092029584981 0.048724391919950094
0.17150742278298653 -0.07515800977624963 0.04922338317362547
0.17086738461183237 -0.07365560952652846 0.048875409320015745
0.1704319167003515 -0.07237703027717057 0.04853229010176587
0.17065328647913738 -0.07293999019364378 0.0489256512619277
0.1702604338004055 -0.07158940719668605 0.048555623134019996
0.1701804450064761 -0.07092246389990978 0.04886415243648594
0.17010448412550863 -0.07022790272135129 0.04914932364757718
0.16977529984863834 -0.06876072754849266 0.04854484500346723
0.16996367532242887 -0.0693457031383872 0.04912817555987971
0.16963606228516412 -0.06792723154933762 0.04863425994927604
0.1698256818462719 -0.0684829983921075 0.04912526010077811
0.1691894144509215 -0.06633195858003625 0.04812014464391139
0.16940083149135976 -0.06686994071999221 0.048550678626140625
0.16899899826023082 -0.06559145974287305 0.04819203209372481
0.16924050827087905 -0.06610311627080113 0.0486750414994018
0.16877037553708318 -0.06463665564318695 0.04833892826680343
0.1683960860257478 -0.06321585303338073 0.048301907501395354
0.16861319996019175 -0.06391757393632264 0.04847172588780082
0.16790179415569542 -0.06190077299572622 0.048062774843280344
0.1681679140198561 -0.06238254387472562 0.04833438719491245
0.16739520052595333 -0.061198965460934306 0.0474957372791419
0.16760415330346437 -0.06138617298539006 0.047843800232377165
0.16758704712397593 -0.06094543040186145 0.048307443656856255
0.1818542898847632 -0.10211701021738888 0.04917024856992505
0.18178412735351354 -0.10177784906244323 0.048940793178717766
0.18188514208242632 -0.10183245967874383 0.049492315182111085
0.18180730697901465 -0.10107975749439639 0.04973715058924218
0.18162946625314516 -0.10017142368627129 0.049858227089647815
0.18138964250851553 -0.09922770580118012 0.04994057925575843
0.18109605315782423 -0.09828378979089983 0.04997029587118511
0.18073952645042626 -0.09732989758557341 0.05004561338223432
0.1804646189508831 -0.09655882630283863 0.05024825549190254
0.17972582931922146 -0.09475178866077137 0.04939526059395077
0.18010085039603962 -0.09563736276523517 0.05003999628733556
0.17943377979895508 -0.09408026346450406 0.04971490518780068
0.17972370373530971 -0.0947113788350637 0.05028840923095366
0.17901065581990078 -0.0932630635391386 0.04964705729760289
0.1793500522191804 -0.0939213348605368 0.050471974887948384
0.17853986566664393 -0.09241411977621278 0.05002801447286376
0.17775222021614812 -0.09100409737026166 0.04968736529964876
0.1780928607111389 -0.09164030740753429 0.05035566792029451
0.17735243959381275 -0.09027689768790319 0.04994234252979504
0.17695606978324355 -0.0894994572594475 0.05019973636562304
0.1762612599853187 -0.08815960906768712 0.04982401676179851
0.1765843760171839 -0.08870022715548637 0.0504756768480926
0.1759631298797034 -0.08747299261124146 0.05013573556933474
0.1752434753054535 -0.0861632683449504 0.04959216807198896
0.17558267630974023 -0.08666446478063902 0.050146324573398
0.1749129097278369 -0.08542562005737797 0.04961999798354914
0.1752199283143046 -0.08585122874710056 0.05019713274192215
0.1746416923548495 -0.08450118699929854 0.050182896681938496
0.1739098103530739 -0.08313869367739743 0.04944974601172921
0.1742670278861043 -0.08375385617491456 0.04986408917237099
0.17374018919568385 -0.08241546944687836 0.04973720781257803
0.17405188628810936 -0.08280425044955468 0.050336173684568226
0.17346576455797133 -0.08162463510403122 0.04958969374552174
0.17377491049257449 -0.08200749541653282 0.050237228675903946
0.17331701137925792 -0.08058244147347035 0.04988818833720913
0.1732483367678609 -0.07976029869924472 0.0501584858066139
0.17258474557999176 -0.0781252868050566 0.049445581796048334
0.17302259720541746 -0.07876789370838298 0.050100603001128445
0.1724696133840007 -0.07737742784068313 0.04964014053966482
0.172781729028784 -0.07765874444819111 0.05015306684155567
0.1722281999216473 -0.07666447636975884 0.049613031399520675
0.17256878386758623 -0.07696578919830663 0.05012554737961963
0.17210979979851487 -0.07578555811231259 0.05009863091319194
0.17140385613950865 -0.07458142971268321 0.04958854141423888
0.17172851616832263 -0.07499449886675293 0.05000563827571001
0.17116619494689325 -0.07379936627822689 0.0497929440938772
0.17147602790105668 -0.07423919226795672 0.05020353493811787
0.170587494466133 -0.07240226753644834 0.04932532323480051
0.17082850052522072 -0.07295219185419484 0.04965654425890706
0.170409846658644 -0.07161169669671189 0.049361861178673236
0.17068771979848144 -0.07211671063675945 0.050102120459572116
0.1702752118612253 -0.07070586492009581 0.04967233939324521
0.1701667767773786 -0.06994246295704844 0.04982040470360783
0.1700913140941054 -0.0693083799890262 0.05002591608075559
0.16977904016658066 -0.06794209271613677 0.04944305053682184
0.169944105997306 -0.06854871263787854 0.04991662353900545
0.16962822101950922 -0.06721550091221325 0.04942509619129962
0.16982070110110478 -0.0676531388898359 0.05016417340768662
0.16919408058362448 -0.06560971847771165 0.049057791154623595
0.16941524727541243 -0.06623509621025328 0.049487353852090576
0.16903566072126425 -0.06491029486033548 0.04912256003972624
0.16927579507512597 -0.06531989428480756 0.04984558823643758
0.16863800476765203 -0.06350293836473558 0.048873855029537436
0.16884199228246144 -0.0639575617915023 0.04924603185352111
0.16811996316896496 -0.061795794447931415 0.04878440610486852
0.16837506261718788 -0.06228433316104413 0.049111717509818485
0.16869535102952538 -0.06297810932877479 0.04949233623773677
0.16787579924095977 -0.06110822177333698 0.04888286772256355
0.16823347052311582 -0.06148144039863273 0.049535656692072876
0.16770962614481463 -0.0607105071000827 0.04895363222650687
0.181912032067574 -0.10223721356347484 0.049434590937709195
0.18198652734548787 -0.10158433470886592 0.05038286818097913
0.18190524295174618 -0.10102582582653764 0.05064369726469761
0.18170202628682558 -0.1001190920318441 0.050753210734437795
0.1814192216895452 -0.09912566609508143 0.050811757885558445
0.18108146574700637 -0.09816546611748281 0.05086575203802792
0.18073077092133275 -0.09725187682814347 0.05094495792448963
0.18038648140032376 -0.09636035532004408 0.0509844300168539
0.18001618513425668 -0.09545686009352028 0.051045388913547415
0.1796654633680957 -0.09461324914506407 0.05117747560549427
0.1789243046981372 -0.09314995543004197 0.05073418481373443
0.17929979769303284 -0.09388116504513064 0.05137518346105776
0.17847835245230353 -0.0923519524510925 0.05109440141141597
0.17767326886791224 -0.09086191916248301 0.05065745666985677
0.17801942855416722 -0.09152610566849864 0.05138368409752993
0.17727477078034487 -0.09007511317503614 0.050908408175952505
0.1769040133516923 -0.08921796635242477 0.05125806420099402
0.1762417907934558 -0.08785977102701541 0.05082276283434476
0.17656067342749676 -0.08845171439981139 0.05126862272911333
0.17591162258521736 -0.08714966896295252 0.05076754741520136
0.1757228760766244 -0.08660611116784221 0.05106608411239014
0.1750011176847871 -0.08514871058326759 0.05058821030480585
0.1753897231828381 -0.08584043875317947 0.05103675338023047
0.17478961508131885 -0.08442979534786624 0.050949606668070434
0.17507868489130043 -0.08483573054257351 0.05152817216612556
0.17447719325795424 -0.08357810934552412 0.050938233153924525
0.17478840551406716 -0.08409217449475272 0.051485939882844146
0.17423758334517628 -0.0827774995935153 0.051037338127995234
0.1736600570894359 -0.08124103196798736 0.05044871401500653
0.17402438179793178 -0.082019975112497 0.051018938264065956
0.17354487406779817 -0.08032403357921063 0.05065739643733676
0.17387450380367644 -0.08098902053354198 0.05126191290578156
0.1734334469112056 -0.07941398150438124 0.05079142825027867
0.17376851667984763 -0.08003788091670486 0.05142671669034188
0.1733554097868742 -0.07865244855660032 0.050908688758956884
0.17369212386696126 -0.07902450661449573 0.051591812651782
0.17315266084703868 -0.07791673615848882 0.05080528465836347
0.17347631121149618 -0.07821430819701204 0.051369568003772285
0.17246490861616637 -0.0763143338327072 0.050395972853973
0.17289689459769114 -0.07681886167645796 0.050931770632327455
0.172353412242458 -0.07568485866808207 0.05070731129485968
0.17262488604942303 -0.07596300402772796 0.05102021788326607
0.17209999572257795 -0.0750586256690114 0.05079101260777346
0.17247006873525023 -0.07529134737617992 0.05132092456780486
0.1713803202954362 -0.07366693599342929 0.05061523157023582
0.17174571535829636 -0.07412537940202493 0.05100955333548436
0.17110699934155604 -0.07275987600594727 0.0508532114391399
0.17145923765973275 -0.07337515957846594 0.05117220677793841
0.17050736986989323 -0.0711620188231327 0.05042761262032621
0.1707787320590453 -0.07177967838122568 0.05089695499359952
0.1703262765893231 -0.07037645228292867 0.050359505564512345
0.17024880052904978 -0.06973928440512844 0.050572573231933184
0.17013478035297114 -0.06900597270490291 0.050697033426834986
0.17000954440687213 -0.06819954841116735 0.050858286642847944
0.16966149229574845 -0.06678128984613292 0.05032821532938995
0.16987344889186434 -0.0673408180811639 0.05105878516509408
0.16950619811829734 -0.06586992997873245 0.05056680792172878
0.16912779063935854 -0.06442249310808087 0.05008427292408158
0.16936271315911278 -0.06497133554247729 0.05081690890429291
0.1690094630149395 -0.06341286284179617 0.05036924974903637
0.16858897499454903 -0.061947835723711 0.05024003549034503
0.16884911313379186 -0.06264208082354246 0.05039606693255037
0.16808443136977017 -0.06083226200207499 0.04991029352112223
0.1683267233709114 -0.06117854099616423 0.05026597231839503
0.1678757427187959 -0.06061378383541875 0.04958310308923428
0.18206488967939244 -0.10150485403568711 0.05127375698615236
0.1819811869996065 -0.10095018201262787 0.05153642425647981
0.18174730287086419 -0.10004394459063187 0.05166953879160484
0.18141273849410483 -0.09906520108187247 0.05174446834375855
0.1810351281839227 -0.09809866788187117 0.05179761361873034
0.18067464082980583 -0.0971611312218453 0.051846343504307967
0.18031635524818537 -0.09625582229099472 0.05190106106764767
0.1799513048213776 -0.09535975232114935 0.05197388076172934
0.17960724041804668 -0.09455792216783977 0.05200903898941044
0.17891392585370866 -0.09321384826575528 0.0518698193512373
0.17930869034663316 -0.09397118218255424 0.05209492046936106
0.1783949556123638 -0.09224483337574822 0.05228091994383692
0.17759833886187584 -0.09066250836805459 0.05174121097652926
0.17796011782051324 -0.09138408945516983 0.0522572429180797
0.1772342454795128 -0.08986776975785087 0.05173120424908229
0.1770591898305739 -0.08934278756980313 0.05211325015687155
0.17639481500122506 -0.0879200444740366 0.05163804968903637
0.1767269445950859 -0.08848679381797472 0.05218577030712786
0.1760558316974419 -0.08708585055790023 0.05168992230516185
0.1763981880881222 -0.08764272191873433 0.052253281956146404
0.17569807733123266 -0.08623745060499141 0.05170130886203008
0.17546091510514708 -0.08549918411822191 0.052024844500238934
0.17524100171320386 -0.08476586999832944 0.05236195394987918
0.1746702241871556 -0.08356827288221727 0.051762715006616264
0.1749516665629638 -0.08406986957347018 0.05221530181777847
0.17443356254325262 -0.08274676133042742 0.0518184630354684
0.17473670622041007 -0.0833779773228545 0.05230663554818326
0.17420375539130387 -0.08166371889685353 0.05192775223586113
0.17408196937437678 -0.08073274411962897 0.05208121722898846
0.17402305999215925 -0.07982208612228915 0.05223787928410134
0.1740086122537337 -0.07902412720500175 0.052399385036710495
0.1733725003078575 -0.07744053377759075 0.05152699484272595
0.17379023006063593 -0.07810490860956278 0.052160206780188983
0.1732578111599519 -0.076618540637875 0.05178369841975814
0.1736372854703387 -0.07702907931705671 0.05231782312911305
0.17293417315206555 -0.07570614029630762 0.05185750900430396
0.17343627021365013 -0.07613872411679155 0.05246075275211951
0.17221727574640464 -0.07444848536870059 0.05167165790835816
0.17259788279971894 -0.07487546935488222 0.05197239285892851
0.1719585050901679 -0.07387316429656529 0.05176158336219625
0.17140703054151635 -0.07298126675707213 0.0514919690951952
0.17170284399742647 -0.07330800320856501 0.05183089722664891
0.17068401932014207 -0.07117020332095242 0.05125039143370835
0.17098050299612286 -0.07164355731825636 0.05175927065204759
0.1713985100457265 -0.07245173757037457 0.05205537144906903
0.17048483518930482 -0.07033840981763063 0.05124995385370296
0.17074416650924698 -0.07086490852013633 0.051815367671462026
0.17031067567150548 -0.06948080275517761 0.0512399109833358
0.17022765316590577 -0.06877563375335553 0.0515450958558861
0.1700939025650956 -0.0679210802655551 0.05176213998864084
0.16972624854589566 -0.06647012419052023 0.05130649067519307
0.1699479357857207 -0.06709578871054843 0.051969374276041494
0.1695946615530661 -0.06550269387992207 0.05167316989374185
0.16926223322252082 -0.06400730663622418 0.0511426554871572
0.16944282123361018 -0.06465688427999555 0.05163167355072295
0.1691621146141081 -0.06331708091619097 0.05115737686132701
0.16883438523709227 -0.06225213503263598 0.05078416383471701
0.1690207924579833 -0.06269220875885945 0.05115223848886998
0.16824590120664054 -0.06074487454844544 0.05060624958439955
0.16850375630662193 -0.06112557624246229 0.050976564735487895
0.1688259178438335 -0.061789005859872834 0.05137942481066208
0.16808296453620364 -0.06050361190327936 0.05041488786416114
0.168358112649187 -0.06057568523853433 0.051281490227249524
0.1820885092146481 -0.10136366018256518 0.051929917672243246
0.1819680951941867 -0.10074419347700689 0.05235176286128969
0.18172605326953528 -0.09995480214636487 0.05262308900023507
0.18140196429962976 -0.09901509229141538 0.05270494023436791
0.1810120863767112 -0.09805750307055629 0.05274629694385726
0.18063363216667497 -0.09712246703060497 0.05279487043169266
0.18025422332394478 -0.09619925792560775 0.05286316842733987
0.17985490076921004 -0.09522364978759085 0.052944480054077876
0.17950019366648715 -0.09442050634133078 0.052603464509164165
0.17920410001261988 -0.09384773771715062 0.0527164016255611
0.1795224353757512 -0.09454962919435854 0.053350647060107115
0.1788459381858736 -0.09313239394861053 0.052905079058366396
0.17853834785948286 -0.09251457961424843 0.05325786695330978
0.17774850503166706 -0.09086512127589434 0.052650023850531254
0.17812616997385936 -0.0915850526101016 0.053298734642679424
0.17739888173644683 -0.0899751724833824 0.052695205450067284
0.17774318122719152 -0.0906637186200154 0.05331806393921815
0.17706393674345114 -0.08910118222063788 0.05274600531333925
0.1769139355127055 -0.08851561191480094 0.053094834492320775
0.17622959957556092 -0.08704321548226676 0.05260948173651953
0.17659273019815908 -0.08761237420034278 0.05316839406586329
0.17588089439103205 -0.08611913954995884 0.05269045123136432
0.17625686064255092 -0.08670372168218811 0.0532575426729508
0.1755129657463329 -0.085155616894547 0.052813148769014814
0.17526043831105576 -0.08424255659975013 0.05318613529384867
0.1749312089960136 -0.08360994258383025 0.052798333464483246
0.17473695981175755 -0.08290542423273885 0.05286723745002325
0.1750113101536111 -0.08343408768488583 0.0533330541326356
0.17448178150367216 -0.08215769340066952 0.05258622146680172
0.17437676189702597 -0.08139474327058817 0.05274245821822946
0.17430686319235641 -0.0805482736535629 0.052885211867263505
0.17431563509401027 -0.07964186477817685 0.05310476728326968
0.17421017307522116 -0.07859690815419049 0.05301520347050654
0.1741091098735291 -0.07748911971301338 0.05312496117838733
0.1738426377024133 -0.07643873323373115 0.05307931325309613
0.1733027179833335 -0.07533337062435876 0.052836313784563146
0.17362458705856043 -0.07575152387447368 0.05309116584183011
0.17249229432475097 -0.07429833266738266 0.05235020807161283
0.1728780600751953 -0.07463541204163479 0.05272009469548242
0.17218637051276853 -0.07359474770497725 0.05251586268850931
0.17258904445785636 -0.07393981657082903 0.05289638937636388
0.17181712060009152 -0.07270898856083005 0.052740710284012594
0.17128881354856174 -0.0716044021467321 0.052696414377511845
0.17157097777378533 -0.0720900442369897 0.05288899039698996
0.17067674290210458 -0.07032133794575368 0.05210854657283973
0.1709630910345434 -0.07079540878944078 0.05259472754373573
0.170493176545002 -0.06954572945352656 0.052083385996595996
0.17076290910960476 -0.07002149145376788 0.052690875298569424
0.17037114073655205 -0.06850889089173959 0.05259153798526676
0.17016701169098122 -0.06763015981310594 0.0525571512024839
0.16982314567666895 -0.06627395501004993 0.05227530491998057
0.17006356309755968 -0.06692148698524764 0.05288442427890243
0.16974296890953558 -0.06557197860904743 0.05258629822676296
0.16942148391188877 -0.06408272117467842 0.051982293924364646
0.16959240855739005 -0.06471648708291476 0.05257436165546797
0.16928703299355694 -0.06322632112888704 0.05201236769377593
0.1694746772123669 -0.06384673794368612 0.05259702688681634
0.16908625384521755 -0.062308615627488566 0.05202655124062878
0.16864923428256112 -0.06083402074309124 0.05203773734630256
0.168973323071821 -0.06155245209709389 0.05249233750190507
0.16846218766127793 -0.060225960962696994 0.05221607318098259
0.18192134681383457 -0.10046748126571499 0.053352092908463405
0.18173177429954715 -0.09989210252387097 0.053599679820931695
0.1814089367679171 -0.09899572182375253 0.05366296069663213
0.18101120417819583 -0.0980548029819618 0.05370517024035002
0.18063001567110376 -0.09712588441950942 0.05377307799281053
0.1802457705940419 -0.09621426081292862 0.05387669194954914
0.1798967735023313 -0.0953775475765645 0.05406130622655609
0.17918415943813243 -0.09385557004860821 0.053585582074939346
0.17955293970700253 -0.0946212519798412 0.05429577406439457
0.17886324524950073 -0.093155078948284 0.05382273470972592
0.17853808911895053 -0.09242989967950134 0.05404560039576017
0.17828943890568974 -0.09176094934401917 0.05432872303384062
0.17758210607693095 -0.0900752882071519 0.05366188837504364
0.1779505098854515 -0.0907750628987663 0.05432888874646429
0.17726289394312242 -0.08913321653656503 0.05368259385613192
0.17762044160055818 -0.08979644770369088 0.054319228467949
0.17695083530500863 -0.08821155730202761 0.053724999528249426
0.17681817500236255 -0.08758822429602162 0.05407545512866706
0.17611134759292388 -0.08606625449390776 0.05364293859484623
0.17650861392558487 -0.08665308170176202 0.05418059299228868
0.17576952963103493 -0.0851121196367751 0.05376540370143161
0.17618311995042277 -0.08571876746120564 0.05430139603647627
0.17550113952472174 -0.08426184512755001 0.05397176115527738
0.17493269427320313 -0.08291374932901434 0.05360300381469538
0.17526800117233468 -0.08347048840876735 0.05410683041497022
0.17471381190296056 -0.08209579830847337 0.053488022402399416
0.1750179867695258 -0.08264747585061184 0.05409797853341243
0.17453767145646756 -0.08119534689355415 0.05340648259505483
0.17457409856039877 -0.08053653630396479 0.053713102341355054
0.17458548700058782 -0.0798679761576165 0.05382066090997558
0.17452815455222356 -0.07915347111309685 0.05372507725386719
0.17478604150723723 -0.07972424796052834 0.054343190174405025
0.1744837560011035 -0.07824139191854375 0.053757864014410454
0.17478876687169967 -0.07888604513231244 0.054415259827612264
0.17446454827824068 -0.07746765909399016 0.053905941294831776
0.1747821632279076 -0.07791383229958646 0.05455429360206509
0.17428806290239793 -0.07663416480547498 0.05389567552363091
0.17461762013931859 -0.07712252377043273 0.05438716291060392
0.17358577683181323 -0.07523790133114946 0.053435723504122734
0.17393537955835184 -0.07564834208031883 0.053805615818495245
0.1733436641979866 -0.0745622463605428 0.053617275624420736
0.17371954201244388 -0.07492384845889415 0.053970703561022695
0.17250413079795782 -0.0734228524032119 0.05328596699693474
0.17289128330329342 -0.07375553073604114 0.05361962439704055
0.17224828271147213 -0.07273363616591375 0.05353820960822831
0.17262028125549553 -0.07308777698725363 0.05384250848295475
0.17154328583700695 -0.07160796876186985 0.05332739697993273
0.17185092540570865 -0.07203114699505747 0.05351934992156182
0.17133181828007357 -0.07097360328057206 0.05343352101531961
0.17172111933839612 -0.07128455740916774 0.05399075154608827
0.17068573749517832 -0.0693386166996144 0.05306345711238747
0.17104364154836985 -0.07006097657834384 0.05351156986364549
0.17060902973496594 -0.06862913738630319 0.05349867257065781
0.17089637922953685 -0.06917446071914743 0.05393116214013139
0.17039355588110539 -0.06767354198961403 0.05358348890897403
0.1707609830227199 -0.06837373685939238 0.054263588372880645
0.16994889771575752 -0.06606264153976425 0.05324506840103554
0.17018162412988927 -0.0667438190790475 0.053673888639781835
0.16978698117881127 -0.06531439458887446 0.05318831029118305
0.16973609762707478 -0.06478606780234328 0.053508892688352586
0.16943097288375145 -0.06328079609520199 0.05299574841490788
0.16960352858553598 -0.06397169485237929 0.05345703788174423
0.16926260951396813 -0.06232586031432328 0.053121514132290826
0.16950736269494662 -0.06306841089624068 0.05381395911831946
0.16884613165191797 -0.06077148682192674 0.05307722652098662
0.16908222015565477 -0.061386410103494396 0.05333277822565649
0.1683775879312986 -0.05969489644721387 0.05281498550622644
0.16857451658445574 -0.06012069761142227 0.052874290896239344
0.16826571372867852 -0.05929280035850048 0.0531802041616598
0.1684238258445338 -0.0595003892891091 0.05337300202140031
0.18193291001062445 -0.10038135095761258 0.054350962782137704
0.1817491706218622 -0.09983871926278823 0.054547815759448545
0.18143937688546957 -0.0989865883065206 0.05458723558876276
0.18105592354881606 -0.09808627945668193 0.054674826064191315
0.18068784749662165 -0.09716902768718878 0.05477618959399957
0.1803214549511972 -0.09628331646360125 0.05490812347395117
0.1799675110382138 -0.09543498718216162 0.05507954508752766
0.17921544768920036 -0.09386830015435085 0.05451033685536028
0.17961564635510288 -0.09462167493688901 0.05526972747504201
0.17889502244285416 -0.0931159988788056 0.05471110516348473
0.17859937703979434 -0.09236824321240437 0.05490983180463649
0.17833483037722023 -0.09157753128022256 0.05509120380284768
0.17816205630306814 -0.09084375231773793 0.05534740980341562
0.177489469011134 -0.08915480370471102 0.05463771964395296
0.17786993180062138 -0.08981801115714975 0.055312482133804734
0.1771902376926238 -0.08820038415794947 0.05463305848711476
0.17756187629117592 -0.0888187426313424 0.05526675856010657
0.17688948674185143 -0.08726750871459055 0.054691991406078666
0.17679990136145493 -0.08661487544167172 0.05509889353993448
0.1760696431310268 -0.08509239646657213 0.05467675967145293
0.17649841451100234 -0.08565337503750878 0.0552063519008033
0.1757609827296344 -0.08419486911329463 0.05475341377828581
0.17618525567690776 -0.08475774557518172 0.05529229973900258
0.17551724586689185 -0.08339493863881581 0.05485427376279428
0.17496160586107765 -0.08211930043807611 0.05428644321698049
0.17530423864749867 -0.08260308301780031 0.05485632069285891
0.17478948745165546 -0.08140507247664035 0.05412075300663538
0.17506837750693843 -0.08179906784000536 0.05470879887035317
0.17481105162715188 -0.08080603148640429 0.05434526151050402
0.1747462417013129 -0.08029565243597657 0.054223951556140244
0.1750152115631345 -0.08053115879317824 0.054844241698403566
0.17506824139066088 -0.07961176173121289 0.05505593274302221
0.1750814847388641 -0.07869397932048375 0.05517103918265631
0.17509074544685171 -0.07793517920649094 0.05531427657642342
0.17460114321974474 -0.07655458585904383 0.054630600248930496
0.17491358870619603 -0.07710655315029111 0.05514262433904
0.17438697059945904 -0.07582063105986882 0.054623103328802346
0.1747869007620245 -0.07615613703848656 0.055306479644811495
0.17366931371771754 -0.07439443808179184 0.05433712906107026
0.17408931635657904 -0.07480396506502096 0.0547701176944482
0.17340285549538617 -0.07367460109260077 0.054524099648126066
0.17381767064370196 -0.07403751866914071 0.05489183393514142
0.17256028883765695 -0.07254044838081743 0.054283536994637546
0.17294124768804361 -0.07297108266426916 0.05446836810425358
0.172244120476644 -0.07172518317428689 0.054507800472667955
0.17281951881367708 -0.07215674081154226 0.055017042398217454
0.17150950344141253 -0.07040201132645378 0.05435465276675108
0.17189847004078732 -0.07091124226747755 0.05468403146304202
0.1712182506705868 -0.06963519338878608 0.054377227969294874
0.1711146373523581 -0.06891578567134206 0.05477996417178293
0.17065309141440219 -0.06766328034454161 0.054590786772615606
0.1709586057415354 -0.06809355144163064 0.05512349662844888
0.17014390802035526 -0.06618699860675946 0.054078414713578035
0.17041850447148205 -0.06682788271458501 0.0545595017606713
0.1699624140876114 -0.06538534618199877 0.05404192656334772
0.17025981168922397 -0.06586516397725685 0.05486238042987656
0.16983631082011094 -0.06447020905637131 0.0542731286270366
0.1697388843925174 -0.06363010986192681 0.054438896152645
0.16943145551123243 -0.06234486529545007 0.05415447359991228
0.16965113026748152 -0.06281878369415814 0.05471106628354202
0.1690194786462582 -0.06083407182504723 0.053811675289
0.16927035122638479 -0.06149771760310494 0.054153605089879424
0.16877854052009583 -0.060017917810696854 0.05390233633813916
0.16912264200556304 -0.0605979291221936 0.05454327161985432
0.1683334334384335 -0.059139211235908797 0.05369286131471273
0.16851362001468162 -0.05933353321562238 0.053995702818940415
0.18196959877296698 -0.10031240853104435 0.05537694864195325
0.18175702694912682 -0.0997307345171535 0.055282179025597414
0.18150692025228285 -0.0990265584193147 0.05548434706408238
0.18115338819276144 -0.09811983227201161 0.05565266162381118
0.18080443336425575 -0.09720936742382581 0.05578878152777192
0.18042790066596273 -0.0963092195605058 0.05593214411144897
0.18007986885409977 -0.09541775502688082 0.056106220061332306
0.17927274789933384 -0.09379751881487769 0.0554505032146054
0.17972235716448232 -0.09453236469919465 0.056248464790299296
0.1789591987358464 -0.09299470360227592 0.05558419380161258
0.17867800453427748 -0.09222363459800596 0.05573049287380317
0.17846033999029304 -0.09143062639398734 0.055929332544405734
0.17826520319283132 -0.09058190946411679 0.05609143067867691
0.17813584587487197 -0.08979315138455382 0.05631611116838841
0.1774558367320808 -0.08816337213519158 0.05554303733993294
0.1778567862365801 -0.0887629261503132 0.05622320754171876
0.1771796404518261 -0.08730361790465749 0.05548653913516431
0.17754807164143566 -0.087767229124953 0.05612276215760553
0.17699679545380037 -0.08622568788299048 0.05592736762348099
0.17676135647017385 -0.08549467047715434 0.055978385110968705
0.17609280218471288 -0.08414056719989327 0.05561164106236486
0.17654740291912413 -0.08468969355503184 0.05614268698965956
0.1758012057856921 -0.0832656961086742 0.05558864617749423
0.17624541830732188 -0.08378148818662903 0.05620501523813273
0.1755647516112415 -0.08245654420568348 0.05554755391120618
0.17499700041631305 -0.08123340687822293 0.05471278367785524
0.17535980043065857 -0.08158322070591476 0.05540474532412067
0.17538628700809086 -0.0804194844266293 0.05571411688014006
0.1753927422063573 -0.07938750381820717 0.05587874457654236
0.17535680374817741 -0.07843785696985625 0.05592267862247215
0.1752756214566421 -0.07756411181205128 0.05593118834663872
0.17519559191406572 -0.07658316767279169 0.05609959979486755
0.17463233636007353 -0.07520863832284652 0.05553437801571865
0.17499605363944043 -0.07574365068857848 0.05599575477501447
0.174416723702383 -0.07455401511232086 0.05554999440827558
0.1737636824625501 -0.07343726402348319 0.05530492390206179
0.17419434265523218 -0.07391497990355528 0.055625179090647486
0.17343693071974278 -0.07259463469607684 0.055503560208997826
0.17404107347472617 -0.07299002363233807 0.056049491620748376
0.17269073473640648 -0.07132778607596088 0.055556994159684236
0.17310026893897684 -0.0717734545687623 0.055739250166572524
0.17184874963141822 -0.07031930035468333 0.05511952353872268
0.17223374604233263 -0.07076882249324631 0.05537502362068338
0.17156866610914714 -0.06954128263274591 0.055232865524338585
0.1721030373296603 -0.06990694829573671 0.055867882886317194
0.17136817992155584 -0.06854522656976927 0.05568081211960539
0.17078561936111222 -0.06724966748717821 0.05538811859942369
0.17116033603145384 -0.06768278022909627 0.0559703129523111
0.1706192934116128 -0.06628230171586777 0.05568596549570026
0.17012958423012728 -0.06490899751624864 0.055127133823339496
0.17040098027251502 -0.06550659006836211 0.05563596574816899
0.1699654354772602 -0.06407589463154864 0.055043919716213245
0.16993531333927764 -0.06332383585094029 0.05532835139673531
0.1695616172868248 -0.06197502684878537 0.054922598250691804
0.16985870932808908 -0.06247468649202047 0.05553488103662709
0.1694121326797138 -0.061115733131353496 0.055096349272191834
0.16899590991517807 -0.05997961549451058 0.0547959181477626
0.16923239662098394 -0.060351716274113176 0.0552691513089793
0.16847430521377654 -0.059140794038276025 0.054186277918263824
0.1687520307561065 -0.059519473667937056 0.05455098795740836
0.1820472871552835 -0.10041659343585099 0.05590491614425436
0.18186801631812663 -0.0998899133732309 0.0558924066753138
0.18152877896232997 -0.09888592704371228 0.056330500733623515
0.18124794666608882 -0.09808467965773143 0.056643665326874496
0.1809366742207557 -0.09721518644590911 0.05680403116678349
0.180591092751624 -0.0963060279755391 0.056970869780115396
0.18023572120306142 -0.09530531556312956 0.057227095725178014
0.17937208827949916 -0.09361405106146846 0.056444282567258336
0.17981007205404548 -0.09437607600800574 0.057058621167503515
0.179012392773459 -0.09278327575917415 0.056300777944334135
0.17883511635815383 -0.09208065310199129 0.05657133980024265
0.17861782153742617 -0.09120500692486722 0.056742161697274175
0.1784476943893107 -0.0903459654667869 0.05688902062235018
0.1783027887944336 -0.08944165135924466 0.05705953759137908
0.17817785202844358 -0.08860742252220641 0.057202921870155896
0.17743773838757523 -0.08695199967265753 0.056409861107348316
0.17787773202382046 -0.08771565416734185 0.0569693035448157
0.1773180911476142 -0.08618749302011194 0.056682793065796516
0.17772375940421342 -0.08659427105231522 0.05728735209598253
0.17704015467204076 -0.08543502051800958 0.056619621566310695
0.17743104425592254 -0.08580168404946624 0.05718684654112199
0.17695549738572414 -0.08462968764181995 0.0570046145039913
0.17617022042511804 -0.08315436225395853 0.056447826215697654
0.1766970044217516 -0.08363999679324281 0.05714969181600987
0.17586391053520542 -0.08233566159219344 0.05623377896942787
0.17630439283208202 -0.08271515243034692 0.056947768636539824
0.17576796221370097 -0.08121909261421074 0.056416746434605015
0.17574258073658838 -0.0801382237752337 0.05661192277943399
0.1757320362248327 -0.07899358209114844 0.05680835377996607
0.17555667092668872 -0.0780611124812596 0.0565603132254372
0.17553200783743725 -0.07730160478502134 0.05671487820356338
0.1755119513022143 -0.07658217461547161 0.05690952960916941
0.17499330334641064 -0.0751488825470911 0.056297851321857745
0.17535946390192506 -0.07570337631051208 0.056869233912301
0.17479041404121784 -0.0743318174677342 0.05635129959233123
0.17518568406322374 -0.07484842345204111 0.05685962177791936
0.17456891467780739 -0.07329521228506448 0.05659019498087742
0.17397274621196973 -0.07217172185556914 0.056561695989855394
0.17437999222817188 -0.07258322170062129 0.0567784244075527
0.17308501293174286 -0.07117147803625921 0.056214413529704334
0.17351276249889266 -0.07162370647278515 0.05640020886482641
0.17274849411434964 -0.0703431329366167 0.056431225619747526
0.17343357983515034 -0.07079252521861992 0.05693075496739615
0.17192357792216553 -0.06893055983649617 0.05635339173043849
0.17239358896539078 -0.06946796017946154 0.05663372515396642
0.17159210003361222 -0.06798152469760872 0.05657108425224709
0.17102226982742455 -0.06679608723260537 0.056336627503102345
0.1713517478792258 -0.06730202199847023 0.056662499114489444
0.17086188086034013 -0.06614955002519311 0.05642950608687152
0.17038583089939652 -0.06492633379790186 0.05597224721685188
0.17072754224070036 -0.06544084196940285 0.056500631251776984
0.17027083879873656 -0.06402170013366472 0.05600885782582169
0.17056569226572338 -0.06461975769366139 0.056542054542104925
0.17017475637588644 -0.06295756394106895 0.05614734557880081
0.1697550276374353 -0.061697307192927944 0.05570545597076841
0.17005353013255808 -0.062269142021168546 0.05617194958989149
0.1694524282857445 -0.06076777251467818 0.05558294987340278
0.1690672146451357 -0.05987364632599535 0.055241006002226
0.16927354838165767 -0.060216730622215865 0.05558423659154272
0.18151459070958026 -0.09856150646326504 0.05730619296521836
0.1813494607560335 -0.09801792584966988 0.057600394808256586
0.18107146097909077 -0.0971981800436917 0.05779203870519117
0.1807729880264165 -0.09632611569628165 0.05797665785600214
0.18054412106201562 -0.09559627659300456 0.05822429781342183
0.17963297237498665 -0.09380971590353508 0.05733208209068096
0.18010145721980592 -0.0945607617305193 0.05808883727652524
0.17928043314809808 -0.09291773079111244 0.05718203827386941
0.17966237556045242 -0.09353173184144843 0.0579289291105321
0.17902439499843403 -0.09181518482964553 0.05753553073496104
0.17875322083942471 -0.09089541698802141 0.05741620070562403
0.1786763926030648 -0.09011437425125228 0.05768550420639201
0.1785923810592351 -0.08903116679691085 0.058034438810776946
0.17827594657583432 -0.0881045552544715 0.057723488148973046
0.17814489135252806 -0.08729464927479794 0.05783258371027087
