# .PCD v.7 - Point Cloud Data file format
VERSION .7
FIELDS x y z
SIZE 4 4 4
TYPE f f f
COUNT 1 1 1
WIDTH 787
HEIGHT 1
VIEWPOINT 0 0 0 1 0 0 0
POINTS 787
DATA ascii
0.17743949810339277 -0.09337446873158882 0.04183696161215677
0.17620818237230246 -0.09148971649430954 0.04087781431169902
0.17651764361254998 -0.09191252631967899 0.0413589135825091
0.1770183453919047 -0.09263626320951734 0.04179474433409435
0.17596883630943122 -0.0906519467041423 0.04104296505139717
0.17627314165364127 -0.09117817457224177 0.04159909355473774
0.17574188857329923 -0.08974505329473675 0.041140114891230345
0.17599633877376222 -0.0901307046650416 0.041889975710418616
0.17558696952936112 -0.08883352032268464 0.04114760281348404
0.1757518991192629 -0.08927825385765016 0.04174394842057019
0.17546888302686925 -0.08784109219216915 0.04125182252800869
0.17561471831760553 -0.08843560063534138 0.04196274857696872
0.17536887328453074 -0.0870125525286994 0.04142464571705893
0.17543741200935314 -0.08740805456076167 0.04216705583594783
0.1752022075293237 -0.08617604503271994 0.0412153560612845
0.1752866243508196 -0.08661595993837197 0.04194563815434142
0.17491839023133676 -0.08505600481795007 0.04153550353983065
0.17465029227449802 -0.08412621266476225 0.04144631678548107
0.17432466475918323 -0.08339244244207233 0.04184511425332403
0.17373898004920085 -0.08196620901460432 0.041434845380368276
0.17388519237945765 -0.08255505535907426 0.04216547361123652
0.1733509220962793 -0.08127811822898598 0.041803647425935626
0.1727661215628675 -0.07996533972017254 0.04125912267584993
0.17298223190744175 -0.08055606207214884 0.041745676944071594
0.1723905402134351 -0.07920571183330559 0.04130516678910792
0.17248330252494568 -0.07974067382211363 0.0421237470953717
0.1719382945396569 -0.07845589339773983 0.04175781598882281
0.17135619549903583 -0.0768417898714794 0.041198859827002235
0.17153670238316235 -0.07753456201142117 0.0418470611571938
0.17096284648763624 -0.07588898618700848 0.0413024562161716
0.17115250950617084 -0.0766101241866708 0.041936328459248016
0.17060960086151802 -0.07508876793662035 0.04154838264807791
0.17008486657333674 -0.07376263763145029 0.04131279663053343
0.1703070335537127 -0.074360202211493 0.041783384679839164
0.16976942128708888 -0.07297972357102944 0.041409594560134336
0.16997699722042506 -0.07359786330433413 0.041948595894559855
0.1693521462172267 -0.07202953444549356 0.04164567641308391
0.16886814953797114 -0.07085196118043034 0.04136178154076517
0.16908168203962143 -0.0713854238621344 0.04173215559960738
0.16865391516196288 -0.07025335453362207 0.0414405795757218
0.16821774130539513 -0.0690410075299986 0.04111606322185963
0.1684439664727869 -0.06955225314638071 0.04160525473284222
0.16800635653603171 -0.06823000616330568 0.04133743064307935
0.16820229150653407 -0.06875126143015828 0.04178680646315235
0.16746232912618278 -0.06679068172504772 0.04093706532157602
0.16768392003439025 -0.06721560203457355 0.041343034732318235
0.1672453451106546 -0.06608994366441942 0.0410703304060125
0.16745180265569815 -0.06647285012931382 0.041522331181742686
0.16673095836555615 -0.065074699784754 0.040576398446464386
0.16693618760031062 -0.06539773452210183 0.04082101979549016
0.16647157137634347 -0.06407393753925365 0.04131292227852911
0.16669614446042838 -0.0645908772308898 0.041308469403775874
0.1796404887150106 -0.09684241829660102 0.042977084607278934
0.17881394464626962 -0.09559455538559664 0.04209907514123019
0.17923084843599188 -0.09610423474041195 0.04266697089268052
0.178415507954505 -0.09478926109779384 0.04226756444484583
0.17882134656222218 -0.09514396312516898 0.04291421492190049
0.178068626051905 -0.0940878179153158 0.04244965886270122
0.178341411606249 -0.09423810878975686 0.042973146951401406
0.1776987545435599 -0.09345652666132999 0.04244269441965135
0.177958118609205 -0.09361324155665784 0.042964265427349796
0.17667365109824026 -0.09174547869423315 0.04212230782406413
0.17720186301306534 -0.09247209661308553 0.04255851603444863
0.17636634843439758 -0.09076379100946418 0.042428766881535476
0.17680058705921636 -0.09121958766865984 0.043080403547635024
0.17614759345030934 -0.08996264559499684 0.042650608312729196
0.17641002758274868 -0.09019630312705061 0.043207088170911095
0.17587758001224682 -0.08915733006060758 0.042546974868413044
0.17613396544295187 -0.0894794732267126 0.04317410160201216
0.17561608267038814 -0.08801343713523846 0.04293536283295259
0.1754269773370484 -0.08729179963123711 0.042898414988436676
0.17510102282925116 -0.08587638583707155 0.04218291226032313
0.17525762655811886 -0.08660575685824093 0.04279188246067939
0.17487290043240256 -0.08513848787458238 0.0425227274869904
0.1749964110635937 -0.0856884779347794 0.04308153044012492
0.17454152683276178 -0.08424479403284883 0.04246492041548079
0.17465552258382752 -0.08485768310702389 0.04333495501333319
0.1739827682173399 -0.0831838813987994 0.04304104780592346
0.17337385243569417 -0.08170966222792984 0.042569625861239545
0.17356545966291195 -0.08235281064935052 0.043070280752605564
0.17303301968302737 -0.08095748035511466 0.042522762312454686
0.17259534369648225 -0.08023479581984583 0.04294582870987462
0.17205616241148844 -0.07892275293368922 0.04246617208178076
0.17224835723124143 -0.07950135489931356 0.04296131076413261
0.17171980845629906 -0.0781764391992651 0.0424635409336136
0.1714823965162577 -0.0776138097476276 0.04286793317131096
0.17090523651983294 -0.07602794987506915 0.04232534900716701
0.17113025291078718 -0.0766413183135405 0.04296174415946142
0.1705975695532112 -0.07515635691674559 0.04239995703196923
0.17080079120060593 -0.07573768010532196 0.042965221801142144
0.170319134469378 -0.0744157623486821 0.04258852459184506
0.16980433006507775 -0.07311037964754284 0.04234167008290832
0.17005791890448343 -0.07364083210000093 0.04283194802467885
0.16954117070365882 -0.07236422248809658 0.04250817264235396
0.16976923540095176 -0.07284910064870165 0.04293879746216326
0.1689418576073698 -0.07091921231091594 0.04211335898605786
0.16918034804142262 -0.07140025175424788 0.04254264098259902
0.16871169714115294 -0.07017528721767156 0.04221708088767502
0.16894101435376072 -0.07066443531454991 0.042730784402588325
0.1685252963810555 -0.06946453635859538 0.04237958322650958
0.16810467859937803 -0.06816954392457825 0.042190182682749995
0.16835621286433405 -0.06866724417572884 0.042642813323385875
0.16789570488366842 -0.06735754810523373 0.04233923457387939
0.1681416156506779 -0.06779267702416648 0.04282036199529588
0.16733575023332345 -0.06590871585929663 0.0419167495790611
0.16758782648990903 -0.06635476832517719 0.04231932626340441
0.16709645381044397 -0.06504883699318015 0.04214068683357944
0.1673753423441213 -0.06559401869677187 0.0425378759670187
0.16653503738879163 -0.06372131028657234 0.042068009677819325
0.16678593096118088 -0.06414038322423458 0.042287012994441174
0.1664109684408021 -0.06344388444896479 0.042031555231861306
0.17994822379477093 -0.09731343674448109 0.043460559260057756
0.18030138739273674 -0.09797226103585324 0.044081391638495886
0.17965651986392633 -0.09665098388000347 0.04332213971221634
0.18005531973260241 -0.09715313901300991 0.04413378429288056
0.17928347467109476 -0.09577262998852237 0.04339778049015217
0.17962933773012146 -0.09622909221365407 0.04390616458491797
0.1789904890036124 -0.09502540426648255 0.04363672429236746
0.17927442978253127 -0.09531497960158201 0.04421918707670567
0.17862176837484894 -0.09435792832638565 0.04361856089940378
0.1788704002509011 -0.0945660609485918 0.04412517231004803
0.17763790226383325 -0.09284119551146272 0.043253328964862614
0.17812709962366843 -0.09341737351059747 0.04373268056247104
0.1772755762892481 -0.09184884935701013 0.04355094899542313
0.17772969939272534 -0.09224362199221803 0.04422049252064102
0.17702764999479914 -0.09105275962793326 0.043841733185584965
0.17732750489666635 -0.0912607869151211 0.044351289795810614
0.17672936387119603 -0.09037332957911344 0.04386053726620237
0.17702931254178747 -0.09059537481704388 0.044360416904314304
0.1759247443894324 -0.08870217780344694 0.043447683729312944
0.17631731863926906 -0.08932509955271059 0.044051344845660596
0.17570292038259808 -0.08793760793168648 0.04372302521435167
0.17590428310686881 -0.08826289599141539 0.044249449328971124
0.17540195585189167 -0.0871154960127498 0.04369210004596842
0.17562532896575156 -0.08758330902293134 0.04424702282848786
0.17510785392327557 -0.08621598483163448 0.04365193378883018
0.17480159989889898 -0.08545174960917197 0.04401586921852314
0.1742107109600759 -0.08400136278024156 0.04366370885698411
0.1743862359751127 -0.0846061770599981 0.044329072107655285
0.17381779903819647 -0.0832988691986434 0.0440724440785515
0.1732193615005646 -0.08183700005471502 0.043512876070618725
0.1734303759621473 -0.08245252293477831 0.04410968186577391
0.17286137415361552 -0.08100667052163332 0.04357784124170097
0.1730422584093369 -0.08162027009718471 0.04419127978173007
0.1725163692742914 -0.0802746697926287 0.04374003698738585
0.17201216117583434 -0.07900917049155334 0.04330011399808663
0.17221727207138393 -0.07955041100197098 0.04385394354693644
0.17172650924571214 -0.07827667806950474 0.043281612957968826
0.17188494538329357 -0.07873795673529833 0.04388852734565909
0.17140401856546467 -0.07737053707461986 0.043693931347404104
0.1711466856454316 -0.07646572780108347 0.04416578508478349
0.1706238599311425 -0.07516563270040623 0.043276703407446514
0.17082938213219115 -0.0756087373160681 0.043833422307561314
0.1703784226764366 -0.07442164121070832 0.04331470695984566
0.17057636952322247 -0.07482395840107746 0.04386634451946097
0.17016518522738389 -0.07350825443522085 0.04393079471639358
0.16962403860162031 -0.07233484475435864 0.04326376588023374
0.16984572219543267 -0.07270804182523491 0.04371064996566695
0.16940737800718284 -0.07168117763921647 0.04333216399089977
0.1696001012616218 -0.07199167503050607 0.04378640499135531
0.16882594787748093 -0.07012950941066448 0.04307849560401075
0.1691307073531168 -0.0705898888683143 0.04369449580395381
0.1686282261075797 -0.06939779995814524 0.04306143195017127
0.1688444348458536 -0.06971612385573193 0.04365592297307804
0.16852450532779 -0.06855914043612053 0.043520551767965904
0.1680436319830828 -0.06718958752499783 0.0431563521180164
0.16834565279702157 -0.06756299577192149 0.0437515118360328
0.16784095107584104 -0.06651013587407377 0.043146546308093406
0.16807307140052133 -0.0667228612780262 0.0436994601056683
0.1673256157624394 -0.06520257186261748 0.04286497152440532
0.16761344969780662 -0.06546253310499364 0.04344035028583874
0.16669083767776094 -0.06353444011125196 0.04278647565368609
0.16700279342655264 -0.06389733032050168 0.043253818494578364
0.16728910614949358 -0.06469008316686987 0.04331250245554266
0.16655804776178196 -0.06290986554507239 0.04309234917062309
0.16677166784116518 -0.06317299929363245 0.043370661220071285
0.18064397836755605 -0.09866548046667509 0.04473748545909487
0.1804798306863265 -0.09805632426639 0.04460985463571736
0.18036143296532384 -0.09747937931601264 0.04478637065978843
0.18013844467429072 -0.0969000560894391 0.04484001703839458
0.1803938417884535 -0.09725136892265321 0.0454398290788542
0.1797697774660483 -0.0961280226563531 0.04470027261108136
0.18006308535037727 -0.0964807055222218 0.045296663739619755
0.17936383355732807 -0.09509896302080188 0.04512827894342851
0.17854172434262966 -0.09381479929972204 0.044371635310350606
0.17893721908583757 -0.09437806336316085 0.044795466780833404
0.17818738814690893 -0.0928805547463405 0.044680404289237384
0.17858576967454898 -0.09341012870820639 0.045217383834903195
0.17795045508157378 -0.09210764514255473 0.04497728103193503
0.17824309637600338 -0.09239029510560193 0.04555269620097022
0.1776499390432242 -0.09144570497281676 0.044976534682241734
0.17792482002916576 -0.09169487687455577 0.04546562868136858
0.17677319959537227 -0.08990029028221493 0.04460722615915347
0.17722483938242725 -0.09046936671209388 0.045168502019558854
0.1764979457538651 -0.08920784719810045 0.04489433452105513
0.176780028085897 -0.08950467663976358 0.04537934771067367
0.17615220944980298 -0.08847794159255908 0.045043726456368595
0.17646500860215428 -0.08888593418120819 0.0454530166811853
0.17541202334713593 -0.08704530190826328 0.044573018562534455
0.1756817978009034 -0.08753883341159142 0.04502378890018727
0.17504904238185415 -0.08619082336092275 0.044713043837620814
0.1753319329332169 -0.086778286993334 0.04520203341618814
0.1745573523023817 -0.08511290636160429 0.04502475763612591
0.173942284650962 -0.08376587622644964 0.044773803669545593
0.1741939638121147 -0.08438027091860655 0.045176272578734425
0.173611874685606 -0.08303612176236969 0.04475499927322564
0.17335585502352288 -0.08251945871429235 0.04508750978600833
0.17279468946818152 -0.08109297202633652 0.04453668165086952
0.17301928421699858 -0.08167959962512727 0.045129025224574494
0.17246587101585265 -0.08026692553884857 0.04455914539268525
0.1726699899575039 -0.08084219576147904 0.04516973754216149
0.17219278533909385 -0.07952485139576522 0.044643594237572144
0.17164847765912986 -0.07801492670003464 0.044236831620413364
0.1719508686990515 -0.07877248718172927 0.044729037811649816
0.1714072031386739 -0.07713000139000752 0.044617343311816694
0.17166895742243768 -0.07773762275044048 0.04514744095244573
0.17123284482138 -0.07639047908886985 0.044935902415594205
0.17144421784719321 -0.07675413130852475 0.04552021179237646
0.17099538450443033 -0.07558946105637313 0.044926682743247494
0.17121617236651906 -0.07599405612681394 0.045478492190085845
0.17042659347085976 -0.07412241219394276 0.0442747642001594
0.17068218583917302 -0.07474409393029562 0.04463634236404642
0.17028970825053075 -0.07342550541275197 0.044670334272170105
0.1705025150435778 -0.07377769381468219 0.04520268596449869
0.1700575785252354 -0.07267719992688246 0.044715988491990856
0.17028787691301495 -0.07305101887486888 0.04522156295538548
0.1694574012710663 -0.07129934719049708 0.04412566550122151
0.1697353819757713 -0.07187715559378931 0.04447420278250327
0.16936518389899108 -0.07072608547255484 0.044410284465834254
0.16959392095830195 -0.07086694846140948 0.04501099987825463
0.16873050815910706 -0.06897686573654653 0.043926542116580335
0.16902649287854815 -0.06940541250419455 0.044461102394598655
0.16931765689586564 -0.07011329252384221 0.04476392208871264
0.16862496786488776 -0.06816365595697348 0.0442068887734822
0.16884842294190847 -0.06855548351546759 0.0445873971748899
0.16857899464641127 -0.06760735429502061 0.044429353059726735
0.1688009601825776 -0.06771069176995989 0.044986040908024376
0.16794122797044136 -0.06599692034271652 0.0439102643270506
0.16826269422838971 -0.06636054113433569 0.044494162094244546
0.16855911703208168 -0.0670214507333998 0.04477452170486361
0.16785593333043525 -0.06548262685759183 0.04408983247347848
0.1680514802843413 -0.06551279943122415 0.04459432431995996
0.16725344376837994 -0.0641489190982999 0.0437918873433055
0.16754802915688236 -0.06436620166459758 0.044345528058548085
0.16782952785806113 -0.06501934604039655 0.04442721055799325
0.16673245643549633 -0.06278877926126264 0.04365244356783853
0.1669916765937468 -0.06290686109328271 0.04418409602315866
0.16725259329003464 -0.0636357556331099 0.04422839897107887
0.16658923938228704 -0.06202683419348218 0.04407798904122709
0.1667049872746609 -0.06233664160520471 0.04405101137099618
0.18091277686387267 -0.09927222109545558 0.04547967551210881
0.18109008282305888 -0.09972993413569574 0.04617672366916858
0.1807676211034715 -0.09865309527638487 0.04527170911542606
0.181002701439433 -0.09924627319799734 0.04610092697398545
0.18059150796743254 -0.09794836248021507 0.045161425569462
0.18076413012960105 -0.09819183959936066 0.04596588570183926
0.18054272811900668 -0.09731821249286206 0.0461986378701218
0.17976250821052525 -0.0957295662065778 0.045561853014016135
0.1801692676477743 -0.0964423709155163 0.04606434812321305
0.17944854222883727 -0.09494906732112628 0.04583230651532557
0.17974733520614525 -0.09534269471242567 0.04643766000817223
0.17904665744882392 -0.09413728526992068 0.045723645451781245
0.17934737555687877 -0.09450896055368652 0.046345426749092034
0.17863587989632132 -0.0929698041305882 0.04617017263800335
0.1783349328293856 -0.09224369689793925 0.046201002849504645
0.17767107345339186 -0.09104566850595128 0.04569727308689846
0.17804642519790226 -0.09161898071699756 0.04616871628297248
0.17742457333932718 -0.09040540940215426 0.04600730821275249
0.17771545568068195 -0.0908039022393229 0.04645667171154455
0.17707346156198484 -0.08975995910453545 0.046055249262512823
0.17737455586844106 -0.09008898895809665 0.04671557128063523
0.17627183888081782 -0.08841227494089764 0.04581394436331832
0.1766060117066157 -0.0889107410376269 0.046190713138729945
0.17591027947089005 -0.08776591402758334 0.04588224746740437
0.17618156980028388 -0.088087085190325 0.046566293067143216
0.17510575744044002 -0.08625768430872255 0.0456561957500368
0.17542851467022327 -0.08684058074027858 0.04605264583911928
0.17473610657391578 -0.08550952501927886 0.04581858061431368
0.1749917884133931 -0.08593243484163983 0.04650282001271962
0.17393993867597432 -0.08388330960189642 0.04560561308642824
0.17422578078526224 -0.08445706678998074 0.04611741342111191
0.1735863490739824 -0.08307833830074181 0.04568242742401555
0.17384003784029822 -0.08364812272606385 0.046226341657083996
0.17323129105715404 -0.08226659076352197 0.04572997156775682
0.17303533029620746 -0.08170492807164052 0.04605865842038798
0.1724822873363043 -0.08027281767652028 0.045479705310691114
0.17274529798191982 -0.08082540633172194 0.046081087917709575
0.17223268291733668 -0.07946038654614498 0.04540883944710216
0.17245309275551607 -0.07991250832173982 0.046087094419693844
0.17195549108712996 -0.0783173411711428 0.045866114560019065
0.1716978433092358 -0.07740362523145611 0.04590011502304672
0.17160124720167844 -0.07675930719975228 0.04629845902149809
0.17108886702308276 -0.07538916807229551 0.045739768458334995
0.17134925850726193 -0.07584660202113117 0.04632071066543742
0.17082542936216402 -0.07451628859034196 0.04573623784889149
0.17109310764927022 -0.07500549964655942 0.0462960731679179
0.17061346510684028 -0.07368763809978722 0.045892786892508475
0.170182782281675 -0.07247764760868701 0.045503859871758014
0.17042721405343417 -0.07292355211228448 0.046012712129223164
0.16995277247425972 -0.07169297267049098 0.04547500040944835
0.1702090073723111 -0.07207481890522037 0.04606092887060807
0.1698419299633688 -0.07061955486666921 0.04605959983688244
0.16928012791783456 -0.06932635669848265 0.04521320086193802
0.169549705712143 -0.06974352878144834 0.04574246898804603
0.16911030917106906 -0.06850217179210497 0.04530200597580208
0.16938024554702638 -0.06889149057397669 0.045789283230239466
0.16908432697212064 -0.06751472980297102 0.04588472312456383
0.1685367125483846 -0.06627442742713108 0.04526526147735203
0.1688121802264917 -0.06667402279777887 0.045719379065224754
0.16835914871088578 -0.06549637756649226 0.04544203734779521
0.1686406994575534 -0.06587035342460876 0.04586926168044466
0.16783767558083634 -0.06454010436602063 0.04487929088961147
0.16806120220345103 -0.06482132804753156 0.04521215973006222
0.16727115126076383 -0.06311183612645684 0.04470533034279611
0.16751359427703805 -0.063409999812735 0.04507164462680701
0.1678849972935475 -0.06399308637992215 0.04552482870506982
0.16668439374214386 -0.06187658036443541 0.04446497601141162
0.1669151562728223 -0.06199069327669251 0.04493329682938676
0.1673166953930026 -0.06255952014756735 0.04534913299196746
0.16673014067075342 -0.06166350251218944 0.04479987762762253
0.1812804877309613 -0.09997263060422537 0.047115961757727844
0.18107653381087135 -0.09896462503633703 0.04689463539385474
0.18081327169768924 -0.09782366290975274 0.04694932016026244
0.18046239853632884 -0.09691515175260268 0.0467217676259006
0.18015750908150274 -0.09611278265256398 0.04696606706759659
0.17987229344841196 -0.09531653910928664 0.04722258450532964
0.17905298020443666 -0.09372175551191454 0.04663932014931194
0.17948079546180928 -0.09447129214388011 0.047133639012459906
0.17879129037983066 -0.09294393631456203 0.0469484979206658
0.1790996323971361 -0.093422517269605 0.047544487443878104
0.17840456617148245 -0.09210920141800483 0.04693392421646303
0.17874296814294155 -0.09263383615536881 0.04748816878593698
0.1780102480233411 -0.0912570544963755 0.046926610214351
0.17769936731945218 -0.0905855169490953 0.04730114397302127
0.17695082763837794 -0.08932665108066616 0.04695547349021474
0.17729424260231244 -0.08981155258287105 0.04761209684048144
0.1765018113416988 -0.0885091058072133 0.04722958472860497
0.17574718598572567 -0.0872600352565364 0.04686712990480983
0.17607707335552847 -0.0877039680219611 0.047508961658976015
0.17528882602044255 -0.08631978960268864 0.0472814406195054
0.1745657055186021 -0.08502370701888 0.04690441100396318
0.17489486725625764 -0.0855741104259717 0.047327121668854284
0.1742481266174257 -0.0843450190015618 0.04699698390984481
0.17362844928901064 -0.0830999152359297 0.04657259532260187
0.17393946549774844 -0.08361460183228606 0.047111389249081204
0.17330611786563327 -0.0822640150495449 0.04661396730265276
0.1735904953520988 -0.08279404900220648 0.047172045488827
0.17300305991409431 -0.08141656575669635 0.04665081063160598
0.17287019215226937 -0.08080330289615284 0.04698655313725246
0.1722768856482138 -0.07909495121155881 0.04641369786734159
0.17261315822250645 -0.07987260951328388 0.04697332860053859
0.17212106313767703 -0.07828138185625846 0.046724007850736674
0.17238750246066706 -0.07868906406045038 0.047364511932656894
0.17187969135791298 -0.07743731565328676 0.04667232004263269
0.17214272583294682 -0.07785933565324475 0.04727389009170423
0.17167979663243288 -0.07635683037389311 0.04708985991599432
0.17146609645699515 -0.07563604179911874 0.04709030959518495
0.17098017513437078 -0.0744011048730264 0.04658893899345963
0.17124913577261905 -0.07489102944331984 0.04713639996037491
0.1707366062234059 -0.07356006873274812 0.04663388319686198
0.17100206603592227 -0.07406494627748915 0.04715190546416637
0.17054231650500445 -0.07279116553902051 0.04674423374921982
0.17010416201602896 -0.07129743292511742 0.04644657088743687
0.1703745225476041 -0.07203988126905103 0.04685689983887136
0.1700213628979934 -0.07050975301700706 0.0468342921294376
0.17023773106864815 -0.07092369625385204 0.047407389209771895
0.16984098855456609 -0.06966514249741719 0.04684459615077396
0.17006858566478034 -0.07010121100641838 0.04740677830882355
0.16933761623313992 -0.0681487786862452 0.04617290705559153
0.16958180091536318 -0.06878794446885106 0.04652693326887364
0.16929289344538276 -0.06742218802601277 0.046558948353197266
0.16951143253928044 -0.06784776921378838 0.046982306252040126
0.16911163566637388 -0.0667186292765494 0.04658255228945691
0.169374941689669 -0.06698295504436898 0.047199462081386846
0.16858434843253198 -0.06528365688962318 0.04623523031437022
0.16886517712737448 -0.06573293893376357 0.046695309805584215
0.16836172775123703 -0.06445431121118492 0.04640166369507296
0.1686678717608951 -0.06497076228575185 0.04677309268015305
0.16778892767233125 -0.062868375951819 0.04627401519056991
0.16807878482104527 -0.06356088300394779 0.04646276154654372
0.16721530012364597 -0.06173874604817132 0.04594639655735132
0.16749601871190575 -0.062084283264229885 0.0462891897998278
0.16698645580536073 -0.06148475943191789 0.045625970640557734
0.18162705953596403 -0.10106943427774581 0.0481140993030185
0.18151138692868016 -0.10047053015951764 0.04791373889658682
0.18134612635030412 -0.09968047200480468 0.047721312202953094
0.18157635817349987 -0.10037400279635372 0.04842271488425036
0.18112880265397857 -0.09869587279651905 0.04769987828585451
0.18138919478815616 -0.09947320326886647 0.04844968759934632
0.18090616150032113 -0.09785811711331072 0.047784408576584905
0.18112628009555207 -0.09842355323418349 0.048565367539769054
0.180553497249687 -0.09693929949322382 0.04756332269833796
0.18081601177217457 -0.09748709710140109 0.048293662140160884
0.18016617728105924 -0.09581267418867943 0.04789002742081757
0.17978728606533953 -0.09493544146130445 0.04776455124074896
0.17950746997961234 -0.0941885671877315 0.04805287114051579
0.1792339366167899 -0.09347550792887542 0.04834096583090211
0.17853168428042865 -0.09211301388133095 0.04780226289566054
0.17886547155901952 -0.0927278853266623 0.04825342977271954
0.17813085592315722 -0.09133265735992714 0.04781263309036422
0.17848483384739677 -0.09192044662205108 0.0485611953570849
0.17764469776558622 -0.09038456995827346 0.04835270256789197
0.1768515604171906 -0.08899342480352522 0.04802090113126259
0.1772214980301461 -0.08961831383402764 0.0484071117978078
0.17637012709861669 -0.08810230417876827 0.04820371664243877
0.17566976480414503 -0.08686274068199606 0.04793776849982632
0.17601535252694717 -0.08742323912843919 0.04831579087290143
0.17533989576252043 -0.08621934763383221 0.04806908822848832
0.17467785907135389 -0.08502715411112935 0.047716864454831004
0.1750171125017518 -0.08551904736712371 0.048219656869666
0.17433295747771985 -0.0842417430102883 0.047783014841947545
0.174656400948475 -0.08473287757754405 0.0483088012078865
0.17402888691042154 -0.08350522507114862 0.047900357125182313
0.17343059387522222 -0.08221306258751813 0.04746151229993357
0.1737525930925282 -0.08270084516856543 0.04802414629125532
0.17316311897765183 -0.08143276164798212 0.0474063234651833
0.1734275028905055 -0.08182412859130372 0.04799416375147255
0.17294683562497049 -0.08042405192793561 0.04772756524037795
0.17275146370560787 -0.07932678456513553 0.04803445161090781
0.17254554054482665 -0.07856358421096898 0.048036260209875635
0.17200882582107022 -0.07707547491815879 0.047560465921580385
0.17235618271208972 -0.0778031067543099 0.04805195449729183
0.17186549553631006 -0.07629985714588244 0.047865249971028465
0.17216600616562736 -0.07668730747525938 0.04844640671919655
0.17160149165248034 -0.07545628907863146 0.047860129479085925
0.17190872573207308 -0.07591819909428454 0.048407062727662195
0.171374398736072 -0.07471618476766563 0.047916734227787965
0.1708897480752504 -0.07347842600271562 0.04748554841288131
0.17115541676152302 -0.07402438481778036 0.04793849072874945
0.1706584750349795 -0.07267769445763458 0.0474843422767639
0.17092240133808156 -0.07308456066051952 0.04822801443776299
0.17048159729152712 -0.07166981842501782 0.04785068491274639
0.1703809099766246 -0.07092149613812179 0.048203207315868905
0.1700019476326631 -0.06946585006015482 0.04768560140273808
0.17021609866595197 -0.07002246469928688 0.04827810282554375
0.16980949019183017 -0.06853185560463197 0.04766836519474157
0.17005289041159335 -0.06910772344464672 0.04827161144434533
0.16960703040910188 -0.0673481856939796 0.047819430220712555
0.16920197065101297 -0.06611462512304662 0.04745799192200821
0.1694436461493489 -0.06660053570319159 0.04784329400210302
0.1690233235354564 -0.0655029307615778 0.047467894503442666
0.16863442658612693 -0.06457584456890805 0.04707061894856987
0.1688498436979295 -0.06491496443451554 0.047469721389613806
0.16807662594652384 -0.06308908361775295 0.04685994311369018
0.16830173134068785 -0.06343188340624516 0.047206940207467026
0.16862155517828298 -0.06404435771936745 0.04764101670945848
0.1674259281371783 -0.06157394321767066 0.04667382087874199
0.16772244234322797 -0.06185420217238178 0.04715403767501083
0.16812151467333356 -0.06255786170922129 0.047487358131295246
0.16727883849688685 -0.06125986589824191 0.046650616088612235
0.16749791484136695 -0.061276090027736624 0.047218115543295254
0.18182395141410373 -0.10185752132381666 0.048780466735902486
0.18177785156974988 -0.10149951957847146 0.04865809403987815
0.18167573996657646 -0.10097745841360142 0.048394299144257635
0.18179985819780284 -0.10122975561409095 0.0490409270524197
0.18166279415176562 -0.10032843771369081 0.04916797149095826
0.18145872556769116 -0.09939395466533854 0.04926532650496986
0.1812590348085315 -0.0986093915831284 0.04942789230137715
0.1805450385874976 -0.09668136647784542 0.04850188589439074
0.18091541293440966 -0.09762028935615023 0.04920309013705454
0.18027512564452594 -0.09588358592646115 0.04872845464053004
0.1805302108663289 -0.09648145926481962 0.04948083884001062
0.1799157051110677 -0.09500463025571404 0.04859391152125507
0.18019411704152813 -0.09556773901317321 0.04928373169560092
0.17952800605235233 -0.09399967171229384 0.04900040499849228
0.17914681445407019 -0.09319302682794112 0.04890195069455306
0.17882615030922683 -0.09255611397807109 0.04918438267576328
0.17807444051826113 -0.09116044478536864 0.048869921414231
0.1784175081129307 -0.09180549744212736 0.04949957927653654
0.17773821242815568 -0.09054129930925375 0.049259653912645966
0.1769890095283247 -0.08917397496784689 0.048849313637002324
0.1773312839679959 -0.08979467455768791 0.049260738525484904
0.17664290318813483 -0.08849333463947054 0.048972684279302035
0.17693787447626594 -0.08899259324241289 0.049647458601540316
0.17581194561559446 -0.08693319595785293 0.048729183413953985
0.1761679666990259 -0.08750476431057519 0.04924418897536378
0.17544120273289854 -0.08615920943817378 0.048834333183079115
0.17578113480973484 -0.08669341465570903 0.049343296249757924
0.1751304911475638 -0.08543792115233735 0.04898798573479656
0.17448234690625608 -0.08418121619203967 0.04861798943604675
0.17482389487260075 -0.08466067409953919 0.0491630513417773
0.17417308570929296 -0.08342849965422981 0.04860357923566187
0.17447389044673053 -0.08381149087761132 0.049181533280481776
0.17395198798469902 -0.08246338163330683 0.04907067310173075
0.1732679264649954 -0.08103279320759596 0.04827515344530664
0.17360118018855997 -0.08171435519238496 0.04870860311313563
0.17311148754078903 -0.08006361787711314 0.048585653547197474
0.17346006735864422 -0.0807353658006633 0.049123057278563316
0.17298823682785458 -0.07924515198159746 0.04881954587309107
0.17332482481474856 -0.07964348287667045 0.049463664681739
0.17273560125085793 -0.07842871650819974 0.0486814668197069
0.17306612382275727 -0.07877904772280522 0.04932688304145216
0.1725609906397866 -0.07731436154840057 0.04900921781384232
0.1723591455015137 -0.07657838976329476 0.04907439078504663
0.1717958294879018 -0.07533233698939269 0.04869579833769349
0.17214130142882414 -0.07580471963046258 0.049216558230839834
0.17151312709671793 -0.07449535092131133 0.04876080440014772
0.17184395846781983 -0.07497102756980843 0.04927353490653578
0.17118324205700253 -0.07344906086016369 0.04891440279762824
0.17072562364171415 -0.07215346174845252 0.04856225025494644
0.17095696309959582 -0.07272555043675871 0.04896570116279622
0.17053817581241515 -0.07135836641764719 0.048588366503207456
0.1704443794231805 -0.07068806215069605 0.04890593345948329
0.17035577639926636 -0.06999076178409308 0.049198119406044
0.16999922715006788 -0.06851154502973904 0.048589550302216435
0.17019768456206308 -0.0691033437760348 0.049180530189093706
0.16984490127381452 -0.06767662354546952 0.04868510495586952
0.17004396813366196 -0.0682367263116517 0.04918116245136575
0.16937356312771362 -0.06607789279879524 0.04817262591195054
0.16959167517672866 -0.06661798098498667 0.048606861285967806
0.16917083298795937 -0.06533935535489167 0.048250681449860514
0.1694192715022744 -0.06585249308038378 0.048737487754297586
0.16892498299455982 -0.06438807025622913 0.04840697210380892
0.1685261415466457 -0.06297324864016426 0.04837822785781511
0.1687558082572705 -0.06367262868177936 0.04854613908637781
0.16800853616576913 -0.06166273104995392 0.04814349458005544
0.16828260059775188 -0.062144124122149216 0.04841653725673447
0.1674919517389481 -0.06096164517406824 0.04757065828842961
0.16770318328358003 -0.06114974971859483 0.04792348243392622
0.1676773348979167 -0.060715492188118246 0.0483961373103165
0.1819502648260791 -0.10222735439733314 0.04933310472351037
0.18188564116209063 -0.10188964115369109 0.04910370231708819
0.18198238786871637 -0.10194278450108597 0.04965525958651102
0.1819129406135954 -0.10119099842878354 0.04989993771684454
0.18174671969265271 -0.10028340957052255 0.0500204451151876
0.18151895774091062 -0.09933944461475791 0.05010158002681853
0.1812383846961833 -0.09839440726426332 0.05012949432763226
0.18089616779457318 -0.09743856237508788 0.0502025378336217
0.18063173149826148 -0.09666543226784927 0.05040348979354735
0.17992610884283447 -0.09485486709609206 0.04954143264992934
0.18028371416050942 -0.09574179460456626 0.05019163656070171
0.17964406230741614 -0.09417885559972344 0.049858823017034544
0.17992050799912543 -0.0948117032692488 0.0504373294806046
0.17923602394453203 -0.09335613287688885 0.04978641200379542
0.17956026499655528 -0.09401613616956868 0.05061791182378381
0.1787786348395874 -0.0924978204334174 0.05016452717083614
0.17801621018306713 -0.09107444648111059 0.04981385081565873
0.1783443181203427 -0.09171419703222328 0.05048996972602477
0.17762792270384997 -0.09033771615851689 0.05006648675997682
0.17724319135179828 -0.08955032005168523 0.05032221979703901
0.17657064084737992 -0.08819427722570118 0.04993414823997463
0.17688219392416546 -0.08874091992416262 0.05059732826790551
0.17628145368838585 -0.08749666743213494 0.050245663058980636
0.17558502398186848 -0.08616346944340335 0.049684124974089396
0.17591386370145012 -0.08667365928502146 0.050250784669335344
0.17526375281102116 -0.08541224264235471 0.049707191190444436
0.1755618764146151 -0.08584645121386458 0.05029774191942094
0.17499964037196805 -0.0844700234350326 0.05027538648612914
0.1742845468747676 -0.08307782810070406 0.04951977390297791
0.1746332844510597 -0.0837082346597641 0.049947026015520424
0.17411569975586894 -0.08233963447098575 0.049813086658795844
0.17442044950475472 -0.0827386516068289 0.050426581456215515
0.1738428235377041 -0.08153325706194478 0.049661265324280134
0.17414582022177183 -0.08192543644308516 0.05032516614388625
0.1736895476937043 -0.08047322892137318 0.04996583667803935
0.17361456991313426 -0.0796383510255592 0.050242740769056944
0.1729460223400058 -0.07797596539040173 0.04951136062877266
0.17338292581299644 -0.0786311606691706 0.05018307115871958
0.1728241515088687 -0.07721957186481282 0.04970966365666817
0.17313460231350208 -0.07750763242806852 0.05023467450717217
0.17257767645875013 -0.07649849846881622 0.049679602275026616
0.17291674620096292 -0.07680630018641353 0.05020532609063327
0.17244695529562018 -0.07561273015583111 0.050175082846482415
0.17173168622527527 -0.07439065366399777 0.0496464444416893
0.17205802194944564 -0.07481199511476412 0.050076563448604276
0.17148033656403683 -0.07360136637260312 0.04985523595500254
0.17179488075678145 -0.07404954406012919 0.05027732291006384
0.17088093232831203 -0.07218556041471975 0.04937493319427472
0.1711295825123818 -0.07274416318748059 0.049715232611869345
0.17068700052448588 -0.07138699106651525 0.0494120657935893
0.1709731383574884 -0.07190367271930859 0.05016968264789176
0.17053455763191705 -0.07047581280565263 0.04973000529492306
0.17041056916660363 -0.06970822960421678 0.04988336826810401
0.1703217102029 -0.06907175587918746 0.05009518116398745
0.16998573031510703 -0.06769620580895952 0.04950721693765765
0.17016167593737144 -0.06830823700518444 0.04998608293013902
0.1698205620905667 -0.06696824101250519 0.049493489387158605
0.17002012553925905 -0.06741172832941619 0.05024134014551099
0.1693629009368199 -0.06536233164439018 0.04912865465056669
0.16959203646932206 -0.06598885758521394 0.04956105642452012
0.16919182976788102 -0.0646654446568821 0.04919910213994085
0.16943507299584282 -0.06507827353109494 0.049929932271916666
0.1687712468307561 -0.06326289622681507 0.048956881515595706
0.16898144598439382 -0.06371753059150888 0.04933056175124276
0.16822275207298584 -0.0615642716895513 0.048876103390733415
0.16848552853132168 -0.06205234680039339 0.04920521708887456
0.16881559416768338 -0.06274486457046678 0.049586886415666914
0.16796668370298043 -0.06088135562279489 0.0489788428155008
0.16832925484779268 -0.06125680383267556 0.049638117368056824
0.16779479526632196 -0.06048616873242371 0.04905170346871354
0.18200500325390082 -0.10234660963994197 0.04959743281887333
0.1820818964407305 -0.10169352282341103 0.05054591463082135
0.18200680007848233 -0.10113517173783353 0.050806480503548315
0.1818149265078942 -0.10022911510964291 0.05091565726337069
0.18154533388820104 -0.09923580183244929 0.05097348565136125
0.18122139806943086 -0.09827380851332262 0.051025952935503924
0.18088413857028401 -0.09735796800588012 0.051103413416159364
0.18055368993772544 -0.09646402555322146 0.05114070942591434
0.18019837202186367 -0.0955579059633535 0.05119929949029081
0.1798604758815661 -0.0947103612387634 0.05132925508775352
0.1791478989098082 -0.09323741602290138 0.05087799768848782
0.17950771822079883 -0.09397167852719314 0.051524943428482746
0.1787144479432362 -0.09243021366073982 0.051237058607927974
0.1779363815713746 -0.09092664621844317 0.050790507037023556
0.1782696162632176 -0.09159384597863299 0.051525229310587485
0.1775500366187738 -0.09012943005398392 0.05104059314810975
0.1771898353831562 -0.08926249159958154 0.051391409146816426
0.176549705094066 -0.0878892140093889 0.05094492272917077
0.17685772624959964 -0.08848786678572783 0.05139902792532809
0.17623097489683437 -0.0871677164265279 0.050884700005854745
0.17604859312433357 -0.08661440075374272 0.05118492153327084
0.1753496031705283 -0.0851302626629281 0.050691592089295245
0.17572624807514475 -0.08583499788602789 0.051151489976293166
0.17514324578001783 -0.08439725692177107 0.05105708291829306
0.17542351583618238 -0.08481103174390628 0.05164771805419181
0.17483652439909686 -0.08352944090500211 0.051043011932826426
0.17514031904283625 -0.08405406459151064 0.051602430147865794
0.17459972873760746 -0.0827131006867549 0.051142870046438076
0.1740283463678114 -0.08114637687194154 0.05054071270005519
0.1743877705294355 -0.08194100769610206 0.05112300243919737
0.17390873836474513 -0.08021342010953059 0.050753469385038275
0.17423398496520517 -0.08089219238456591 0.05137111140607432
0.17379025587885547 -0.0792897638029802 0.05089226637411304
0.17412174099814928 -0.0799256761918234 0.05154128512919552
0.1737065366941274 -0.078519316345155 0.051012427231521475
0.17403747948453777 -0.07889959032169644 0.05171109886406571
0.17350103549434784 -0.07777359157261962 0.0509037902786188
0.17381963001759468 -0.07807859410776978 0.05148334778009891
0.17280505075636446 -0.07614931585087042 0.0504805709087156
0.1732354857081526 -0.07666387941690081 0.05103144609016309
0.17268321557805763 -0.07551491779580599 0.05079987068633643
0.17295459269353447 -0.0757986871803045 0.051120686069913754
0.1724211757243626 -0.07488284906063275 0.05088538918975339
0.1727885622130795 -0.07512199283023054 0.051428512591780884
0.1716882943274678 -0.07347429241354551 0.05069743386897209
0.1720552986467808 -0.0739415272863546 0.05110470545505262
0.17139902207549096 -0.07255978236728282 0.050939089258203396
0.1717580567752482 -0.0731844391547559 0.05126832147490169
0.17077371279005216 -0.07094241757309401 0.05050134632576203
0.17105454898559613 -0.07156965123766672 0.05098121894328754
0.1705783625301111 -0.07014994598086845 0.05043201809820723
0.17048711500418431 -0.06950960825454519 0.050650103757669894
0.17035889339494548 -0.06877297710341729 0.05077821483107749
0.17021887184378146 -0.06796498978704504 0.05094428720144423
0.16984465176639207 -0.06654032226759618 0.0504117863596921
0.1700649684717172 -0.06710591931390347 0.051151681854157416
0.16967209952509782 -0.06563165959732097 0.05065817055765171
0.16927100811541643 -0.06418548205377479 0.050176888801160814
0.1695115839328087 -0.06473652600961023 0.05091621701018669
0.16913387061272897 -0.06318253552619119 0.05047142953744303
0.16869046783188898 -0.061724528841167456 0.050348660677614135
0.16896057414250956 -0.06241581947390464 0.05050292441154749
0.16816950584980062 -0.06061326178788607 0.050019444582825166
0.16841650126827945 -0.06095992054640333 0.050378576540634025
0.16795836132259487 -0.060393667271379355 0.049688739076909724
0.1821571010019211 -0.10161233269893861 0.05143685070565827
0.18207864778242755 -0.10105819439159053 0.05169982397550225
0.18185613472298187 -0.10015218575079371 0.051832992959561244
0.18153577683415986 -0.09917270367735918 0.05190736745952043
0.18117266723650907 -0.09820437393473665 0.051959441693988154
0.18082573919986125 -0.09726465214122729 0.052006840911985215
0.18048201408617012 -0.0963561489258942 0.05205967487589811
0.18013137900923967 -0.09545679980293811 0.05213078363364476
0.17980031523150547 -0.09465027376451284 0.05216408740099323
0.1791326614037383 -0.0932961302681255 0.05202023020167991
0.1795124639970263 -0.09405843390866755 0.052248888874735916
0.17862915846828398 -0.09231627142470794 0.05243176360778013
0.17786114146557172 -0.09071975084417026 0.05188346958095455
0.17820914412397826 -0.0914468966998473 0.052405920783472976
0.17750823659364762 -0.08991775571806178 0.0518716272185661
0.17733780375880576 -0.08938741485323547 0.0522567049611786
0.1766965549560756 -0.08794919675145253 0.05177150972326517
0.1770168111296888 -0.08852212274673488 0.052328597855218074
0.17636923166535473 -0.08710201112908357 0.05182128487956712
0.1766992380572175 -0.08766699991507515 0.05239471023658896
0.1760231944256284 -0.08623963653460501 0.05182977154438139
0.17579383077847546 -0.08548702803378576 0.052155070530117406
0.1755799262361481 -0.08473927359601961 0.052494757396255295
0.17502303564518504 -0.08352018366826153 0.05188255654273571
0.17529765499328484 -0.08403135688380454 0.052343577772633536
0.17478785512993747 -0.08268340889447867 0.05193870644480974
0.17508568751144676 -0.08332664023967797 0.05243525825069875
0.17455782093270367 -0.0815808325736091 0.05204961441751471
0.1744311322079978 -0.0806337663808894 0.052208118768408994
0.17436507993491973 -0.07971075686421339 0.05237068055675432
0.1743431994425976 -0.07890392688763684 0.05253736161404687
0.173707928775587 -0.07729683562697136 0.051644104808866824
0.17412216846402218 -0.07797266760449736 0.052292291971084925
0.17358282623637852 -0.0764679017166195 0.05190700183929867
0.1739588414266846 -0.07688621093808103 0.05245323326174471
0.1732505880699364 -0.07554616664873791 0.051979151368959156
0.17374864003202675 -0.07598773389924916 0.052597912011064125
0.17252328139471146 -0.07427346980491624 0.05178480392922821
0.17290464866077707 -0.07470769594351044 0.052095011379160686
0.172256967156803 -0.07369301326378845 0.05187482390809369
0.1716968578874193 -0.07278947844368629 0.05159545380651947
0.1719933298734821 -0.07312272741660109 0.05194393545302307
0.17094713849716414 -0.07095729691117288 0.05134102923760586
0.1712492018386451 -0.07144006313176957 0.05186174264581944
0.17167597760316686 -0.07225956251036765 0.05216922783584217
0.17073380730770563 -0.07011949538515154 0.05134027890840957
0.17099999566487137 -0.07065496704839606 0.0519173671040431
0.17054313227501303 -0.06925560733883283 0.051330337731861346
0.1704459852301579 -0.06854939231064498 0.05164201892840228
0.17029415287740576 -0.06769308758844825 0.05186475183694603
0.16990141346005963 -0.06623654478924192 0.05140577777470856
0.170131445871059 -0.06686714980484455 0.052077212682101484
0.16975136953000933 -0.06527281426928173 0.051780689315617134
0.16939388019402724 -0.06377831828043293 0.05125065823479616
0.16958467650257805 -0.06442849058671117 0.05174211645424415
0.16928136517963155 -0.06309170886155036 0.05127002661123112
0.16893854790200186 -0.06203013116505535 0.0508975265763792
0.16913034474558955 -0.06246984087035546 0.05126792354398505
0.16832867520043482 -0.060530273764649055 0.050724183482977615
0.1685904696563952 -0.060910924318756915 0.05109762642711704
0.16892067743178005 -0.06157261177718385 0.051501812885550745
0.16816257591484726 -0.06028888439300072 0.05053064472777143
0.16843673547878843 -0.0603651511518834 0.051407080337994376
0.18217924635853697 -0.1014700043683961 0.05209346857216721
0.1820643135391844 -0.10085047942896075 0.05251633341518106
0.1818322922434133 -0.10006073666092324 0.05278829882777503
0.18152116464720838 -0.09912045008702028 0.05287001357374531
0.1811462590490959 -0.09816092547404541 0.05291052363332851
0.18078232544113643 -0.09722311150219519 0.052957990479965834
0.18041764025622486 -0.09629634182877057 0.05302525022855251
0.18003311496564225 -0.09531599877294034 0.05310561185704921
0.17969405738432637 -0.09450858344016083 0.052761382607424204
0.1794077314639198 -0.09393150760036192 0.05287413268502352
0.17971118752866302 -0.09463580086105461 0.05351324031554113
0.17906050510795662 -0.09321028061787053 0.0530628073744273
0.17876288288462347 -0.09258511747611722 0.053416786213842014
0.1780034807098633 -0.09092201824240566 0.052801291061218295
0.1783657535323923 -0.09164735802476005 0.05345694979036984
0.17766566988208576 -0.09002429711863667 0.05284595568791742
0.17799673112092843 -0.09071772186517765 0.05347559864335426
0.17734172190148048 -0.08914231709698867 0.05289659996432053
0.17719618706247567 -0.08855020251762792 0.05324977697223491
0.17653618237457439 -0.08705792744991142 0.05275474489571351
0.1768863463242104 -0.08763486652681148 0.05332330238963529
0.1761986479957228 -0.08611902112338239 0.05283412985529924
0.17656161521748823 -0.08671291968599976 0.05341212397540995
0.17584249797055687 -0.08513677746956114 0.05295521461788718
0.17559487095140225 -0.08420705281961971 0.05333157849520727
0.1752746157384942 -0.08356285725235216 0.05293565474583887
0.17508095650470726 -0.08284644758673833 0.053006200741735496
0.17534869398950204 -0.08338451651545103 0.053480595280294606
0.17482954855177568 -0.08208510125912244 0.05271985187568304
0.1747211856712007 -0.08130912369180665 0.052880514454698414
0.17464537908146224 -0.08044943699174782 0.053028619679301905
0.17464526490836824 -0.07953207451492854 0.05325519448716021
0.17453295589594764 -0.078475139833891 0.0531670215182031
0.17442324219290178 -0.07735698407728608 0.05327783731527873
0.17414949999809554 -0.07629531852442753 0.053229417336811705
0.17360168552655966 -0.07517697240649948 0.05298058967868981
0.17392494505131953 -0.07560100974901379 0.05324065970640993
0.17278838606527863 -0.07412822477856432 0.052480353518039785
0.17317169680728187 -0.07447204062877327 0.05286095482747291
0.1724730474624755 -0.07341874177754706 0.05264592059781884
0.1728742291055679 -0.07377121986112518 0.053038248500570886
0.17209087712371204 -0.07252573991715375 0.05287123700834961
0.17154823987590254 -0.07140945467224326 0.05282050194513607
0.17183563650354527 -0.07190145154112612 0.05301895059621335
0.17092224473411766 -0.07011035739791639 0.05221620673117036
0.17121218323478327 -0.07059284139335534 0.052713827777721954
0.17072389833379842 -0.06932897007942761 0.05219024543259842
0.1709987228823476 -0.06981355666857425 0.052810023043241734
0.17057981112418336 -0.06829096248701998 0.05270784558035639
0.17035835328691984 -0.06740773102865823 0.0526728930239389
0.16999246616820735 -0.06604761999928431 0.052388401693947574
0.1702421810374225 -0.06670047196516896 0.053005085632489804
0.16989861164577194 -0.06534912849911158 0.052706155391243154
0.1695518242642525 -0.06385873395903434 0.052100281278165676
0.169733107258414 -0.06449487772558049 0.05269710231328161
0.1694015631044401 -0.06300574914025568 0.05213562079314054
0.16959924625330106 -0.06362747212583308 0.052723691274165665
0.16918636070239404 -0.06209247596714156 0.052154106375410896
0.16872832697258255 -0.060625806569419155 0.05217057739855823
0.16906006442987678 -0.061342752253569756 0.052628008444435506
0.16853283847988001 -0.06002172199306848 0.05235229363838157
0.18201611421295458 -0.10057149241384541 0.053518913529677824
0.181833696829504 -0.09999557319195028 0.05376705967067381
0.18152358639662472 -0.09909876284724181 0.05383052534812145
0.18114113899910583 -0.09815587342155442 0.0538724879293953
0.18077451143479145 -0.09722410501174251 0.053939878974935795
0.18040489850065197 -0.09630856821100459 0.054043135274426495
0.18006824174405942 -0.09546675242294997 0.054228276561338676
0.17938373429101462 -0.09393648593138773 0.05374886991236276
