# .PCD v.7 - Point Cloud Data file format
VERSION .7
FIELDS x y z
SIZE 4 4 4
TYPE f f f
COUNT 1 1 1
WIDTH 787
HEIGHT 1
VIEWPOINT 0 0 0 1 0 0 0
POINTS 787
DATA ascii
0.1710359534216379 -0.07957547268596528 0.046477963374022116
0.17135487511069716 -0.0803009834438662 0.04697741938639845
0.1708972548237819 -0.07880209835746085 0.04676644999292274
0.17115399110865118 -0.0791806988773817 0.04734219310440272
0.17067604959786203 -0.0779964462739866 0.04672066174607538
0.17092730952062254 -0.07839232253506773 0.04726456654762997
0.17050724519986465 -0.07695619423399477 0.047105041974204745
0.17031561082547494 -0.07626718107863384 0.04711211708521945
0.16989181196838501 -0.07509320499959247 0.04665881428115417
0.17013268689627098 -0.07555312276889709 0.04715797521978494
0.16968837263111536 -0.07428042753974448 0.046694823715424764
0.16992575887634667 -0.07475878349288922 0.047173877133155934
0.16953736884794915 -0.0735368514694691 0.04678765582964278
0.16919063458548408 -0.07209278722437351 0.046493200002609106
0.16941411548738794 -0.0728067342891391 0.046883752712722666
0.16916049206117378 -0.0713204484821025 0.04683291676134666
0.16934939419992864 -0.07171390627410207 0.047377124301003104
0.169027398371137 -0.07049007161732591 0.04682686439978596
0.16923122906399957 -0.07091033584192825 0.047360162989273695
0.16860658879072782 -0.06900589535920776 0.04616896259856515
0.16881818814342237 -0.06963190608964133 0.04651325694977487
0.1685994727427812 -0.06827674076521165 0.04651354392399608
0.16879914704586427 -0.06869319068025587 0.04691954974769014
0.16845712979758992 -0.06757384881640678 0.04651768862434416
0.16871328024047338 -0.06782866192525627 0.04710191914715665
0.16799888431535523 -0.06614388047631334 0.04616306777896238
0.16825928964631573 -0.06658577567733313 0.0466042260359673
0.16782778260635606 -0.06530717583019535 0.04629752557471431
0.16810275556616236 -0.06582040774525037 0.04665996749456089
0.16735410036935316 -0.06370599454374906 0.046139244708136115
0.16759706278185935 -0.06440452261889675 0.04633198813059254
0.16684958007643466 -0.06256271306024909 0.045804919420366075
0.167109160986315 -0.06290969580042044 0.04613447495568375
0.16664007750118667 -0.06230744651644516 0.045496804718475066
0.18123887287688067 -0.10069229899229169 0.04758421287762604
0.18109333491148247 -0.10009085960997381 0.04738626415023412
0.18089033930096568 -0.09929949299575953 0.04719826820172811
0.18116288613306472 -0.09999859879974465 0.047895088228548516
0.1806308227114966 -0.09831768725895323 0.04718419697371511
0.18093733405818682 -0.09909850536191565 0.047926845791722184
0.1803708957935596 -0.09748539665537911 0.04727702617263675
0.1806301400859806 -0.09805297790481417 0.04805024563107734
0.1799673433455725 -0.09657181956473608 0.047068396930644824
0.18026913754522036 -0.09712114567538396 0.047789589799070394
0.17952880878855598 -0.09545548413867566 0.04740899768515179
0.17910105185251848 -0.0945878191588644 0.04729904816217086
0.17878670578452488 -0.09385179378587655 0.0475983242545712
0.17847905537234365 -0.09315297253444448 0.04789830104824611
0.17769828989111655 -0.09181939273278635 0.047395292315225886
0.17806883000311582 -0.09242186840411876 0.04782773304584453
0.17725556646179103 -0.09106653334991674 0.04742674214193475
0.17765169879884676 -0.0916406942565839 0.04814974811816062
0.17672417657972447 -0.09016034363056381 0.04798514822054693
0.17585000171328585 -0.08883629484972648 0.047707711588696786
0.17625836594863478 -0.08943044417645844 0.048062383958870074
0.17532453366936185 -0.08799338251893206 0.047913780897264856
0.17456166766436476 -0.08682429794815902 0.047699254360330574
0.17493816675047583 -0.0873504546268789 0.048043263178510605
0.17420280073104547 -0.08621872335390181 0.04784531632622864
0.1734852038706694 -0.08510737077410621 0.04755748480402418
0.17385177225263407 -0.08555983363068746 0.04801137741888566
0.17311123841117612 -0.08437481803344679 0.04764677461787331
0.17345603304678822 -0.08482752817997526 0.04812481411019349
0.17278344915494445 -0.08368832020372542 0.047775726096768535
0.17215548357298313 -0.08249149994083749 0.047401975295262445
0.17249167615477184 -0.08293712197069276 0.047908069033215366
0.17188676577402856 -0.08176288604418322 0.04736182555762289
0.17215425291802 -0.08212352497048994 0.047897294335069965
0.17168095998424118 -0.0808141014763159 0.04766409462745192
0.1715081853001254 -0.07977420369498836 0.047947620324166496
0.17131991344981493 -0.07905420447404185 0.04795135565816609
0.17081677294838257 -0.07763808626822674 0.047526108764343454
0.1711495588324029 -0.07832657559152793 0.04796822270069726
0.1706984941794069 -0.07688865122127339 0.047803955348901715
0.17099456964212142 -0.07725206796162157 0.04833360678323506
0.1704627569377315 -0.0760803670526541 0.04781129938248169
0.1707586638206558 -0.07651346673163212 0.04830288192430535
0.17026549404802122 -0.0753685848942288 0.04786907893301123
0.16984841301448825 -0.07418876620595709 0.0474741489352696
0.1700819956980554 -0.07470341901402157 0.047891403245820516
0.169664725287043 -0.07341496088871305 0.047465960409079785
0.16990608055526313 -0.07379443283808158 0.04815670783345698
0.16954684734870606 -0.07243130911547563 0.047799079661757865
0.16949625746879493 -0.07169757033989137 0.04811721267424523
0.16920432436105337 -0.07028078963886936 0.04760710511732656
0.1693860270403576 -0.07081582730000008 0.048174186421317204
0.16906637377295708 -0.06935958657015714 0.04757450388524039
0.16928133832147335 -0.06991890282530032 0.04815213220046268
0.16892925247456542 -0.06818219701139058 0.04769624128426654
0.1685859570728645 -0.06695624476635112 0.047327559414804606
0.16880766334601288 -0.06743660801670018 0.04770182388571943
0.16843627939484784 -0.06634162899483484 0.04732406030773959
0.16809534248710797 -0.06541718825975522 0.046928929565533156
0.16829608023629308 -0.0657501027672706 0.04731229322040836
0.16762716947356002 -0.06391855748215985 0.046692594205291496
0.1678330669469206 -0.06425798157476487 0.04702912863205782
0.1681191909453808 -0.06486848239191073 0.04745451399851245
0.16706605060122517 -0.06238315518776397 0.04648872912582407
0.1673505997964021 -0.0626593823013777 0.04694606598966172
0.1677118424650293 -0.06336670969026091 0.04727422377130846
0.16693760991723394 -0.062062400567191416 0.04646300393562785
0.16715541061066014 -0.062069250711041045 0.04699995807650744
0.18147807219081244 -0.10149167807258654 0.048250407136172214
0.18141534617565871 -0.10112934254965182 0.048127611934028564
0.18128782280870231 -0.10060221853376171 0.04786433688481168
0.1814326212312391 -0.1008626396875789 0.04851116575727359
0.18126100207597085 -0.0999589973760352 0.0486395792631704
0.18101740118575405 -0.09902564727479608 0.04874169775182682
0.18078522637502617 -0.09824441158977934 0.04890922631881358
0.17996082543485326 -0.09632195914942625 0.048006388324929816
0.18038965926112177 -0.09725959346475338 0.04869405636056997
0.1796544092853976 -0.09553215811364238 0.04824211373110362
0.17995340123231113 -0.096130288172792 0.0489815902704978
0.17924684788628245 -0.09466081220943408 0.04812137443505105
0.17956673948020188 -0.0952247664041964 0.04879823797967409
0.17881305690099036 -0.09367277060263898 0.048540812131167496
0.17838408790308502 -0.09288286743408843 0.048460069935849844
0.17803226577186668 -0.09226723700787862 0.04875189290554808
0.17720104422959837 -0.09091479380499032 0.0484733573902917
0.1775855469008642 -0.0915477282696727 0.04907808154693734
0.17683529027556227 -0.09032431068864641 0.048869893910393813
0.17600715333293063 -0.08901058351530056 0.048504732674316764
0.17638700254735828 -0.08960768817103607 0.048887802113470276
0.17562706436944606 -0.08836402715748781 0.04864351323664412
0.17595865370259317 -0.08884144190554859 0.04928058609794013
0.17471482541282804 -0.086887791010066 0.048455284417652116
0.17510630662263454 -0.08742683623078322 0.04893080159885706
0.17430862625260488 -0.08616055609607903 0.048577347006351974
0.17467939403933302 -0.08666268261754492 0.0490482370467548
0.17396987260929592 -0.08547995516783537 0.04874297475226267
0.17326371038714863 -0.08431297246069618 0.04843244656110434
0.17363420899918064 -0.08475458783076421 0.04892707305336432
0.1729341344054229 -0.08361210158807979 0.0484352022753637
0.17325429690747046 -0.08396239448847156 0.04896543376172314
0.17270389187776006 -0.08270903811855229 0.04888062278587666
0.17200157963562349 -0.0813802122487029 0.04815880365463313
0.17234084351095857 -0.08201416296497628 0.04855197271971747
0.17186246846452638 -0.08046185629063778 0.0484443063706438
0.17221439310338515 -0.08109039821726668 0.048934858044369624
0.17175815765501648 -0.07968606305362627 0.04865957212647059
0.17210197254502346 -0.0800532946654283 0.04924996585346016
0.17152274976102788 -0.07891380267203973 0.04853669087652918
0.17185908857182486 -0.07923651406488516 0.04912230203869151
0.17137917844291736 -0.0778425795834241 0.04884278239562893
0.17119679511316596 -0.07713479315756618 0.04890916388689995
0.1706720627481806 -0.07594640081680996 0.0485736871502561
0.17100614384408103 -0.07638816970155457 0.049047828453821246
0.170423628247165 -0.07513842120451297 0.048641893757053266
0.17073992153724352 -0.07558607931237943 0.04910993136872576
0.1701479486892169 -0.074127467095975 0.04878704363880666
0.1697633558115391 -0.0728865602454204 0.04846410157305451
0.16996185089334506 -0.07342925831307687 0.04883489428636847
0.16962819235234025 -0.07211536595260122 0.04848113638582082
0.1695794746514564 -0.07145561678887016 0.04876938247356423
0.16953207667377237 -0.07076669870629086 0.04903888614725498
0.16926425749922797 -0.06932534955993061 0.04844394336798328
0.16943009393556732 -0.06989541402272897 0.049009954083710866
0.16915806848559906 -0.06849455771746688 0.04852009311773716
0.1693269732592132 -0.06904080798025383 0.04899942045445146
0.16876571877483043 -0.0669072732550408 0.04800350718421866
0.16896222696018776 -0.067440206961306 0.04842527631488523
0.16860269411236115 -0.06616316479342539 0.04806195178069718
0.1688284545829782 -0.06667083850617218 0.04853604113606976
0.16841270052372898 -0.0652015414592139 0.048188236112226536
0.16809469076836736 -0.0637680654663737 0.04813261599233501
0.1682827064099799 -0.06447480180562587 0.04830681037600216
0.1676541277421751 -0.06244319552823112 0.04788362341890115
0.16790170322741726 -0.06292571786944888 0.04815202854600724
0.16717075365927037 -0.06173996469397713 0.04732932027445898
0.16737427517577094 -0.061925203009977635 0.04766681379467498
0.16737678697363711 -0.06147065697713883 0.04810988018646972
0.1816289841831828 -0.10187031596244911 0.048803755523458635
0.1815465504167978 -0.10152785742302528 0.04857417708106736
0.18165716404489082 -0.10158594114983796 0.04912529324876656
0.18156092614161437 -0.1008311612568785 0.0493699840094133
0.18135715448275772 -0.09992084458875035 0.04949186410199349
0.18109010068592435 -0.09897737344160844 0.04957646818820325
0.18076683792234893 -0.09803599734124754 0.049610005482132104
0.1803777014488095 -0.0970869488928273 0.049690233583911045
0.18007922397899234 -0.09632094059524239 0.0498964572781507
0.17926576518625262 -0.0945222038931463 0.04906361290364205
0.17968011672509634 -0.09540472261222208 0.04969616254799554
0.17895169580497666 -0.09386059563634401 0.04938810184430321
0.17927225045922648 -0.09448806083267532 0.04995043896863925
0.17849467941503674 -0.0930553493246613 0.04933044580596493
0.1788687881973768 -0.09371000151573487 0.05014063513824658
0.17799391346853805 -0.09222695866013013 0.04971791482939506
0.1771488082253033 -0.09084687911298706 0.0494001102981385
0.17751817402029074 -0.09147496113975484 0.05005077342823562
0.1767229926972025 -0.09014113628066728 0.04966057681844491
0.17630023123447916 -0.0893861874923168 0.049921886554428356
0.17555489447453212 -0.08808282400286642 0.04957403540017959
0.17590427151069554 -0.08860991230945309 0.05019979059622967
0.17523646566017767 -0.08742105576494485 0.049886234335734414
0.1744637878546318 -0.08616439100110951 0.04938292382222626
0.1748267456882377 -0.08664530062097087 0.049909079842868916
0.17411204924415702 -0.08545766273278813 0.04942137164878829
0.17443951056821533 -0.08586379655268322 0.04996850383775208
0.17382501719027238 -0.0845737969540077 0.04997246523991631
0.17305504823491666 -0.08327905625574127 0.04928982355918229
0.17343150312910274 -0.08385942235136104 0.04967513655138229
0.1728838242705356 -0.08258967850480152 0.049564419918865316
0.17321131367969714 -0.08295511863489279 0.05013068344113352
0.17260586103670775 -0.08183409677874676 0.049426751352634704
0.17292899081651622 -0.08219569884936931 0.050037470955938086
0.17246724261231866 -0.08083228465971341 0.04971178950400144
0.17241262164856117 -0.08003906970112322 0.04996728830829089
0.171759919940888 -0.07846666501992244 0.04929644493963754
0.17220001515196073 -0.07908041445136091 0.04991357544505628
0.1716600260533654 -0.07773849609252265 0.04948263531494922
0.17197593950910947 -0.07800428157707412 0.04996812035914214
0.1714302895946841 -0.0770442754757546 0.0494622800026546
0.17177415665905113 -0.0773306429213994 0.049944823215997004
0.17134016035426286 -0.07618109386337509 0.04992556128957844
0.17065637511571685 -0.07501792540252449 0.04945759140454984
0.17097674930911896 -0.07541213175724332 0.04984517096346932
0.17045024223917346 -0.07425185998127178 0.04965210421429144
0.17074891505388487 -0.07467285505303513 0.05003665201854044
0.16991935587086499 -0.07289635646779208 0.04921306934808533
0.17014270015318492 -0.07342698233626622 0.04952388402563909
0.1697787905646543 -0.07212335579032154 0.04924820968171907
0.17003761884455434 -0.07260231340712359 0.04994944047523679
0.16968453475261638 -0.0712289997858641 0.0495419565361129
0.16961122550317734 -0.0704743268617312 0.049678250360124944
0.1695658482666694 -0.0698450222811834 0.04986976302025429
0.16930568140319227 -0.06849864537306874 0.049298957276644594
0.1694469668013378 -0.06909350567381173 0.04976026548947695
0.1691861841224029 -0.06777496463287487 0.049271894994076734
0.16936321820322262 -0.06819959114116664 0.0499908022181876
0.16880390735152517 -0.06617073530593091 0.04889994379209507
0.16900732641477545 -0.06679283526875485 0.04932255430359368
0.16867379771569085 -0.06546648147290841 0.04895216897713503
0.16890661594875586 -0.0658683439873875 0.049656795671280084
0.16832841771381885 -0.06404949666318721 0.048689288201982275
0.16851794558114264 -0.06450379999268879 0.049057740811522865
0.1678805219757634 -0.06232418284303248 0.048580178982148815
0.16811759719914482 -0.06281356879695786 0.04890322466747579
0.16841502009106019 -0.06350983310857958 0.04928120313790149
0.16766373812776697 -0.06162675196846304 0.04866871484014325
0.16800957845240244 -0.06199485897076426 0.04930654070876898
0.16751070686547603 -0.0612237152800324 0.0487346108348329
0.18169341675399173 -0.1019927040065873 0.049068008086614025
0.18176317427450636 -0.10134068192481957 0.050015124732426426
0.18166850569221712 -0.10078179249290145 0.05027615683812094
0.18144008677914925 -0.0998732241511007 0.05038595699081507
0.18112752578363164 -0.09887919898606344 0.050445680673824135
0.1807584214300085 -0.09792307496268697 0.05050292469923796
0.1803772459108148 -0.09701485066609485 0.05058586919693099
0.18000182598012215 -0.09612917178996923 0.05063009460914096
0.17959812982367582 -0.09523191504760228 0.05069627618428625
0.17921888442195177 -0.09439705001930634 0.050833107447040934
0.1784131872634101 -0.09295446063290896 0.05040770776172991
0.178824453722617 -0.09367921466843886 0.05103545836218341
0.17793903000583614 -0.0921767350070806 0.05077075941925178
0.17707205978434645 -0.09071715593196678 0.05035560719744837
0.1774479691374405 -0.09137442935295596 0.051062812040191405
0.17664596983666453 -0.08995391917312834 0.050608723893795705
0.1762512606595407 -0.08911897857879789 0.05095589581101766
0.17553879489266103 -0.08779488647501814 0.050545746515914765
0.17588238459096187 -0.08837168812357246 0.05097307833066021
0.1751826682021221 -0.08711055467536925 0.05050178580871769
0.17497951466235276 -0.08658913369241998 0.05079649540490259
0.174205981431626 -0.08519238608241535 0.050353333533405015
0.17462182056155648 -0.08585459642561764 0.0507763641241231
0.17398292994525053 -0.084505508011997 0.05070556150817736
0.17429202206940814 -0.08489362802410579 0.051256921408067244
0.17365758882118046 -0.08369047232109691 0.05070031055262308
0.17398568381192336 -0.0841805305098867 0.051221612310095234
0.17341159791513755 -0.0829255701010411 0.05079782804255359
0.17282000174174217 -0.0814577884694429 0.05023989086873949
0.17319553688532613 -0.08220110862425466 0.050782809650721114
0.17271467900408816 -0.08057701078877524 0.05043943375946589
0.1730544276091853 -0.08121068506870589 0.051014226095348655
0.17261899495747685 -0.07969789778537693 0.050562753757172986
0.17296245813839703 -0.08029447038818203 0.05116691415392159
0.17255370354073973 -0.07895670196595204 0.05067349554637429
0.17290375303245278 -0.07931002155654303 0.05132137582685769
0.17235717451767885 -0.07824394711578768 0.05058198463731186
0.17269241098647667 -0.07852448382653403 0.05111163330483029
0.17168824202623886 -0.07669190308468225 0.05020436393596201
0.1721237097700683 -0.07717327806704573 0.0507058788899778
0.17160042207267515 -0.07607370915027274 0.050497712022560454
0.17187206720256168 -0.07633887325673173 0.050792606144804964
0.17136683702964028 -0.07546077569552113 0.05057737049803472
0.17174293309517763 -0.0756786987852147 0.051077230162218226
0.1706781314863143 -0.07410708623585573 0.05042933330828286
0.17103942246813608 -0.07454564024578146 0.05079422015551921
0.17044141940898794 -0.07321642743683578 0.05065908964197714
0.17077779199524828 -0.07381069348014145 0.05095477123248352
0.1699006547658997 -0.07166183722035784 0.05026108772300013
0.1701502991086032 -0.07225820008502819 0.05070662392873114
0.16975192876397674 -0.07089127559268069 0.05019582302388357
0.16970549763631465 -0.07026064172385765 0.050397732694813395
0.16962320371770975 -0.06953421738079966 0.05051413861834157
0.169530470289502 -0.0687308748698222 0.05066467809435226
0.16923959237881955 -0.06732688649499323 0.050140576777637884
0.1694333995212291 -0.06787273059799886 0.05084970628329937
0.16912235536665116 -0.06641028480193448 0.050361531888547986
0.16879474267691424 -0.06496144309614055 0.0498767886805966
0.16901680638573582 -0.06550478931852077 0.050593575559587954
0.16871925303542706 -0.063937552001218 0.050140079197951916
0.1683514241939936 -0.06245788804285732 0.04999659777561175
0.16858846480021764 -0.0631582565312482 0.05015642617708457
0.16788532682877472 -0.061333516263183535 0.04966569250902836
0.16811641204074995 -0.061678617696787154 0.05001342620272441
0.1676825196272594 -0.06111769459995038 0.04934660724247897
0.18184917018984625 -0.10126523819747499 0.05090577802550084
0.18175414349621288 -0.1007094065436539 0.051167554300501544
0.18149500655805825 -0.09980240170503155 0.051300366482331536
0.18112866528268842 -0.09882505817681154 0.051376238440245615
0.18071828611344343 -0.0978625330765499 0.05143142359787069
0.18032713404957446 -0.09693004092093012 0.05148281251003226
0.17993624626261628 -0.0960321851548367 0.051541654220402564
0.179538967717531 -0.09514359334605296 0.051618282256839565
0.17916582157666144 -0.09435206040144764 0.05165763381611657
0.1784144488795927 -0.09302980521779299 0.05152895062510438
0.17884328384588138 -0.09377636558194441 0.05174606456997009
0.1778603041239643 -0.09208479954305494 0.05193939465864581
0.17699811863606013 -0.09053456724322535 0.05141898761732241
0.17739151651737023 -0.09124344344775387 0.05192067932554513
0.17660847952860154 -0.08975635525200695 0.05141316478570452
0.17642296359205775 -0.08924357869966036 0.051788461197405114
0.17570596160020743 -0.08785589061889937 0.051335608290956805
0.1760651746759649 -0.08840872615336434 0.051862330614892545
0.17534056336823928 -0.08705111316043511 0.05139211300514943
0.1757110809052938 -0.0875896860794071 0.05193287306856509
0.17495620714996568 -0.08623436733969729 0.05140997236078988
0.17470143117119674 -0.08552861897682833 0.051729498827882775
0.17446795155514752 -0.0848280453930686 0.052060780937767184
0.17386549443387397 -0.08367928356658036 0.051490852432049206
0.17416253265647844 -0.08415910606063738 0.05192436920102368
0.17362544365962562 -0.08289243560056073 0.051545727449321406
0.17394078615245817 -0.08349633936477387 0.052014944118645115
0.17339615708076944 -0.08185372495630867 0.05165138501672894
0.17328541683802492 -0.08095927810454275 0.051793462004746015
0.17324260267670483 -0.0800766779175378 0.051936806568792834
0.1732449925782694 -0.07929889088769129 0.05208663322357935
0.17260656898964827 -0.07776900918739463 0.051261519285387955
0.17303245292385133 -0.07840714745570836 0.051860804682964494
0.17251564001614836 -0.07696290753353058 0.05150418447093024
0.1729031154384773 -0.07735561198559852 0.052010872408961795
0.17221176679288652 -0.07607186047300216 0.051581820395484757
0.17272311328450193 -0.07648380529110192 0.05214983603993081
0.17151887172479038 -0.07484852160011876 0.05141542712685142
0.17189764472388122 -0.07525895210717011 0.05169456094264535
0.17127750036681372 -0.07428469611608339 0.051505210396511576
0.1707460878401999 -0.0734189839262599 0.05125786722604262
0.17104017230052074 -0.07373096690087098 0.051575082619980735
0.17008443655424382 -0.07165484899754342 0.05104578042814609
0.1703680039527768 -0.07210706309255525 0.05152784104174448
0.17076570434371102 -0.07288993297241451 0.051797934685010205
0.1699173188085941 -0.0708360288169565 0.05104620269102949
0.1701610072447833 -0.0713425619411552 0.05158520009417219
0.16978033652233238 -0.0699918636566692 0.05103609925152157
0.16972869683876554 -0.06928858511350511 0.05132676328059145
0.1696348453992142 -0.06843759383253023 0.0515309916612449
0.16932228593558943 -0.06699941587401213 0.05108291770011132
0.16952583864202814 -0.0676136975862997 0.051726341847576116
0.16923190795700244 -0.06602439481959795 0.05143083307514796
0.16895550620328803 -0.06452824208297143 0.050899635440016154
0.16911322816767904 -0.06517588097073367 0.05138276799109349
0.168883651662053 -0.06383033235573841 0.050903962542825996
0.16859043638006016 -0.06275890366552539 0.05052963682288035
0.1687644801827953 -0.06319921628421786 0.05089219574204123
0.168051913367237 -0.06123618837872305 0.05034144387702996
0.1683002961285881 -0.061616677110978305 0.050704689044035994
0.1686035459287729 -0.06228338261185953 0.051104502415661515
0.16789656885253387 -0.06099544503067238 0.05015503564257552
0.16817364284495553 -0.06105796444525404 0.05099929901424161
0.18187639390158683 -0.10112665770677003 0.05156113712316125
0.18174390113592767 -0.10050738462876081 0.051981020099392955
0.1814796810512618 -0.09971874030665047 0.05225104355631281
0.1811268406438509 -0.09878026654861985 0.052332854677915784
0.18070327730603977 -0.0978269753863716 0.052375542889517485
0.18029230003007207 -0.096898172362464 0.052426161272989026
0.17988002827413493 -0.09598297106633027 0.052496589926120794
0.1794476012825775 -0.09501780053580772 0.05257996894805369
0.1790575153341108 -0.09422392770497716 0.05224597764666258
0.1787393943755633 -0.09366048732254852 0.05235948067425415
0.17909168058859598 -0.0943572629562703 0.05298313933910637
0.17835637378984293 -0.09295803894046506 0.05254831351947622
0.1780260224468309 -0.09235651574994976 0.05289860372538463
0.17716633019359668 -0.0907378711690596 0.05230781669314665
0.17757926336359253 -0.09144546494226652 0.052941087459771344
0.17678970232377103 -0.08986572512551491 0.05235418112579694
0.17716426490167864 -0.09054305750025037 0.05296198997739484
0.17642973843486795 -0.08901000013785688 0.0524052889365586
0.17626971838181416 -0.08843939028039728 0.05274433909991014
0.1755300729425832 -0.087011878213349 0.05228033253406595
0.17592282776022172 -0.08756356685115063 0.052817733231067046
0.17515603485913522 -0.08612133389043149 0.05236476594992616
0.1755617675005838 -0.08668494941736403 0.05290736419354163
0.17476140887392438 -0.08520017965662365 0.052491062363387644
0.17449787987049975 -0.08432488463181417 0.05285643815029759
0.1741481317362273 -0.083718605321707 0.05248697720647427
0.17395253154405782 -0.08304110213839748 0.05255218347068701
0.17424207344489498 -0.08354835364373094 0.05299862608283373
0.17368868356545658 -0.08232430957579565 0.05228322783343734
0.17359127740410651 -0.08159092333485155 0.05242945155978069
0.17353473080071857 -0.08077445856688034 0.05256012031656748
0.1735636360398224 -0.07989291430012975 0.052763864260360706
0.17347355431371864 -0.07887521498048011 0.05267117212891981
0.1733921349722527 -0.07779107133458418 0.05277853584440689
0.17314219505206127 -0.07676642405965897 0.05273912237698002
0.17262028657564338 -0.07569067581204116 0.05250930802122628
0.17293900772324358 -0.07609539075063194 0.05275233480654435
0.1718165541646405 -0.07468689760521227 0.05205536486449737
0.17220785486094842 -0.07500854681610838 0.05240091484727608
0.17153224147196428 -0.07399645839600096 0.052221434778736926
0.17193826962655898 -0.07432461551139972 0.0525750963982721
0.17119253903266887 -0.07312678096623793 0.052445530310724506
0.1706970867451365 -0.07204825257303314 0.0524162211144991
0.1709672131885737 -0.0725196469875366 0.05259535187782786
0.17011690408965888 -0.07080093312345796 0.05186577224490366
0.17039494697966112 -0.07125617523429888 0.05232607564982094
0.16996657119044264 -0.07003783903741326 0.051842605917503184
0.1702248050580308 -0.07049394241240894 0.0524223914860906
0.16989372312321052 -0.06900316753867931 0.05232960752838929
0.1697279097056552 -0.06813424848587299 0.05229634977189654
0.16943280976273278 -0.06678707871401764 0.05202024365189798
0.16965294532482075 -0.06742252148808892 0.052612391640520936
0.16938354378672785 -0.06607764882870781 0.05231582967042715
0.16911817373839474 -0.06459193092163272 0.05171636421916466
0.16926626478327708 -0.06521973984824471 0.05229754354381599
0.16901938728670293 -0.06372839155322604 0.05173491036103898
0.16918462893788322 -0.0643450790784643 0.052311654939356834
0.16885133595031712 -0.06280162214568513 0.05173980993235175
0.16846312910376782 -0.0613109149100365 0.05173932528140609
0.16876885025299704 -0.06203187002222652 0.052187702326458675
0.16829617533045124 -0.06069454827703596 0.05190990553839209
0.18169976625772105 -0.10023589579334158 0.05297758234684155
0.18149433969540335 -0.09966191893876737 0.053223944816405
0.18114339650881325 -0.09876669323810995 0.05328642088947466
0.18071189554005276 -0.09783020281020834 0.05332862381299809
0.18029853478663957 -0.09690752237087173 0.05339716066827462
0.17988170228742703 -0.09600443495740861 0.05350119234630881
0.17950517407822345 -0.09517884640093402 0.0536845528836279
0.17872894596869873 -0.09367463702573343 0.053216654091869986
0.17913420588870052 -0.09443637610951916 0.05391691455651578
0.17838492801027703 -0.09298838535671501 0.053452058619279035
0.17803208974157286 -0.09228098298635065 0.05367315987979446
0.17776241579969257 -0.09162739012832113 0.05395041761887623
0.17699148995279185 -0.08996768363411163 0.05329772574768812
0.17739338487538125 -0.09065883587830836 0.05394883207288529
0.1766463697695074 -0.08904620522574831 0.05331525525130095
0.17703515960695917 -0.08969913059204933 0.053936488214801875
0.17631083030408465 -0.08814586743474238 0.053355263906473736
0.17616739438884713 -0.0875427344111482 0.053695515841439015
0.17540612138012024 -0.08607178498610193 0.05328444511856278
0.17583370568717227 -0.0866382766599555 0.053801022873191696
0.17504316548588855 -0.08515605845480798 0.05340775055080255
0.17548551055102107 -0.08573791856355953 0.05392288413642964
0.17476288379938412 -0.08433908159629978 0.05361069567162264
0.1741696714927928 -0.0830451252467849 0.05325593295603441
0.1745239100363124 -0.08357976885236448 0.05374176543713556
0.17394597462457373 -0.08225982194898392 0.05314640368730106
0.1742684155487421 -0.0827859596464687 0.05373306236253318
0.17377359049390928 -0.08139409891460433 0.05306230076587774
0.17382575545256235 -0.08075436489105241 0.053353905582737456
0.1738526207523757 -0.08010606412313598 0.053450871639676
0.17380496170365223 -0.07941069923555963 0.05335340980258808
0.17407489758806927 -0.07995958394587609 0.05394970007396314
0.1737756138631339 -0.07851800160395153 0.05338211241791156
0.17409273650150847 -0.07913974542980842 0.054015548855804715
0.17377429862888208 -0.0777582227871545 0.053524094688848035
0.17410692709840672 -0.07818603967196543 0.05414758638325588
0.17361451020520519 -0.07694267056754561 0.05351399910156343
0.17395166547694094 -0.0774134183493993 0.05398495900396731
0.17292295039768418 -0.07558755145228079 0.05308269844552639
0.17327552870857627 -0.07598084435405755 0.0534344092160509
0.1727019514339877 -0.07492176050832892 0.0532585779229406
0.17307925888792422 -0.075269991135297 0.0535969356351376
0.1718777274701917 -0.07381140402946582 0.05295093964798957
0.1722678561489215 -0.07413060195953686 0.0532659882085661
0.17164671623982333 -0.07313191507637602 0.05319973705135396
0.17202007978241632 -0.07347211406919522 0.05348339083317772
0.17096496207970474 -0.07203911138892133 0.05301894714939044
0.17126551190855496 -0.07244719755150443 0.05319504581394564
0.17077587902189592 -0.07141372323933319 0.053125346442819875
0.17117030759557217 -0.07170526479321343 0.053652673941193725
0.17018204645185414 -0.06981434260223882 0.05278130383176056
0.17051998783783925 -0.0705148526420387 0.05320692372577663
0.17013687638952327 -0.06910308753271878 0.05320096268490112
0.17041196360360156 -0.06963213139114086 0.05361344707041336
0.1699608355850597 -0.06815418697960476 0.0532849102253371
0.1703108734878374 -0.0688327696787633 0.05393620227593925
0.1695753268320387 -0.06655765109613802 0.052958375977037855
0.16978415882856943 -0.067228718048046 0.053375170112612835
0.16944352581113797 -0.0658095701274433 0.0528967510893705
0.16941361390043644 -0.06527531959430168 0.05320604466129959
0.1691659290853519 -0.06377003742381407 0.05269468905837041
0.16931329783200857 -0.06445817238326432 0.0531499965346143
0.169034984971479 -0.06280549644969932 0.05280894123876972
0.16925856056718122 -0.06354533683383809 0.0534892723673933
0.16867008535748926 -0.06123650106842305 0.052755884134443966
0.168888914921101 -0.06185459570373564 0.05300932660663911
0.16823246749504162 -0.06015204599445217 0.05249270940287329
0.16841721704804688 -0.06058097924915372 0.05255350321829926
0.16813421993807004 -0.0597425801181451 0.052848832974055994
0.16828904435425368 -0.05994892399627762 0.05303804869486104
0.18171876352023628 -0.10015534434890903 0.05397340565174304
0.1815201383494608 -0.09961339339362466 0.05416814174007366
0.18118418740447462 -0.0987627099898362 0.05420565644920236
0.1807681914475229 -0.09786735470100669 0.05429236385999325
0.18036937804541586 -0.09695690270004788 0.05439256033005365
0.17997247318327114 -0.09608096374852441 0.054522471833872016
0.1795900644024175 -0.09524358958449537 0.05469130255261843
0.17877137087202546 -0.09369636783029617 0.05412850255137155
0.1792095298745733 -0.09444408651982233 0.05487851057097623
0.17842541285304794 -0.09295891548066898 0.05432657479670875
0.1781034096944424 -0.0922275554479139 0.0545215040404931
0.17781566894533843 -0.09145141894591902 0.054696038389672005
0.17762734499336008 -0.09073141067303479 0.054943896106361856
0.17689340931309847 -0.089073629429442 0.054242992788831164
0.177307560105296 -0.08972594939004436 0.05490397965317961
0.17656960515240336 -0.08814032099526391 0.054235277249437094
0.1769712461621039 -0.08874827116426688 0.05485418166961058
0.17624381708312256 -0.08723421203766993 0.05429387872025636
0.1761474015849973 -0.08660365868969443 0.0546899961948355
0.17536844864023232 -0.08513545108605654 0.05428810494923296
0.17582783987808717 -0.08567368037798938 0.0547967631317352
0.17504815284398267 -0.08427241067765191 0.05436230187464605
0.1754995049339298 -0.0848115030992127 0.054880743827774504
0.1747978922068805 -0.08350293408504977 0.054460744798171305
0.17421771692706842 -0.08227727239678458 0.0539138647678437
0.1745827792592257 -0.0827393620559857 0.05446083736929427
0.17404395166893633 -0.08159086242424617 0.05375138444563502
0.17434158993593485 -0.08196491489687757 0.054317534450832074
0.17407843123643682 -0.08100901783797175 0.05396419561794909
0.17401872474372349 -0.08051648216859056 0.05384215757258757
0.17430827476825586 -0.08073661390708717 0.05443915930934352
0.17438429209010486 -0.0798400261899204 0.05463572155296546
0.1744166768313356 -0.07894134845713695 0.05474264040031373
0.1744465596951583 -0.07819561232519436 0.05487590521440836
0.17395547523553612 -0.07685310381812784 0.05421778509305121
0.17427589953194303 -0.0773854078021327 0.054711657951070296
0.17375390327464324 -0.07613334204956293 0.05421352149090488
0.17417266882287916 -0.07645038490375998 0.05487047988418652
0.17305496521540206 -0.07474304368021464 0.05394746089943094
0.17348207549835043 -0.07513569703935463 0.05436070974080078
0.17281389833304056 -0.07403237318370733 0.054128671953998723
0.17323497093226012 -0.07438070987520515 0.054475861966099444
0.17198655488395417 -0.07292667162660248 0.05391187111100503
0.1723642666270892 -0.07334468547768087 0.05408411577840512
0.17169884882810488 -0.07212327221744172 0.0541380470224669
0.17228143409870236 -0.07253372055019622 0.054618236325431266
0.17099433774275255 -0.07083020511661231 0.0540097197449721
0.17137828803036545 -0.07132104504063368 0.054316287244982685
0.17072850660725353 -0.07007574829697252 0.05403718307212868
0.17065705753798932 -0.06935718369578509 0.05442871300312911
0.17023659753179168 -0.06812310399245557 0.054254607572793434
0.17053507226789105 -0.06853766968200656 0.05476695495113317
0.16977342385628605 -0.06666596896178278 0.053766022495733964
0.17003015544774222 -0.06729394480029414 0.054228432978987905
0.16962310581003473 -0.06586647532253183 0.053727908674902264
0.16991087130880658 -0.06632969590957334 0.05452420545367829
0.16953422484977634 -0.06494612284183818 0.05394833033120086
0.16947585743910634 -0.06410046870450611 0.054102647793741965
0.1692127256648124 -0.06281158097131796 0.053816790731053936
0.16942325164412986 -0.06328132452883747 0.05436267696493165
0.16884748839585184 -0.061289721763168686 0.05347505161200611
0.16908114240559835 -0.06195494054223844 0.053812047234571295
0.16863371826921802 -0.06046396986982849 0.05355998487762554
0.16896644212107936 -0.06104017372155816 0.054189477168223234
0.1682111357971608 -0.05958121864332818 0.053351003956334415
0.1683887585930477 -0.059773028874604936 0.05364893122502227
0.1817639099374807 -0.10009167598904159 0.05499675602004784
0.1815329285794341 -0.09950919177897212 0.0548996759477889
0.1812625931827202 -0.09880868101792974 0.0550993560614949
0.18087999442960428 -0.09790776734421591 0.05526411968921646
0.18050226306457542 -0.09700390659903771 0.055396363605379674
0.1800938872735022 -0.09611294173033298 0.055536195201826316
0.1797175431602735 -0.09523298114188732 0.05570591340579622
0.17884037420031393 -0.0936326501681147 0.055054093866200686
0.17933112869290552 -0.09436158931775132 0.055842827017310845
0.17850040190555105 -0.09284433904713772 0.05518460122470215
0.17819154605032772 -0.09209048056630188 0.055326020528840156
0.17795322562237204 -0.09131173425258 0.05551699882043997
0.1777383271366947 -0.0904798350468644 0.05567061162550471
0.17759544911861927 -0.08970706844012419 0.05588442531170725
0.17685580618386457 -0.08810826655747038 0.05512015923547931
0.17729006445767437 -0.0886974539634155 0.055786781919081874
0.17655746091676489 -0.08727078916294169 0.05506391422521646
0.17695539740148694 -0.08772293538887868 0.055682473068104955
0.1763622458516157 -0.08622710961031825 0.05549225290657174
0.17611335609371956 -0.08551993317508073 0.055541798332465205
0.1754113689011884 -0.08421458285674115 0.055186092235584724
0.17589341992003682 -0.08474112988302268 0.05570037636107475
0.1751111276752268 -0.08337158053511329 0.05516508680272623
0.1755823584647725 -0.08386382212765695 0.05576022677046954
0.17487215859349792 -0.08259271373522718 0.05512198942712278
0.174274335613069 -0.0814181685131536 0.05431873825262313
0.17466524482197548 -0.081748290871718 0.05498275728246961
0.17471650133973213 -0.08061627168829938 0.05527582709086913
0.17474336003299998 -0.0796090645234568 0.05543082748143183
0.17472678278335724 -0.07867987787437282 0.055466186855439976
0.17466029609531694 -0.0778222014949469 0.05547191382576018
0.17460376232838848 -0.0768567035859189 0.05563722232472972
0.17404653738879075 -0.07551692618926306 0.055092942108988914
0.17441861246564172 -0.07603304341648931 0.055535093925210485
0.1738465009610206 -0.07487546880420659 0.05510982169834941
0.17321005847943868 -0.07378211220712044 0.05487512015202711
0.1736427681700267 -0.07424565604301081 0.05518211561585813
0.17290935456314166 -0.07295016841700903 0.05507624723299092
0.17352794413663133 -0.07332635313553876 0.055595679841128086
0.17218997132081426 -0.0717075774552581 0.0551472540457608
0.17259804318967334 -0.0721385951877693 0.05531242954079946
0.17135688588767273 -0.07073003380633264 0.05474231105528091
0.1717383763743837 -0.07116459245215943 0.054981460702086676
0.17110355813199488 -0.06996306477227751 0.054859784187769524
0.1716462771576053 -0.07030509727492502 0.05546481583499752
0.17094405736579055 -0.06897046802327932 0.055299379723650684
0.17039579144902153 -0.06769636321468497 0.055027823193575964
0.17076811620581275 -0.06811158389584097 0.055586185537004236
0.1702676760809645 -0.06672818473434243 0.05532002408832059
0.16982253559590985 -0.06536973930016443 0.05477806787731919
0.17007977605937738 -0.06595742817794162 0.05527168466516757
0.1696903939874762 -0.06453637639450285 0.05469469994220409
0.16969624207231945 -0.06377640178265229 0.054967859965641186
0.16936635916208798 -0.06242569048647153 0.0545656092451461
0.1696549195140972 -0.06291808383792373 0.05516561346103417
0.16924725383256511 -0.06155520696728079 0.05473242982815826
0.16886106949107982 -0.06041246867287034 0.054436113363920825
0.16909051470362615 -0.06078186987680905 0.054901688457087636
0.16835656816717717 -0.05957625163416944 0.053835510565073
0.1686281593872254 -0.05995237472057848 0.054194348671449386
0.18185012733250303 -0.10019844552948191 0.05552429899464387
0.1816562622117285 -0.09967263689852915 0.05550959365000831
0.1812909383229762 -0.0986748516873153 0.05594156440135847
0.18098803320956483 -0.09787840251556819 0.05624882891229207
0.18065057089530018 -0.09701553999766918 0.0564037862132906
0.1802747715572145 -0.09611689410950647 0.05656431080015235
0.17989005321946908 -0.09512893733286192 0.056811649418215114
0.17895249947019629 -0.09345802507183244 0.0560319224326635
0.17942914226256576 -0.09421202535981255 0.0566402709147611
0.1785594822243753 -0.09264171782194866 0.055888079720946435
0.17836479454293955 -0.09195395412829636 0.05614942047466011
0.17812540401066615 -0.09109482615617503 0.05631065032420105
0.17793676068476888 -0.09025170879741218 0.05644829548204622
0.17777577388158883 -0.08936507342506086 0.05660750519378067
0.17763733511144003 -0.08854869555694411 0.05674129926876284
0.17683708561089162 -0.08692958642648022 0.05595995326524136
0.17731187123005415 -0.08767541991422759 0.056506941110159
0.1767105319525316 -0.08618934095892583 0.05622167952921707
0.17714757459944824 -0.08658249343819757 0.05681061848744879
0.17641744420317296 -0.08545934678150435 0.05615860173287055
0.1768351409358534 -0.085813581548834 0.0567096225463499
0.17633575310689673 -0.08467714000681222 0.05653292223601638
0.17551271749519534 -0.08325771208991631 0.05599549726422561
0.17607410537321652 -0.08372008952393349 0.05667407001692268
0.17519796636483267 -0.08246934744469496 0.05578595927018355
0.17566681663798178 -0.08282908431773583 0.05647916887614126
0.17511633744064853 -0.08138474443509668 0.055959597514586436
0.17511107500350673 -0.0803299124763243 0.0561440053145648
0.1751245362710049 -0.07920990533117934 0.056331745831027825
0.17495517803532273 -0.0783007765314495 0.05608550961566314
0.174949699207552 -0.07755263176500841 0.05623499916580102
0.17495149934554916 -0.07684303859306695 0.056423335332671166
0.17444177577843867 -0.07544280823015034 0.055826483362763
0.17481706295743318 -0.07597928492199756 0.05638235911644121
0.1742596104522674 -0.07463917229701221 0.055881824091383356
0.17466203861502178 -0.07513730843361052 0.05637254579018584
0.1740733630230754 -0.07361348563916285 0.056114940155429616
0.17349743563155587 -0.07250964687540629 0.05609745063341374
0.17390771321143286 -0.0729083373193588 0.0563008253036276
0.1726130770432298 -0.07153589453859545 0.05577780161951215
0.17303987823381384 -0.07197427923765701 0.055948431450101366
0.1723015729423926 -0.07071782749585559 0.05599981269215776
0.1729978102531605 -0.07114381964837604 0.05647197850616726
0.17150728737508983 -0.06933292968961993 0.05594418608683448
0.17197249228877035 -0.06985260822523627 0.05620662583973989
0.1712071483792565 -0.06839259621280279 0.05616271818793863
0.1706661961414461 -0.06722420112100057 0.05594589159624089
0.17098901052023363 -0.0677185427751919 0.05625627251035665
0.17052710624548784 -0.06657982851958988 0.056040125431990516
0.17009268550235593 -0.06537199641173973 0.055597299444831966
0.170422289777563 -0.06587304830993221 0.056111131065362724
0.17001258329708172 -0.0644635586266213 0.05563326861822258
0.17029232959381638 -0.06505274012308937 0.05615260017095544
0.16996316457323427 -0.06339162764282419 0.0557642230160234
0.16957995693493252 -0.06213154262865375 0.05533082467952691
0.16986679189519854 -0.06269895445485671 0.05578698604006893
0.16930249481248258 -0.06119679427731871 0.05521000038457456
0.16893902998794755 -0.060300276535784916 0.05487386933811846
0.16913818501718786 -0.06064157810164595 0.05521183864983766
0.18128156295910564 -0.09835692432591876 0.05691096289440679
0.1811032616635098 -0.09781841362197471 0.05719997981928633
0.18079974929052192 -0.09700609688551423 0.05738414724322404
0.1804741730169287 -0.09614265781121151 0.05755973070783339
0.1802258859005852 -0.09542062613043276 0.0577992375175461
0.1792383511764037 -0.09365518386185084 0.056905581489321476
0.1797469719969796 -0.09439856323082704 0.05765721681557377
0.17885441222852275 -0.09277727790353138 0.056752545540965385
0.17927172224211488 -0.09338271944629414 0.05749151979811122
0.17857246871379137 -0.09169636423519802 0.057091809328706854
0.17827362740499275 -0.0907916150116903 0.05696787417000018
0.17818548572157727 -0.09002652199562376 0.057225671589761135
0.1780892112677726 -0.0889662346619673 0.05755600440232183
0.1777430608674479 -0.08805856063092427 0.05724387684893848
0.17760198875418443 -0.08726534360626056 0.057343136854867846
0.17751504075006247 -0.08654436889258325 0.05752985693569086
0.17673943212813226 -0.08513945162306275 0.05694481849614006
0.17723614934235468 -0.08576567600315445 0.057439398920289306
0.17660194279362235 -0.08437019234247396 0.057171782621519014
0.17708093760860782 -0.08483057841329311 0.057677745894428284
0.17652978439743552 -0.08384782395639065 0.05736434768262377
0.17689715466489175 -0.08404891960823821 0.057826575299223686
0.17556987714697891 -0.08202046793044224 0.05663892141757641
0.17604876113337065 -0.08263030704773015 0.057194668229946594
0.17659495018863003 -0.08325996870116349 0.057769797184065344
0.1755123577249451 -0.08104953169728843 0.056826501398278564
0.17597099907515482 -0.08167914015494626 0.05746345533403289
0.17550299479581488 -0.08005432501343156 0.057018755091948904
0.1759295425849523 -0.0807266917514194 0.057667347075172584
0.17552300725095346 -0.07921735056235611 0.05719354977953981
0.1759466032338058 -0.07970423416793819 0.05790720199318203
0.17535462155693124 -0.07823309972540633 0.05701149966382157
0.1757505575340505 -0.07883913891555928 0.05771469623605437
0.17521306445723644 -0.07728562328680845 0.05688969150430359
0.17521368148113023 -0.07658186780038978 0.0570617752865902
0.17523910339960846 -0.0758949777872862 0.057235206003553134
0.17475082130572298 -0.0745743426292573 0.05671157180484904
0.17510603164676364 -0.07513207286884059 0.05714576778175889
0.17462185171369277 -0.07385064962212683 0.05678931783575834
0.1751185682302007 -0.07421726269727527 0.0574322163143863
0.17396070136402808 -0.07236011327917248 0.056721220263011865
0.174437303608908 -0.07283439457727776 0.05705637525807414
0.17374607813163323 -0.07156934136521492 0.056995992500658905
0.17422031790710552 -0.0720703408156703 0.05722769765446777
0.17295036220240695 -0.0703435196048258 0.05697802471144884
0.173390974114301 -0.07076346906471931 0.0571560936949912
0.17201206359670743 -0.0692376065288088 0.05664591919423935
0.17250470610277985 -0.06961958633192007 0.056948923151609036
0.17182311702262798 -0.06849076706774597 0.05690296408603684
0.17229808921382062 -0.06887838391100118 0.057204402407996374
0.1710016325012385 -0.06718354656686988 0.05659731532131965
0.171408695255379 -0.06758752526609908 0.056945741581275924
0.17085146021643474 -0.06642961467387541 0.05670343830768918
0.17120748846221565 -0.0668688123288798 0.05710462488900512
0.17076089340965964 -0.06572696466901387 0.056801616956939846
0.17037900274413775 -0.06446953766259224 0.056469946973038025
0.17065089346030932 -0.06504524543037452 0.05681851870009329
0.17029108780860744 -0.06377659301905009 0.05645359016454233
0.17060942639535334 -0.0641626351347537 0.057030049544607324
0.1698836535732748 -0.0624786828163171 0.05594735612189068
0.1701281083490464 -0.06305008585511433 0.05632079044011485
0.18129505220114145 -0.09819946945103433 0.0575935376146116
0.18114907481801537 -0.09763741124468617 0.05799015204396758
0.18094809876799062 -0.0969348587792219 0.05827743872044621
0.18065445396583255 -0.09614362146929409 0.05845375892403167
0.18031860262432048 -0.09530153816041284 0.05854451074997252
0.18003648915885878 -0.09452850542471203 0.05867608024631683
0.1790482165323301 -0.09256445376093954 0.057743515908703226
0.179584412243144 -0.09350462343136758 0.058446349480114033
0.1788491804355668 -0.09173353620636193 0.05795900070328658
0.1792379636366335 -0.09222676461113055 0.05874279119187109
0.17856449259872462 -0.09085144552432296 0.05775640362036592
0.17890629680003034 -0.09127922172012913 0.05847931290598569
0.17845287937481277 -0.08989441089353076 0.05799220812463034
0.1784372338616681 -0.08927844847801332 0.05825824218640142
0.17835516861359776 -0.08870684115570347 0.05829834011684887
0.17866990202722205 -0.0890996568248941 0.05887799761046967
0.17809951621705214 -0.08787371717907995 0.0580862456823781
0.1784891979786214 -0.0883611080899629 0.05873419749317131
0.17783277450996332 -0.0869603629896097 0.05795275734065558
0.17775398756183552 -0.08623212705513066 0.05813964175757322
0.17759838221653584 -0.08532422986665462 0.05830181086010872
0.17741340697611951 -0.08442680332108407 0.05843979687989764
0.17721265440269288 -0.08359391048730838 0.05854093151660184
0.17649050864742888 -0.08223590399282972 0.058071589500492286
0.17704770129216252 -0.08272303991971006 0.05869516846745801
0.1763959157488144 -0.08131145382662094 0.058264471820607504
0.17636030112708034 -0.08045690666470443 0.05843912762500208
0.17641514742030562 -0.07974221738335925 0.05868331262327347
0.17578823480827796 -0.07819834297533018 0.057919323691772634
0.1762582016293876 -0.07880037018616057 0.058604321849836584
0.17564346834524322 -0.07723870907094553 0.057799149503174475
0.17609187669355544 -0.07784834131795691 0.05848409293828844
0.17551994290297143 -0.07629586346787492 0.057726542516448126
0.17557757674790322 -0.07556285330077823 0.05790498690533348
0.17557549967027708 -0.07470283471478988 0.05806938878116048
0.1750272560734532 -0.07336970706914786 0.05767694334543207
0.17552703816214676 -0.0738386413674721 0.05831903062952386
0.1749550161771804 -0.0726657317622123 0.05794866649328875
0.17427303624790513 -0.07168625752486779 0.05755184976009665
0.17466271136783354 -0.07201956637048554 0.057888328066745445
0.17341417272142504 -0.07022540714283562 0.05758169713622505
