# .PCD v.7 - Point Cloud Data file format
VERSION .7
FIELDS x y z
SIZE 4 4 4
TYPE f f f
COUNT 1 1 1
WIDTH 789
HEIGHT 1
VIEWPOINT 0 0 0 1 0 0 0
POINTS 789
DATA ascii
0.16253496626339886 -0.06831493837723052 0.07914766322560916
0.16174543916397544 -0.06692437380438916 0.07854837733560317
0.16130741837533158 -0.06630044574011136 0.07864953530829911
0.16062214018011242 -0.06515081775802424 0.07844950643569647
0.16096790315299525 -0.06583692277514454 0.07875991957890652
0.1600413564917275 -0.06434105124966054 0.07851937956909918
0.1596694437748432 -0.06366148838994876 0.07822219564657391
0.15928871798561633 -0.06321946545492453 0.07831831437413496
0.15955198865536616 -0.06389072953255029 0.07890651307586306
0.1587844238256937 -0.06257333553014735 0.07832757313316571
0.15843382624075264 -0.06196835662804096 0.07810168665605345
0.15808093963254505 -0.06162665439304974 0.07839059518297291
0.15840467077476905 -0.06223845433150834 0.07860899718102186
0.15760130705272116 -0.06097390458732276 0.07848566801687651
0.1569440648996011 -0.05964778319343973 0.07806051760113825
0.15716851596696893 -0.06043214134505438 0.0787051089965856
0.1564631368064987 -0.05894237108452776 0.0782228683925901
0.15616211399923544 -0.058223914364086284 0.07794640018347788
0.1558858297456399 -0.05779539167296307 0.07807251770577252
0.15604606717157532 -0.05848253942109152 0.0786571184513861
0.15554910797129523 -0.057212634333498935 0.07812649007475311
0.15521132387905556 -0.056627122289316704 0.07818142767258887
0.15467441117193487 -0.055474374963852754 0.07801492090371367
0.154936326234881 -0.05619521017075146 0.07829953522732527
0.15426016144623314 -0.05475385600500358 0.07812044563954652
0.15362990950983774 -0.053605340707318476 0.07801277106973123
0.1539551771390206 -0.05429671525344379 0.07825601475700956
0.15328257006075835 -0.05293661000633199 0.07773059393227487
0.15294710530645345 -0.05252643940566095 0.07786036925124198
0.15314691722934434 -0.05312275796252833 0.07843911314552134
0.15256439427600912 -0.052026909414541946 0.07796703252142112
0.15190007232342773 -0.05105905633590623 0.07798651347306072
0.15223780780566606 -0.0516284773540161 0.0781393316764754
0.151132406500407 -0.04965783761839337 0.07770116033234058
0.15140318473932762 -0.05042430088321407 0.07833715938359258
0.15084302871578018 -0.049039781996716346 0.07756100006577542
0.15055226028604052 -0.04859394344518659 0.0777297259601056
0.1507038894033143 -0.04919351743213628 0.07823270709033561
0.15019770029695656 -0.048020977582057936 0.07780506384204841
0.14967398802507434 -0.04715776955509852 0.07768627122764886
0.14993992429227376 -0.04761187698863653 0.07779403430993866
0.1489964073908239 -0.04624482334525935 0.07776832813857125
0.1493319163821269 -0.046731498683743114 0.07777784074903972
0.14783755167657925 -0.04408492626250281 0.07770457554177146
0.14796668663276383 -0.04489334581296069 0.07817431736465355
0.148374423267022 -0.045604922146834516 0.07815623614542253
0.14761703338482735 -0.0430642815920875 0.07760013132381215
0.1472650029801762 -0.04293666324568246 0.07824998513220642
0.14737399497664835 -0.0436533692218143 0.07840202530076576
0.14731954527091373 -0.042338449827651295 0.0777942738632739
0.14703061805457796 -0.041666830103580355 0.07800958212759551
0.14696975164741427 -0.042442714094635424 0.07851753177413606
0.14670628262841828 -0.04102516437975794 0.07825972333047418
0.14617865533493885 -0.040128465289306386 0.07870374662445659
0.14632618450163187 -0.040554344148751115 0.0786888901647472
0.1728952741523097 -0.08373811268232333 0.08040542900499197
0.17259379898467145 -0.08332567972579723 0.08060422647074429
0.17208379392646556 -0.08253102238742592 0.0806544415319748
0.171516284737107 -0.0816427756132296 0.08066396685884537
0.17078897563269174 -0.08073429121971923 0.08063641979461994
0.17026665059267265 -0.079928668611985 0.08018776371726054
0.169857554388048 -0.07936953033926307 0.0801930599099971
0.17018692799729504 -0.08009188045994585 0.08095481375334035
0.16933681152204835 -0.078678671074274 0.08016525941078054
0.16873417435921506 -0.0779228968180978 0.08021905713369576
0.168106513999172 -0.07708380243176183 0.08030006737980981
0.16767434955124216 -0.07635866422648256 0.07995186701696126
0.1673299808517145 -0.07583989762262185 0.08001083667761438
0.1676419738188025 -0.07646859380663529 0.0806890161266075
0.1668945581790588 -0.07516634585870596 0.0800535853267957
0.16644649648459697 -0.07443347492976476 0.08016207944482555
0.16598378561379484 -0.07370537188756708 0.0802935116939471
0.16515767486312735 -0.07229731503489144 0.07964149474505594
0.16553075363489617 -0.07298718863485167 0.08045409841635774
0.16467892650971486 -0.07159086140104376 0.07981106929905997
0.16422115683462976 -0.07094699490280357 0.07989600721133508
0.1634420956731274 -0.06978631662508002 0.07969296444017646
0.1638655891245809 -0.07045437045306463 0.07998490512455396
0.1628896903460309 -0.06905987765892845 0.07989209562410594
0.16203755871352354 -0.06767704636132046 0.07935640485435329
0.16238541551351313 -0.0684324045353053 0.08010326178819832
0.1615106504702379 -0.06695695319890439 0.07955019217136006
0.16112226578964012 -0.06627298397662477 0.07926290131360311
0.16078508685258136 -0.06579358042320156 0.07935066787570044
0.16106286884172819 -0.06646049161708734 0.07999683808512749
0.16033042932313446 -0.06515905775296212 0.07940070977164305
0.15984585063871623 -0.06454777866297276 0.07948439230934869
0.1590124907719361 -0.06340150769675222 0.07931064665456095
0.15945987599444109 -0.06410397317324328 0.07960198833180873
0.15856707778497264 -0.06269297963869781 0.07903581869688016
0.15820923834608502 -0.06228526022432563 0.07917226125209957
0.15847753884522844 -0.06293251575069984 0.07974393412079013
0.15778051224391001 -0.06171470424597467 0.07925905159736445
0.15736593701176685 -0.061115045458088775 0.0793288573632182
0.15673398436436448 -0.05994832553971426 0.07910238434848599
0.15704762709956768 -0.060651844933565666 0.07940732174194204
0.15626667388446358 -0.05925820636547722 0.07928147557345686
0.15567011254509433 -0.057944826372877206 0.07887933622222554
0.15587013378814035 -0.058703083170207 0.07951762934229235
0.1552786306874488 -0.057273553073506095 0.07897038455010197
0.15502472480126595 -0.05665775171649521 0.07873965549852643
0.1547392785841262 -0.056278276186328725 0.07898660974580948
0.15498792443662537 -0.056908613724429555 0.07923362657709439
0.15431781139738554 -0.055465347718519624 0.07900126154816456
0.15404181106807666 -0.054767863897286495 0.07872383976407406
0.15375092795940995 -0.054343804436191585 0.07886515849379841
0.15393903175674276 -0.05501300436374151 0.07939112366444007
0.15337268880059782 -0.05381323762246059 0.07904998611958826
0.15268969664429355 -0.05257954444960267 0.07874386232292249
0.15296865695494824 -0.05331210612962601 0.07931975796694812
0.1523618527573607 -0.05199939424109012 0.07857625847623641
0.1520490898263925 -0.05161425773989023 0.078759031243319
0.1522745035310676 -0.05219551547758041 0.07926927561212163
0.15164559528232371 -0.051092719459366144 0.07898680167916045
0.15096533223039832 -0.04987101091644012 0.07870394166887519
0.15120480281936866 -0.05053199536959011 0.07929249487622367
0.15023586369034947 -0.04859528898826498 0.07860393392262952
0.15054775242505689 -0.0493829076702826 0.07909911313217403
0.14977772465359573 -0.04773983681703905 0.07838785529768554
0.14941656761189018 -0.04760778434364005 0.07905730789567038
0.14975430976689091 -0.048215964753780816 0.07927906591463502
0.14918939825682448 -0.04697630347979606 0.07847021066282463
0.14875106675112107 -0.04676872971550608 0.07912429058082222
0.14902310989833822 -0.047261428225798506 0.07939749064868068
0.14864199054701033 -0.046316581366921315 0.07863196347442641
0.1482210367516086 -0.04592337002907482 0.07893916624256965
0.1483717278970702 -0.046388374984514764 0.07936419362756376
0.14755034978795173 -0.04449845952900097 0.07870466129694625
0.147833294533884 -0.04534033250666739 0.0789969007802485
0.14700066659461786 -0.04322220508556032 0.07889358046838399
0.1471173262897996 -0.044026104697844556 0.07924985787443617
0.14661114145061543 -0.04178219386787235 0.07887690091917243
0.14664373436803438 -0.04271419784026209 0.07929175340485468
0.14640099576248564 -0.04109629507151463 0.07890048788487286
0.1461267012937075 -0.04083320190990694 0.07923926333734317
0.1461968715983716 -0.04142550329098191 0.0794568193136368
0.14583158774815197 -0.03993873308372948 0.07923781741565744
0.14590398940027782 -0.04029763717428782 0.07938236803308356
0.17267302279799465 -0.08384039380022226 0.08134619795262903
0.17234775400074095 -0.08340160302034465 0.08158779100522914
0.1718536767243713 -0.08260739759385612 0.08166016513642535
0.1712613157001966 -0.08175247056112732 0.08168983462718339
0.17061631381779843 -0.08093833037739383 0.08178367952702897
0.16966858882841265 -0.07940181466934967 0.08105362352804574
0.17004830021087838 -0.08016884866307339 0.08191375142986725
0.16910099155876937 -0.07867201179208264 0.0811141163919253
0.1685458424973356 -0.07791556983811788 0.08121049391897191
0.1680216216865353 -0.07721153894575557 0.08139298716769533
0.16721522342783401 -0.07582298041374079 0.08085829122397406
0.16756049803500753 -0.07652860541923462 0.08161849434747773
0.16676066847556717 -0.07512723449321021 0.0809831628706105
0.16631524929988675 -0.07440724266218936 0.08111350888969315
0.165877016821226 -0.07369040737672877 0.08125738911785108
0.16503916943434366 -0.07228576519041703 0.0806296958064814
0.16543499218039248 -0.07299911678499768 0.08142855016733906
0.16448738459537188 -0.07152879356535348 0.08080574782440225
0.16405751019576892 -0.07085259815732284 0.08050130236237181
0.16370222359469727 -0.07037101701051347 0.08058915188644107
0.1640305308406285 -0.0709941861884142 0.0812375440237518
0.16322725864715668 -0.06976606024634825 0.08066968545656908
0.1627351098267186 -0.06913815588494353 0.08082789001260045
0.16190801273762537 -0.06781875234504996 0.08036412053822087
0.16227685530634026 -0.0685666847428378 0.0810340843835373
0.16142571372421508 -0.06722124224543878 0.08065912656808093
0.16061891637385317 -0.0658839460930664 0.08021496220247915
0.16096181855825187 -0.06663201372494139 0.08093322615956275
0.16006963581016523 -0.06520649336339135 0.08039299544380255
0.15964263256188455 -0.06454275801789854 0.0801077650299075
0.15926758942696098 -0.06410479501635272 0.08021444962653376
0.15959391464720268 -0.06474181500692264 0.08084816334696882
0.1587978940859985 -0.06359367649811715 0.08034831626725589
0.1580175345305781 -0.06242922248680823 0.07999453567400497
0.15833681804848126 -0.06311615447829234 0.08059447438936654
0.15751603612739215 -0.06176774562160228 0.08019487978256667
0.15716414598038067 -0.06109922353728975 0.07990810262792832
0.1568548338008708 -0.060632595011907174 0.07998657198036495
0.15709282186962123 -0.06128588138213659 0.08060974906659654
0.15647140859118214 -0.06000943858183916 0.08006219240056776
0.15608165974385954 -0.05939433155383594 0.08013745973422501
0.15544785648287385 -0.058136056621726835 0.07994382830956186
0.15577917549206693 -0.05891109312877033 0.08023275306632009
0.15510548500064017 -0.0573742068433002 0.07966627634464551
0.15482123458109437 -0.05692288185568856 0.07978165373086385
0.15502779633935773 -0.05759437405098113 0.08038286093069665
0.15447510265887696 -0.05629038203586043 0.07983970429102702
0.15412490047170505 -0.05567410293827505 0.07992407093405085
0.15357778620320459 -0.05458730317335572 0.0797972101467223
0.15384979937571974 -0.05523629454076609 0.08004452788558825
0.1531755155062733 -0.053944805865836346 0.07989641359112386
0.15256457706034832 -0.05291039791874263 0.0798205837991437
0.15287549949670337 -0.05351136870872538 0.08001956268889915
0.15187224871849844 -0.051730171459478246 0.07960633801668575
0.15212809936690022 -0.05236958318164657 0.08012517175591867
0.1514410367202193 -0.05119314343750255 0.07992438116891336
0.15079792694718505 -0.05000241267984599 0.07954801884678715
0.1509725148770613 -0.05058834786652193 0.08025083215533094
0.1501318585348401 -0.049009616294123204 0.07971024649911719
0.15048381081776852 -0.049608927465599174 0.07978130211235782
0.149330226721259 -0.04785157254473502 0.0797769207419509
0.14964954329198987 -0.048491789261620365 0.08017084621499204
0.1486008551896561 -0.04690252851629113 0.07979662367913679
0.14890151804319948 -0.04746798913760402 0.08018330984043913
0.1479690345714506 -0.04593947304455179 0.07956127240722889
0.14814120723625693 -0.04645462774947338 0.08018271132870293
0.1473435345027532 -0.04489091318764739 0.07970177182858476
0.14764316048708978 -0.04553604225938325 0.0797593512363603
0.14674069766853304 -0.043504152365279665 0.07969104316875376
0.1468865930089962 -0.04425497100776187 0.08014248777703144
0.14628493625901867 -0.04220418768990951 0.07972913980579789
0.1463898294730769 -0.04298606874999773 0.08009517105745378
0.1458454496667125 -0.040981277040010325 0.07986456473918994
0.14592150033946452 -0.041746043277701844 0.08019647748677142
0.14553677114890223 -0.040005072235317095 0.07990858764397474
0.14547720089499258 -0.040455730823270954 0.08031728602448585
0.17249678546625358 -0.0838856118777872 0.08232268714974912
0.17217752227030889 -0.08343576250996163 0.08258054875711118
0.17169025894616838 -0.08266189161120183 0.08267089176954459
0.17110506887215582 -0.08182604835025348 0.08273444782601595
0.170497178461158 -0.08098690667354597 0.08282840361783374
0.1694854559736206 -0.07941167014234603 0.08200575835307193
0.16989056194836705 -0.08016838987334673 0.08289086598477927
0.16893626410484422 -0.07865693718638087 0.08206079004397725
0.16841613458483817 -0.07796157567741845 0.08216464262287872
0.16793970979355977 -0.07728236105878558 0.08237346377307951
0.16711555322036278 -0.0758375171988906 0.08178897413128286
0.1674881978976468 -0.07657887811336372 0.08257726521834745
0.16665042714070255 -0.0751240536774183 0.08192950703857012
0.16621871746721587 -0.07439627276196621 0.08206683912151938
0.16579088292200436 -0.07369603494100299 0.08219848557673018
0.1649464213354855 -0.07234718078902624 0.08165438848891232
0.16537887269320434 -0.07306954910305331 0.08237230415006742
0.16444549274220663 -0.0717176345584628 0.08192803748067776
0.1635678148503606 -0.07041747983484152 0.08143897620329724
0.16393644865657309 -0.07110207948001326 0.08217246869217405
0.16306396131065257 -0.06979957281575494 0.0815912992341273
0.1625977325742929 -0.0691934991544503 0.08167776440156459
0.1618313295949071 -0.06806679704146522 0.08146722131045224
0.16223285499823217 -0.06873391060220371 0.08176246920894449
0.16130811784568258 -0.06737152669358269 0.08164781349460273
0.16048691825629824 -0.0660578021038604 0.08120532273918335
0.16086757436655447 -0.06680058488072647 0.08187237040274034
0.1599842157311566 -0.06547842143023508 0.08151330666826219
0.15911398949747743 -0.06422536184133107 0.08106677832567047
0.15948251696302868 -0.06489676638884961 0.08179414167351647
0.1586442231003452 -0.06370481367685496 0.08118102588399154
0.15789763412198565 -0.06265207146552168 0.08102916480629309
0.158287750731617 -0.06328427833749682 0.08129549409102885
0.1574011867039184 -0.06198398598286289 0.08123693711885714
0.15670507716895396 -0.06073283034561975 0.08084560738695441
0.15699984120872934 -0.06143953905176168 0.08148266243416503
0.15625685682904555 -0.060043544708535714 0.0810294443356912
0.15591721544279558 -0.05937055767148877 0.08073722422558999
0.15563618917455763 -0.05889068257672364 0.08085550565548164
0.1558888686951044 -0.05955494123706327 0.08146117209737244
0.155284090935814 -0.05831303713965118 0.08103007090861088
0.15465895331214866 -0.05701482412707172 0.08059266305714377
0.15490990005047173 -0.057738860694577454 0.08128563909957258
0.15425432277594545 -0.05631696607222834 0.08077285354138566
0.15395526150585626 -0.055662360106403706 0.08051183111640067
0.1536837536458846 -0.05519774319108383 0.08062324800198253
0.15390341148911962 -0.05583229560591068 0.08122016785501467
0.15329076486935828 -0.05453507100177541 0.0807294601009678
0.15298322809039594 -0.053909577721336026 0.08047665034081276
0.15268682823482302 -0.05347465594904469 0.08059851889796742
0.15290476479164491 -0.054064623915899584 0.08116581497346895
0.15233327497186885 -0.052945741167784034 0.08067259116622363
0.1517100196084032 -0.05191767113892016 0.08059622618119719
0.152022959982971 -0.052519091232558185 0.08080229095335753
0.15125602395742999 -0.05129170215525751 0.08081449945254242
0.15063104609965117 -0.050010199527681896 0.08016329186364239
0.1503284064040323 -0.049621856150315856 0.08039558965973459
0.15058246868215064 -0.05021467116678924 0.08083536026846037
0.15088204320415788 -0.05084220444064718 0.08117436396184255
0.14993941057976654 -0.049127710270830925 0.08066328989629944
0.14922897791407472 -0.04807064787893677 0.0806066257916041
0.14954302766783645 -0.04867185329598589 0.08101077728917944
0.14848547636098647 -0.047074948631214975 0.08056845346868399
0.14880171518008187 -0.0476498778697059 0.08100423426256598
0.1477643640323192 -0.04593291600354343 0.08016265852666928
0.14745255146956068 -0.04551929725441051 0.08041180354253957
0.14773386182642964 -0.04617224169705226 0.0809228041429377
0.1481377999068896 -0.04674097091052444 0.0809329338814093
0.14707252317807015 -0.044942178076874104 0.08069416041780786
0.14651217262281152 -0.04367726285280583 0.08050864000623716
0.14665693830576607 -0.044330595947137945 0.08103708636274837
0.14604757397598345 -0.042497636495489814 0.0805216452788753
0.14618464937919912 -0.043167172201717695 0.08083914903592732
0.14551864274277182 -0.04126164095506098 0.08070238190235543
0.14570330375137464 -0.042035551496311725 0.08097922080082613
0.1450876248991292 -0.04000572465010867 0.08087422540671454
0.14505338439500864 -0.040608829527376336 0.08131307242706552
0.1446331319487399 -0.039599703754444125 0.08154676887684362
0.17236686748063287 -0.08389906282178436 0.08329563981865455
0.17205659635450055 -0.0834465020294058 0.08356251855327387
0.1715526839138241 -0.08267538508077953 0.08367348444811908
0.1709806276592236 -0.08182387003644917 0.08376858479223052
0.1703616668719904 -0.08093965000539328 0.08392811678770333
0.16931564039905364 -0.07935054277073503 0.08304369199137696
0.16978647319031445 -0.08010690653771559 0.08369438889586446
0.1687849527991855 -0.07858792207530525 0.08284354862418147
0.168375084396816 -0.07803613988955976 0.08312083121283681
0.16789927089221898 -0.07733772629207913 0.08335836060454459
0.1670226524976934 -0.0758618470872938 0.08274332557838672
0.16742688440921455 -0.07661351035338218 0.08355365818458821
0.16656981615906843 -0.07512414188374843 0.0828889486986291
0.16612058365677818 -0.07438751919037027 0.08300771917625618
0.16572000813900511 -0.07370243311756755 0.08305503461896697
0.16492617206998095 -0.07254448935288961 0.0827744507880742
0.16538924162409172 -0.07320212648635609 0.08311162146958197
0.16434491781611565 -0.07182787644424472 0.08293448783160706
0.16343339148541083 -0.07047781981538448 0.08238019543738512
0.16383344674139486 -0.071196865375403 0.0831339138298993
0.16286007410892317 -0.06978488736903933 0.08256334324194292
0.16242705058664522 -0.06914004319336131 0.08227366382598632
0.16206867375815534 -0.06867459572618882 0.08236428604232643
0.16240857586621155 -0.06929422746481824 0.08300107250578206
0.1616228054194733 -0.06805776821041495 0.08244068729162449
0.16117549303352716 -0.0674446850911809 0.08251245391612115
0.16043492727288322 -0.06632303686148212 0.0823283146502167
0.16084138683824972 -0.06697917032195619 0.08261130625565692
0.15988839313488556 -0.0656330810807367 0.08253957157537774
0.15892474247225605 -0.06427502207744522 0.08202699812735337
0.15938863160522893 -0.06503425241834161 0.08277947889579976
0.15848372211390577 -0.0636741271181553 0.08177970672458096
0.15813223307500315 -0.0632422304912457 0.08189249950630009
0.15847683202290672 -0.06384285781380747 0.08249778733683755
0.15769516186344962 -0.06265102723207308 0.08199492613987437
0.15727837423143462 -0.062051816002201186 0.08209660143333335
0.15661894713603444 -0.06093893420482455 0.0818965528087949
0.15696274853632575 -0.06159855136004616 0.08219040476603608
0.15618297195062175 -0.060255955454902047 0.08208534993302773
0.15554963712640765 -0.059027138782408874 0.0817356000788694
0.1558320345197369 -0.05971312440363765 0.08233060659947959
0.1551896046665276 -0.05845270037943632 0.08198920442407934
0.15454088336326952 -0.05713357602091529 0.08153087526232207
0.15482387800855382 -0.057857138343530484 0.08222269281127867
0.15418053636425375 -0.05653828202669257 0.08182755352006019
0.1535565110276737 -0.05527864510095969 0.08146454367131213
0.1538255248564617 -0.055962691415833946 0.08212688009926446
0.15318650561083105 -0.054719585503597234 0.0817228900888881
0.15248507063095434 -0.0534936380975236 0.08146574562184564
0.15282175867607514 -0.05422108493056527 0.08203675633348517
0.1521447744825105 -0.052895438261830414 0.08125665899373943
0.1518341234863862 -0.05244980853674288 0.08140317577676376
0.152092433140436 -0.05304828610304823 0.08198430630701559
0.15142950197408253 -0.05184832964749519 0.08151950714829122
0.15111910229679654 -0.05133927423496081 0.08145609414092048
0.150895791490848 -0.051137054360621714 0.08189648026055668
0.15115471213193687 -0.05155920828059101 0.08189857216878482
0.1501864814543768 -0.049736966300492805 0.08122265956041852
0.1505027668508163 -0.05046048038237069 0.0818208263322896
0.1498018445383128 -0.04921992393162763 0.08146176644056999
0.14914197330747436 -0.04828761987394799 0.08152359774815371
0.1494958198577813 -0.04882956519317567 0.08165810560025621
0.14839870617565185 -0.04722971720129393 0.08136899879750925
0.14869632342165798 -0.047772253306504434 0.08180305008830285
0.1472820639861791 -0.04557885980171535 0.08128037170476218
0.14752177827541918 -0.04617634676326516 0.08188910120694105
0.14797124289795624 -0.04674893398649014 0.08166783054881104
0.14686790947764236 -0.04498640386985862 0.08162217638371155
0.14629381655114454 -0.04370804881862876 0.08127453468507531
0.14639423613750335 -0.04429272411946188 0.08201239246032518
0.1458541623365186 -0.042758429858247744 0.08132683083187205
0.14607744801068862 -0.04327594079794729 0.08133981704426972
0.14528091075958025 -0.04164551082633483 0.08162827890902621
0.14556474305206796 -0.04225672932467443 0.08152244327105229
0.14477550122998906 -0.03992711105005073 0.08150804402645044
0.14448546508748566 -0.03963389264883722 0.08191534312865634
0.1445819173643356 -0.04015300790336519 0.08206608223325017
0.14477424143506273 -0.04097635367902422 0.08224095736944685
0.14421989619975076 -0.03929805751872138 0.08220215465086919
0.1722755967054258 -0.0838764872728328 0.08421616005002457
0.1719688470800065 -0.08341588726385976 0.08449020048720195
0.1714623290089504 -0.08265485672084234 0.08464661618806038
0.17094646733646415 -0.08185310675937908 0.08477121708939019
0.17050678868893962 -0.08120697184432404 0.0849404133973542
0.16947255527229488 -0.07967302767900225 0.08400087707663995
0.1699767215071004 -0.08039802073590713 0.08466275138654106
0.16892847530701574 -0.07889550920975175 0.08384317022164228
0.16941009044127478 -0.07960900369924544 0.0848066059123798
0.16837907075224687 -0.07810450489949111 0.08414797799290828
0.16786115539331892 -0.07737157059876365 0.08436494979054332
0.16695566011079793 -0.07587503858771803 0.0837184786880086
0.16736617938367754 -0.07662935836525897 0.08454453765395002
0.16649230821969085 -0.0751262065928607 0.08386313596675446
0.1659912489648192 -0.07432098344309819 0.08398225532932857
0.16559499553290893 -0.07361698035576633 0.0836444587205794
0.1652345893034582 -0.07313652292178376 0.08369715176882707
0.1655693032997954 -0.0737708898354268 0.0843675421330472
0.16473513899514977 -0.07252274671408518 0.08374626891733102
0.16422674934063108 -0.07188342399164095 0.08388289517372143
0.16332565108686464 -0.07058858684634793 0.0833787325504003
0.1637444946331377 -0.07130212932313439 0.08406975972630847
0.16282105742336037 -0.06999436024957528 0.08365015205093215
0.16194830367234514 -0.06874234261545831 0.08323694514641496
0.16234354768155246 -0.06944470777602725 0.08390054070587212
0.16143209052346424 -0.06805310531454306 0.08340429513960262
0.16102944022989618 -0.06740061262695636 0.08311436361910902
0.1607110619040651 -0.06695029086602457 0.08323771978530256
0.16103065494585633 -0.06758462948434353 0.08380965743761219
0.16027481353242243 -0.06634800509223066 0.08335148947290125
0.1597870382337765 -0.06572638914078206 0.08350296679746132
0.15890891250371253 -0.06451933983023714 0.08310659309127563
0.1593370794789003 -0.06519307145117774 0.08372364031925804
0.15801962436986003 -0.06330339979209054 0.0827481479285339
0.1584242824030298 -0.0640004900874448 0.08344336843288169
0.15752063164624408 -0.06262646931998203 0.08295613762734261
0.15713760725442733 -0.06199281510510216 0.08268838790587758
0.15683325390513705 -0.06153382292487079 0.08277918877634638
0.1571287272708519 -0.06213977029977813 0.08339946184047647
0.1564536175210162 -0.060930870666052614 0.08285395565886979
0.1560865363370927 -0.06032752495841903 0.08293245789144257
0.1555026345147643 -0.05922771745386548 0.0827549515861143
0.1558144103492799 -0.05986670438728429 0.08302665037258776
0.15510668077565107 -0.05853954341918989 0.082923058631341
0.1544755181139022 -0.057268967048783856 0.08251223060119194
0.15476719409700854 -0.05796188847138334 0.0831325128765607
0.1541221879395492 -0.05666792060562506 0.08280539374268461
0.15346233394749836 -0.055376640363521794 0.08238106365699183
0.15376003443456635 -0.05604805522416712 0.08306368266394293
0.15310404499887906 -0.05482031891574371 0.0825647567465027
0.1524664606165694 -0.05379161179920165 0.08257608731025934
0.15281815049160413 -0.05439876395123747 0.08273464802978601
0.1516504816875868 -0.052449961951339094 0.08231347381002409
0.15201890613984131 -0.05317470265897033 0.08293533399515123
0.151306906711602 -0.05189669047424751 0.08220072657537203
0.1510446459273525 -0.051551379476224624 0.08243894985524748
0.15129830758554608 -0.05205356257663474 0.0828615813369432
0.1507056928017416 -0.05104522730526112 0.0826128680118953
0.1499838707995455 -0.0497560005762711 0.08217439209722013
0.1502892307973714 -0.05044893276861877 0.08285099417549145
0.14964765012739165 -0.04918358439565605 0.08205115416418671
0.1493237794500812 -0.04878020610530826 0.082253842633784
0.1495881910083831 -0.049318670154462306 0.08270331093699637
0.1489220547858969 -0.04824380839052656 0.08235139553411368
0.1483067290599421 -0.04738843216073129 0.082271315808864
0.14863195769979018 -0.047843506696392216 0.08234424681431432
0.14710315109745692 -0.04561172038294348 0.08218930722988099
0.14734086077923575 -0.04614222404377591 0.08267603816173248
0.14777237778941657 -0.04675840918786115 0.08264986966226415
0.14670530809854407 -0.04504784729341627 0.08253091523610155
0.1459740083236929 -0.04340567184319411 0.08193392237879149
0.14567264868575616 -0.04324980046548017 0.08264634670229194
0.1459838135265146 -0.04388290002835362 0.08275186631287865
0.1463324613767809 -0.04456536935302951 0.08296463939069784
0.14545533289406767 -0.042545931859743744 0.0821851598476763
0.14507353728604208 -0.042297773398997304 0.08290196019724061
0.1453162796588885 -0.04286096509954398 0.08304682438346477
0.1449933802725275 -0.041759230507487824 0.0825200431661901
0.14460848057844178 -0.0412321775965866 0.08292746311705596
0.1447274459257982 -0.041816823305798785 0.08324776524204257
0.14423557662419478 -0.03960217742113255 0.08248141771849399
0.14423488980034305 -0.04035752568846468 0.08304886278188932
0.14385690784789543 -0.039096216874372626 0.08278573104613368
0.1440215537225088 -0.03923854466796639 0.0826272986867958
0.17217521571016253 -0.08376517497278316 0.08488220394387715
0.1718552711933241 -0.0832521408727431 0.08531719077004364
0.1714240137107584 -0.08260336582775059 0.08559942509548475
0.17095457967714386 -0.08184985734917372 0.08569665255974984
0.1704213409346527 -0.08105643319525577 0.08567651906251535
0.16988143022398383 -0.080274327842574 0.0856496874122565
0.16888849466867611 -0.0788744348521921 0.08497952941745425
0.16938185868133135 -0.07956771062944618 0.08575803130611542
0.16834993357202757 -0.07813581663263011 0.08520734885094794
0.16781077602379152 -0.0773779792222438 0.0853792164064739
0.16690251099201134 -0.07589451965025425 0.08471008574943562
0.16732321089310667 -0.07665531673209908 0.08554129951182265
0.16643061878965903 -0.07517222934511165 0.08486982095531193
0.16596031660705204 -0.07450154087204364 0.08507074900558041
0.1651196467133404 -0.07318621836031224 0.08454587188205696
0.16550060471545036 -0.07388678360155457 0.08529288020230148
0.16461231044516142 -0.07255720715884326 0.08468284377645341
0.16411693535881447 -0.07192784471626427 0.08474587147846353
0.16327323280904968 -0.07077388999740973 0.08448723494827662
0.16373113524123756 -0.07143822320750376 0.08481531967287652
0.16271913404399485 -0.07008787589058527 0.08456032007598645
0.16188670136477185 -0.06891968280617926 0.084312313668799
0.16232373466597794 -0.06960247719239557 0.08464071765034309
0.16137358438828253 -0.06822805455882522 0.0843981899750065
0.1606476188112304 -0.06710675959287205 0.08420126071156911
0.16102816846918608 -0.06776419821441708 0.08450252767359415
0.1601434842988734 -0.066388206797464 0.08429133953094506
0.1596880627640583 -0.0657864573927216 0.08434443038830598
0.1589024213806732 -0.06475765079471037 0.0841889490441804
0.1593337151509706 -0.0653551095766352 0.08443600820189359
0.15794296531333454 -0.06340570232107166 0.08372225507406579
0.15836429240113706 -0.06412576105085704 0.08443886274619686
0.15749458453430915 -0.06283040152678769 0.08402431770964779
0.15674253172648714 -0.061581359703628664 0.08362848523042642
0.1570835632365764 -0.062272769474952805 0.0843236905721125
0.1563049506343432 -0.06091227094165417 0.08380461116920003
0.15596978233593664 -0.06026485290128697 0.08352019049583273
0.15570258316908336 -0.05980336478087821 0.08361723393135066
0.15596558805136618 -0.06042288590595746 0.0842367982119587
0.15536024119136033 -0.05919141284886068 0.08369537528736393
0.1550198498019828 -0.058566218132193246 0.08376217099359418
0.15445169973563785 -0.05744284379886156 0.08356530806393021
0.15475885582663226 -0.05809100597127795 0.0838432162252204
0.1540668441628094 -0.05673512409345078 0.083752524929961
0.15335488985102888 -0.05539648864347289 0.08336282747933682
0.15372645624698142 -0.05614661912086029 0.08399970957492624
0.1530022298661658 -0.054783709953548455 0.08317326488476287
0.1527183926020595 -0.054355638465873164 0.0833493212893372
0.1530231628874522 -0.05494119181055875 0.08389939972558746
0.15235257848307726 -0.053813242401490186 0.08356475707331772
0.15162742471724705 -0.05265241571928233 0.08332849883174612
0.1519687488404724 -0.05327610387249515 0.08389121926792087
0.15095049316685571 -0.05158944376312291 0.08320248857581083
0.1512567996624812 -0.05216517788873161 0.08373526717417001
0.15056687279856584 -0.051054707072628845 0.08350532062531134
0.14988082676017364 -0.04989223631088304 0.08313169647075223
0.15011822000930802 -0.05045126297785283 0.08387171694125437
0.14913548761836262 -0.04881008421625031 0.0832300972815678
0.14954740408606904 -0.04947135261785723 0.08338610550419491
0.14859133307827552 -0.047972229775509655 0.08297099108614507
0.148342232682195 -0.0478081936283584 0.08363097864637661
0.14866871739715487 -0.04832160862841688 0.0838520275856454
0.14813292819258556 -0.0473906619504382 0.08313776363693977
0.14778616627671395 -0.046997525038036905 0.08344600766509996
0.14801837701642465 -0.04742434543315101 0.08389011545060655
0.14693826587009925 -0.04566943142221581 0.08317806565819433
0.14738107410541476 -0.04644668706884033 0.08350844037104804
0.14657682866628044 -0.04508544797970613 0.08322925796284565
0.14632003025803572 -0.044797894661752 0.08360396157142846
0.14655659866774695 -0.045295654694874524 0.08388261003609755
0.14559564958083923 -0.043485409147777286 0.08330927777224692
0.14592633876424185 -0.04419524868294139 0.08366022510024967
0.1449132788720932 -0.0424624103602556 0.08353285804626764
0.14520003863998682 -0.04306969725295707 0.0837274041712634
0.1443122844145938 -0.041217259316983654 0.08357830589778008
0.14444378098646068 -0.04192386357220257 0.08403694760216426
0.1438594038247156 -0.03941325873239605 0.08313748772110155
0.14357098148184738 -0.039382888673970794 0.08369987838763157
0.1436846748979168 -0.03987674285071078 0.08388653593178769
0.1438812283044388 -0.040651010314799355 0.08405306092031106
0.14365024838728963 -0.03911537429662599 0.08326485398087564
0.17175388482626347 -0.08302882966860448 0.08630472360554362
0.17145920488969274 -0.08253860412112586 0.08654898038349855
0.17096192561392787 -0.08177543710441608 0.08659308186915965
0.17036989668847016 -0.0809449585844181 0.08655881024657162
0.16983029083071907 -0.08018937586318975 0.08649329811700136
0.1689193865204106 -0.07895231930322336 0.08613913504554829
0.16942934149155073 -0.07964155474583912 0.08651029537635073
0.16830469156759684 -0.07813181642901366 0.0862514558754161
0.16776253476515976 -0.07740434276735188 0.08637737745506968
0.16684336418891238 -0.0759564954478643 0.08570841692442424
0.16726850638375923 -0.07671989140176012 0.08652694564612
0.1663661343138291 -0.07526886251042136 0.08588595462342978
0.16589530629911128 -0.07461767210158585 0.08604948153902171
0.16502568459736808 -0.07327331530373803 0.08551618162726071
0.16544261698731993 -0.0740187621024721 0.08623775968375808
0.1644543328014876 -0.0725451454953217 0.08570328742039302
0.16396717080398315 -0.07184879143109348 0.08535954476971656
0.16358545060461416 -0.07135336707770268 0.08544002688958204
0.16399163046049553 -0.07200957251924701 0.08613188497475689
0.1630370741702802 -0.07067354320208481 0.08550800581577186
0.16255329817799508 -0.07001853333268242 0.08517792591856525
0.16217937509167665 -0.06952392032675013 0.08526042074860271
0.16257990073130316 -0.07016861938009421 0.08593338475778704
0.16167273084898118 -0.0688281669745412 0.08533090412012916
0.16124079035614178 -0.06817563277125167 0.0850153006541137
0.16090656982625182 -0.06769264838019602 0.08508892902970823
0.1612539051969573 -0.06831055213358232 0.08574035115335547
0.16047041884426122 -0.06705530248535817 0.08513088876355186
0.1599546230618281 -0.06634114078735322 0.08521270901450563
0.1595449144479871 -0.06573467355123469 0.08492041302589018
0.15920563485980302 -0.06531766084066509 0.08504526957902267
0.15955494442379073 -0.06588804304819136 0.08559562278980591
0.15876820731163177 -0.0647729846311982 0.08518159722351235
0.15789469800140468 -0.06355579410534544 0.08473299723981209
0.1583028901496961 -0.0642326974114504 0.08538789461102149
0.15745402664897884 -0.06297678723212893 0.08501412881637861
0.15668234745012263 -0.0617032102908837 0.08460070310844905
0.1570449431761674 -0.06241754255454766 0.08526408859603381
0.1562917801462078 -0.061119950347178 0.08487558835432353
0.15562530998818835 -0.0598658432275505 0.08447962735661248
0.15593580908503601 -0.06056341845443592 0.08513567980282813
0.15522662745178578 -0.059158106505842085 0.0846584823408273
0.1549125043641173 -0.05848471543019999 0.08435184972287532
0.1546565552071091 -0.05801175844701275 0.08444121452892624
0.15490446319649234 -0.05863465399090542 0.08507737305077848
0.15432984449408005 -0.05738590956614813 0.08452643583767067
0.1540042307775554 -0.0567584761548516 0.08461365270156532
0.15340412766875894 -0.055673380433849756 0.0845261962587108
0.15374646791297852 -0.05629479749375855 0.08473772565123477
0.15266414398394842 -0.05441294456404623 0.084203999083778
0.1529910508578444 -0.055041627752387204 0.0848355268700351
0.15229725755014506 -0.053875342840075495 0.08448084760549653
0.15159953475026375 -0.05277506661354837 0.08428322424975405
0.1519458173012042 -0.05337802847327544 0.0847965046118757
0.15088198138203815 -0.051650398921376114 0.08409072408899326
0.15122349110232294 -0.05225946766916697 0.08467485112854348
0.15049396267599688 -0.05111932369412337 0.08442627408642718
0.14973736148174932 -0.04987090666757661 0.08381504796712527
0.14940248213916027 -0.04943821572793095 0.08404568599447299
0.1497400270291187 -0.05006452214609054 0.08463216619281272
0.1501573950664426 -0.05067787189207253 0.08475865211943391
0.14900224721932234 -0.04891219648820315 0.08430316552470335
0.14830859671502786 -0.04793708568902804 0.08432582034423393
0.14863477673682432 -0.04847376541503958 0.08466214733428908
0.1476406875550267 -0.04696950765628517 0.08409082524003514
0.14787071687344736 -0.047447620930306175 0.08474903986116045
0.14693319903770014 -0.045986038820144945 0.08427079470621394
0.1473133460615288 -0.04657054122229398 0.0842995618100949
0.14614132167845925 -0.0447824406950633 0.08428107843717883
0.14642638025206892 -0.04537583293168845 0.08477527067669618
0.14544083158811286 -0.04358992029293417 0.08404177100145575
0.14561858467852246 -0.04414302177899299 0.08466377896125499
0.14479602058703916 -0.04273904989608202 0.08428275755339898
0.1451337906684728 -0.04320941140105582 0.0841882595687072
0.14406016996777 -0.041307384257120064 0.08419525501182791
0.14374792738476894 -0.041015470783915195 0.0846531507359288
0.14401193055844339 -0.04161429444926864 0.084706081583986
0.144326406536911 -0.042222656325122745 0.08477128674494232
0.14346156276790648 -0.03970208077351613 0.08424291044825637
0.14340200275770873 -0.0402789356044461 0.08494172663664662
0.17180823481003338 -0.08294845248001473 0.0872846774326605
0.1715217014838026 -0.08248205077038123 0.08751367268466688
0.1709770706713588 -0.08170125529323037 0.0875347305400859
0.170298607421151 -0.08078295068442232 0.0874780021222435
0.16973162235806308 -0.08005152766611427 0.08706682456127268
0.16933868162417962 -0.07954590403705991 0.08712486484099699
0.16985218958727497 -0.0801934425513433 0.08778391345063549
0.16880950847305437 -0.07887367970745986 0.08717201392583843
0.16823530696494488 -0.0781406458142954 0.08724477329507511
0.16770504293802868 -0.07746157374650167 0.08733179778825746
0.16679806361078078 -0.0760668439984888 0.08673266504724576
0.1672393839558306 -0.07685091801940815 0.08748979696975323
0.16629288391134836 -0.07538744658648215 0.08689977543807387
0.16580317659848678 -0.07469966529157464 0.08693885756771277
0.16499717506944256 -0.07349703848954642 0.08666796776841375
0.16544637908652918 -0.07419394610844768 0.08700765694596105
0.16444783179430852 -0.07276638579113864 0.08686262833413745
0.16352343713530088 -0.07143808496853898 0.08635664439302053
0.16397822035003976 -0.07216174274802346 0.08710272790807738
0.1630375100699745 -0.07086256754323908 0.08661173794250798
0.1621247759982321 -0.06959413041137727 0.0861601438621031
0.16257077067710182 -0.07029123787021732 0.08689186541979223
0.1616609088638689 -0.06899756050153637 0.08640171770941754
0.16082673125962366 -0.06772178906305855 0.08592643984966929
0.16121725858515418 -0.06839890041314836 0.086662028320754
0.16034984600080143 -0.06707380423991184 0.08605423873759296
0.15990993747150092 -0.0664621089968408 0.0861584286242742
0.15916186956623873 -0.06544378958541748 0.08598911898780101
0.15957921950577525 -0.06602742020009048 0.0862769359255606
0.1586616523977781 -0.064815284726993 0.08603941070596062
0.15786834600534222 -0.06373374213582168 0.08582043155876204
0.1582985656549296 -0.06436674976114032 0.08612388257311507
0.15738210697079785 -0.06304914556905823 0.08591748856586141
0.15666381201566365 -0.06191555936033267 0.08570533438064754
0.15704951183769364 -0.06257835446466396 0.08601903986558668
0.15622972774254568 -0.06121180934432616 0.08579164967495931
0.15559026702924858 -0.06005589881007539 0.08555218938296422
0.15593107676754395 -0.060727067407387925 0.08587524453903607
0.15518894052325077 -0.05934918923335635 0.08573049490327882
0.15458619483457273 -0.05806431000512532 0.08532173238877454
0.15486575841589253 -0.05878365050677663 0.08598335632839102
0.15421159414041233 -0.057356535558486 0.0855032033706143
0.15391124221679564 -0.05669722416031778 0.08522296790736428
0.15365137630681944 -0.05625918782585186 0.08537646226574197
0.1539154733215595 -0.05687058396743939 0.08592666605187098
0.15330174747673075 -0.055690396210205585 0.08553687108209336
0.1526115002134269 -0.05447961702931916 0.08513392472947086
0.15292877726162776 -0.05510690924824657 0.08576673968628029
0.15224759922349868 -0.0539379098608382 0.08534616380831296
0.1516091145236543 -0.05293831651750469 0.08531788950531564
0.15196325975593894 -0.05350956504114932 0.0855079282777903
0.15082715131269822 -0.05171558780259352 0.08504565701644627
0.1511775671956738 -0.052329878839223486 0.0856347799999248
0.150427212911245 -0.05116546011345875 0.0853282148763915
0.14926808970815 -0.049460317285159684 0.08490994445395622
0.14953503585931224 -0.04995077683667059 0.08548277064564723
0.14998681048012044 -0.050576358854120575 0.08557567353678222
0.14886989050203056 -0.04893168348263198 0.08512132183299082
0.14829348858322527 -0.04814837924329799 0.08520508599784382
0.1486060913153197 -0.04857272776374327 0.08519175013377397
0.14749357492309814 -0.04691583137779395 0.08469308026605772
0.14716402142525972 -0.04651888134984819 0.08497161217648684
0.14748281124938725 -0.047069153996324525 0.08539113309226326
0.14785159206486892 -0.04766261047938877 0.08568951390716353
0.14672798696902234 -0.045973282571493544 0.08533086697666352
0.14597821596552882 -0.044801273036824144 0.08512726959136761
0.14620719854936162 -0.04532890110762041 0.08580036860400861
0.14507302683923312 -0.04337838660431886 0.08471463007946368
0.1447824255488144 -0.043268023934530976 0.0854152388558906
0.14517439418397518 -0.04380658781037216 0.08537822388636263
0.1455559890378815 -0.044356177346583675 0.08548799874764698
0.14456332588088905 -0.04279701132888542 0.08505782014795193
0.14418272660173642 -0.04232949617625013 0.08535467100604108
0.14431486829809995 -0.0427726455403548 0.0858594534594703
0.14357326105037185 -0.04120016806235475 0.08539862319275515
0.1439671493728499 -0.04187426397594027 0.08522112864097957
0.14244573358914495 -0.039230954432136436 0.08614668000703314
0.1426766935843335 -0.039644728981286556 0.08613283011854538
0.143061501790959 -0.04046693710326131 0.08607327506214943
0.1718810856699873 -0.08290426396283533 0.08828555821975603
0.1715919385228942 -0.08245164173156723 0.08851401495138692
0.17103649647440536 -0.08165754289233017 0.08852189597254594
0.17046755400889488 -0.08086762478406426 0.0884742880875149
0.16941981194093786 -0.07967652554455074 0.08813906557349087
0.17005057315455388 -0.08034054093563293 0.08851386889743196
0.16875017830139333 -0.07890045280349162 0.08816162190104929
0.1681440234579466 -0.07817585845704282 0.08818139015192633
0.1676491867590918 -0.07753336463425342 0.0881875299210596
0.1667713438059678 -0.07632188808950706 0.08789419276834533
0.16726710138407283 -0.07708054224534741 0.08827491776845232
0.16612277237314688 -0.07542113186041673 0.08792179850847344
0.16567166889750082 -0.07466850990504748 0.08756167268833345
0.16532113054316971 -0.07420510868747371 0.08765995240530519
0.1656915731098478 -0.07493056118208624 0.08830497495224096
0.16485534450627162 -0.07357248969341643 0.08773925906852623
0.16437630448957335 -0.07289584605360842 0.08785950772636451
0.16350812539450646 -0.07160321563107616 0.08737231206291603
0.1639572090831916 -0.07232483583880524 0.08806062648006895
0.16302199738612808 -0.07101049909950842 0.08764180981301326
0.16210160171777177 -0.06970851341319811 0.08713996105181662
0.16255181128989168 -0.07040537503345771 0.08787564359492403
0.16163473237421194 -0.06910648633127765 0.08739270751484604
0.16075103336191052 -0.06777153506279512 0.08686836682464096
0.16118106558440115 -0.06849244802123998 0.08763802906993537
0.1602190440941929 -0.06705434379601223 0.08705649858608559
0.15979665375689422 -0.06640290470257545 0.08677565864455526
0.15944378423217534 -0.06596224263015303 0.08686926877856507
0.15981076467592867 -0.06655694934358719 0.08751343046923885
0.15893074424569217 -0.06533326374626998 0.08692025000793027
0.1585127316838499 -0.06473812076206709 0.08662834544841484
0.15816227568606586 -0.06429354082489168 0.08674576303619237
0.15852134803355217 -0.0648743468543859 0.08731993330325209
0.15766431008521348 -0.06362951100082315 0.08683746200499358
0.157252898433316 -0.06298859523302544 0.08653924657150623
0.15693322305855756 -0.06252473702346098 0.08665524770116198
0.15727889174287796 -0.06315103354701855 0.08725029374561218
0.1564808024347911 -0.06181970562303192 0.08674189294691717
0.1561074957051092 -0.0611423195051631 0.08640808878170562
0.15581273129815712 -0.06066551793176747 0.08647686993304513
0.1561002026103185 -0.061288610376509595 0.0871461771258483
0.15545389947930346 -0.0600429562708369 0.0865235501108878
0.15511738381451864 -0.059429584776103016 0.08660556526809308
0.15454723765785103 -0.05826849909917359 0.08643266640900685
0.15486543983437903 -0.058980582408438724 0.08674326986877434
0.15417060473686406 -0.05752871638164575 0.08651649305723774
0.15360521719857487 -0.056404650367602324 0.08634798766806849
0.1539131604887333 -0.05704937528144086 0.08663566233978023
0.15320850363811253 -0.05571652601263752 0.08641378460377186
0.1525316131167023 -0.054548507897469366 0.08622222014551358
0.15291119965044742 -0.05522680601473057 0.08650864402999058
0.15215386396391906 -0.05388483869397634 0.08597458399065488
0.15185969867772028 -0.0534528597585864 0.08614717031346883
0.15215513845707687 -0.05402800658678355 0.08669685107658814
0.1514935542744114 -0.05290471433234229 0.0862569089190639
0.15076122092983113 -0.051770162431457455 0.08616947361214156
0.15117852570961543 -0.05242423851175788 0.0863924650129352
0.15032910228043392 -0.05112359078589885 0.08603662263415103
0.15007302400852818 -0.050809777398112 0.08640125149284605
0.15038835621631297 -0.05128712133112161 0.08673564099834495
0.14909258381885035 -0.04942701878398061 0.08588469399886875
0.14960915843745098 -0.05020338007730559 0.08643554730262641
0.14858923374662575 -0.0487136701187975 0.08579192937111436
0.14837443279013002 -0.04860679894562222 0.08650345567681923
0.14870328161920157 -0.04907676473856773 0.08659355751164263
0.14817456890055197 -0.04820177564883888 0.0860607428524016
0.14783796366397967 -0.047832566760349575 0.08638679162010912
0.1480474480606926 -0.04824224496301124 0.08681692516443985
0.14704714285436385 -0.04658760579589465 0.08590923980125137
0.14743995452784206 -0.04727486122906076 0.08638290774211237
0.14659241606735032 -0.04600586971497155 0.08632100633317415
0.14580092922845178 -0.04476553971152555 0.08580346472662286
0.14549129598538016 -0.04444695297609008 0.08607676834394812
0.14570001686112002 -0.044839080434302445 0.08656727835431324
0.14615592751987724 -0.04549972480354733 0.08677207758149613
0.1447955482080593 -0.043534550795762156 0.08611118255214967
0.1452338859906591 -0.04406953872929751 0.08592915464793519
0.143797587266966 -0.04195620132994349 0.08590514475727676
0.14350294580693077 -0.04180869742630848 0.08667094129837356
0.1438886850145056 -0.04240189920422069 0.08660041168970492
0.1442854047925427 -0.043027776638306287 0.0866618019814456
0.14329616211867666 -0.041231972195975526 0.08632583043263077
0.14295919544710492 -0.040682856515633796 0.08676328079442464
0.14310453343764595 -0.041228814759697724 0.08720955720640056
0.14241002505885164 -0.0392265723119271 0.08627488831856904
0.14247978677813763 -0.03946922447335388 0.08650161635992308
0.14270902267558747 -0.040096737885412084 0.08680190361239276
0.17192508768198786 -0.08289430712607541 0.08930915207561728
0.17164348112056874 -0.08242800438101333 0.0895364077692348
0.1710870221728113 -0.08159643568687983 0.08954171587231143
0.17047335765340005 -0.08080183344053116 0.08909828163110567
0.17002882677264985 -0.08032152120423314 0.08915551968567675
0.17066998706642042 -0.08105778082886723 0.08988178750152137
0.16935124977780125 -0.07967689868081335 0.08914793186759842
