# .PCD v.7 - Point Cloud Data file format
VERSION .7
FIELDS x y z
SIZE 4 4 4
TYPE f f f
COUNT 1 1 1
WIDTH 790
HEIGHT 1
VIEWPOINT 0 0 0 1 0 0 0
POINTS 790
DATA ascii
0.1541888445944888 -0.046099741683225934 0.07169603474056939
0.1535274281612732 -0.04484185964422854 0.07143127131980774
0.1537734703308005 -0.04550164177769528 0.07206338456091964
0.15279827392909484 -0.043653817317079735 0.07115262559577722
0.15306104792016514 -0.04428947143456495 0.07180373920509632
0.15165445499145125 -0.041909186442471574 0.07116813109825003
0.15188146324029664 -0.042553999007988355 0.07183730718500865
0.15232898940452244 -0.043126675213014096 0.07150854392667387
0.15128775227533175 -0.04130812300986438 0.07149665073081964
0.1508291476490679 -0.03991477633466549 0.07135202013643185
0.15097444944926203 -0.04067990268236501 0.07186836341291905
0.1504697274582873 -0.03889589685742267 0.07122941878452133
0.15049930773284065 -0.03929569571554556 0.07182046653521271
0.17399061866794188 -0.0818879998420921 0.07355702205157684
0.17418446855743028 -0.08241506062204025 0.0742564788798773
0.17369841387012858 -0.08138137555171286 0.07353398457647922
0.173169038370406 -0.08067288289330121 0.07383021118627668
0.17215612870473146 -0.07917341338683859 0.0731051053814394
0.17263098867139004 -0.07992255606581858 0.07370887699051457
0.17154270756740167 -0.0783464755862577 0.07297373368442961
0.1710537785243542 -0.0778104494544782 0.07338436251245035
0.17009492146529037 -0.07646151314951331 0.07296117481476344
0.17044418832137215 -0.0771828296683618 0.07369785122131284
0.16960334325833876 -0.0757238816506209 0.07300767598980831
0.1691226242862879 -0.07493641648522355 0.07301328739754646
0.16862831247615792 -0.0741264771990924 0.07301065286984568
0.16831679703349334 -0.07344081550300546 0.07278187653209123
0.168017358975036 -0.07309436956181346 0.07311613863618889
0.16828166924046853 -0.07378281223827622 0.0733225083382048
0.1676102219413414 -0.07224517797026667 0.07313892754660434
0.1671588556780044 -0.0713111614076177 0.07319206840069571
0.1668782797133465 -0.07048889265101584 0.07287895552460899
0.16663027226144309 -0.07003029692356641 0.07303186737933826
0.1667498616060715 -0.0707801437410413 0.07362453371211375
0.16636954836477247 -0.06935952488913055 0.07304901140520352
0.16608461529468624 -0.068517786837326 0.07299385956411404
0.16574644506333397 -0.06758925182004563 0.07295933395582072
0.16537365604335902 -0.06667210753672827 0.0729351551368715
0.16513278952090266 -0.0659474841316807 0.07267954637482914
0.16482734941010188 -0.0655470124244976 0.07297421684198496
0.16506821806066704 -0.06626856990907205 0.07322769372419073
0.16438194770237624 -0.0646303777570787 0.07296552652993976
0.1641215564487149 -0.06382587672076415 0.07264832310030866
0.16384472099731384 -0.06337753821654624 0.07280236076179213
0.1639829918506382 -0.06414491532309986 0.07338805301154978
0.1634907338761405 -0.06270571503532779 0.07288609853230738
0.16308483434164747 -0.06186764420629948 0.0729578716584545
0.16285806010562 -0.061112313027155724 0.072637035023389
0.16256204090149487 -0.060633091600160706 0.07275261408192966
0.16270784363790686 -0.06136760827170554 0.0733544341336967
0.16213056549975863 -0.05993576498697077 0.07285624986452648
0.16185099857664895 -0.059237108296536146 0.07258567587400115
0.16152631253041316 -0.05881511276873903 0.07275312083946901
0.16169674904108886 -0.05948603200094911 0.07329705127405634
0.1611048177047645 -0.05826437585425844 0.07292410995251083
0.16043343963435303 -0.05697911671079026 0.07256084093484386
0.16065975154527032 -0.057706049910077946 0.07318367454860944
0.15997592208130562 -0.05642183694257578 0.07289396252920957
0.1592996847907614 -0.05519368818473545 0.0726574544673428
0.15955978354781664 -0.05587734440098608 0.07321689667648976
0.15860980748995532 -0.05394035949054294 0.07241022775089245
0.15886634323641016 -0.054634766880915085 0.07306389783041284
0.15818487475617063 -0.053373958038023396 0.07279475469230721
0.1574592395071251 -0.05215714579803498 0.07256514242168045
0.15774047250655607 -0.052810319254327116 0.07317728725152599
0.15669664805066325 -0.05093982113971357 0.07233902941113432
0.15696602308118082 -0.05159455971864201 0.07296740809135976
0.15621193298626812 -0.05038772987405934 0.07266761028256584
0.15560318898275366 -0.049122743899086545 0.07203871251739223
0.1552908324678119 -0.04871814852079695 0.07230090290420439
0.1555120267139322 -0.04932612363740322 0.07274696123390519
0.1557798020120231 -0.04994646429370952 0.07307128178042391
0.15492124832081183 -0.04814972768340011 0.0726019514020484
0.1543773481840088 -0.046805952243835304 0.07234070979960368
0.15454566539927447 -0.04752502332985337 0.07296447871222039
0.15397867933716455 -0.04619557476437807 0.07270057472491497
0.153317568081283 -0.044932757591766175 0.07244240919311738
0.1535554235913857 -0.045599428217563534 0.07307292613816256
0.15259311209923151 -0.04374229037540646 0.07216496764704129
0.1528378273308895 -0.04437461047197354 0.07282869794093012
0.15147461340036614 -0.041950407369815194 0.07215020302777339
0.15167827700957498 -0.042591124209424874 0.07283931475324981
0.15212247605914947 -0.04318762436746895 0.07252452108427193
0.15114295132385194 -0.04132382896622703 0.07239388512071014
0.1506551064868732 -0.04006076908342313 0.07249063527344236
0.15090343829775998 -0.0407940715157798 0.07262405855348124
0.15023783792962964 -0.038898464859702706 0.07222231385467145
0.15022854425909576 -0.03923306006436654 0.07295095691871915
0.1740056039697196 -0.08212446708429448 0.07434478206158315
0.17420783561294734 -0.08275060951437178 0.07513935783783193
0.17359053161505952 -0.08154493793351578 0.07456681466675429
0.17313658244914515 -0.0810226816935819 0.0748674587524463
0.17221184873461498 -0.07954066165548974 0.0740963372202562
0.17262346899206774 -0.08026949841104798 0.0746967025768936
0.17160426976619128 -0.07875301755436702 0.07405094873080689
0.17201250833722997 -0.07953624983025676 0.07496520951483644
0.17086036275997102 -0.07796953007203333 0.0745853240383598
0.16982633021317056 -0.07646658649861794 0.07396693490233601
0.17023109004621753 -0.07722348405251284 0.0745408376019317
0.1693376787064701 -0.07565922773134193 0.07377317139246986
0.16882612263335417 -0.07500359848363067 0.07403344006326477
0.1684223450630365 -0.0742805082420072 0.07377479579601687
0.16809314513665752 -0.07381426220218441 0.07393782574791169
0.16833704772541347 -0.07451664418252417 0.0745652250848173
0.1677287086046832 -0.07312452316997291 0.07401970596419004
0.16732603985004257 -0.07235114863487137 0.0741283433725808
0.16692800808704492 -0.07162744108676997 0.0743235624626798
0.16643139939479254 -0.0701429473820218 0.07380648143542064
0.1665711904143618 -0.070955815312483 0.0745501468941278
0.166115563007909 -0.06939023970428246 0.07389086738002391
0.1657874185898979 -0.06854389246182549 0.07394078266239434
0.16539640520113622 -0.06762954261028402 0.07399394349812692
0.16514576089106991 -0.06681882619944911 0.07369198769333705
0.16485994522605776 -0.06635711408463338 0.07386371884759246
0.1650186155285738 -0.06715069805680192 0.07444879017088528
0.16449561847411792 -0.06565569569261434 0.07395046466108213
0.16412103129334366 -0.06493825867651884 0.07401248224787163
0.1636030152781632 -0.06367108797971277 0.07379961057718018
0.16384256450089285 -0.06443631086895991 0.07411982327513246
0.16319306285405466 -0.06283409345808373 0.07388326957721603
0.16284066494942712 -0.062124373546548255 0.07396143858935708
0.16229973266374237 -0.06090555487323559 0.07377134723801063
0.1625605217222987 -0.06163861670398646 0.07408062407919844
0.16186637930695338 -0.060200993830844526 0.0738717132441756
0.1612580445361762 -0.059071372262172156 0.0737402560699797
0.1615412617130937 -0.0597439485195714 0.0740159039201302
0.1608221217613349 -0.05839603436184655 0.07382515388037263
0.16019120751563024 -0.0572313700810293 0.07368380600827273
0.16049782419652034 -0.057917839526258195 0.07394989517813125
0.15975114187973705 -0.0565340855648282 0.07382622798724033
0.1591439886544001 -0.05541471027312223 0.07376632869580668
0.15944915406541202 -0.05605280370135163 0.0739690730976758
0.15843512369602472 -0.05405262900741879 0.07342764735113129
0.15868233754612648 -0.0547590645508292 0.07408685187726696
0.15800467342716018 -0.053482756421386383 0.07380364084533886
0.1572726619048801 -0.052255559377681615 0.07357117095907616
0.15756603994445506 -0.052917155585353565 0.07418603080121304
0.15641387169759932 -0.05099152180607044 0.07341602508379798
0.15677999667600515 -0.051714935939104645 0.07400676246514733
0.15600969521945451 -0.05043531875723195 0.07339747125937342
0.15572462811560986 -0.05017232430863196 0.07375960418238167
0.15596547467405536 -0.05063473372387366 0.07408391423322
0.1551192661387376 -0.04883868838867294 0.07320262529534824
0.1553763543731097 -0.049593050564819094 0.07375218370830548
0.15472661163302118 -0.04824485397771059 0.07358561555148292
0.1541718807433197 -0.04690564226123675 0.07333368383626145
0.15435065045581356 -0.0476294057757667 0.07396184746999926
0.1537747959990476 -0.04629955118354195 0.07370914013872204
0.15309685703099316 -0.0450217051232318 0.07346350649860352
0.15334115285637703 -0.04569680973437611 0.07408894358443074
0.15236023479685118 -0.04381795493205254 0.07317509458100556
0.15257095125318668 -0.04444415706549075 0.07393307932772564
0.15126314805827745 -0.04188989810754897 0.0731790010574121
0.15148568803871537 -0.04258667296947818 0.07370176697346886
0.1518732271144313 -0.04324743810988426 0.07361020376043531
0.15100744063420074 -0.041204645094972334 0.07307129974705741
0.15075262148185808 -0.040667463959011725 0.07332096415346112
0.1509187536924138 -0.041352747414806296 0.07383642545163994
0.15042163317403923 -0.03996872084036063 0.07356736785639063
0.14995355411066533 -0.03872136687480608 0.07302610111411481
0.1497207371832932 -0.038517288473342126 0.0734881334374036
0.14984022621224244 -0.038813515876145004 0.07366479704229778
0.15008679546077622 -0.0393877438019656 0.07398501992880689
0.17432729211533127 -0.08324984852664716 0.07590705153910955
0.17389879705060132 -0.08232373530266532 0.07534933668542555
0.1741676836422558 -0.083026478451815 0.07604987747581489
0.17340037044880724 -0.0816912241128345 0.07559779154845434
0.17287224211932434 -0.08097006534726525 0.0756965473498384
0.17232817849166956 -0.08024517573177181 0.07576370318242495
0.17142599339873793 -0.07887154411560837 0.07525576700991335
0.17182271820405678 -0.07959910552034102 0.07594586547507289
0.1709061405674125 -0.07835876989918272 0.07564139292243748
0.16984685815451 -0.07683997071018434 0.07493598327669258
0.17029319837921011 -0.07759429467590363 0.0755184593865038
0.1693223481969191 -0.07604658486181907 0.07483050331431962
0.16965797178756836 -0.07684396727405646 0.07580768302789938
0.16869968549803366 -0.07529992979428622 0.0752384599266806
0.16791638166681297 -0.07389459674455919 0.07481647860604719
0.16821234718121425 -0.07463839216572685 0.07556848337472706
0.1675281220431884 -0.07318334253263525 0.07497842338091013
0.16713410059869596 -0.07246779370512021 0.07513165965393241
0.16676536641848155 -0.07176369171017467 0.07532309469156548
0.16623078318996676 -0.07023559811399728 0.0747189026819509
0.16640950880318098 -0.07105357486830954 0.07552281512131462
0.16588860215736312 -0.0694572108081763 0.07484236612387138
0.16552721978888876 -0.0686476685980363 0.07494597538091806
0.16517471654660984 -0.06793590136148964 0.07505177388859333
0.16464404797404145 -0.06666992807427538 0.07489589335852607
0.16490335388782262 -0.06744731447637631 0.07519738978873862
0.16418160432589576 -0.06576807617788535 0.07499984627773096
0.16390572298267872 -0.06496978296513575 0.07465969236949974
0.16363666433726376 -0.0644503384630833 0.0747406851446691
0.16378319026576216 -0.0652385249270941 0.07541715435872957
0.1632907430907238 -0.06373851592500826 0.07479870790566619
0.16287769794164167 -0.0629167833388883 0.07490401187299905
0.1626216565943609 -0.06215599728859161 0.07460134994010185
0.16233283872555007 -0.061675433136999025 0.07472502384308452
0.16249593787831573 -0.06244572596279385 0.07533021360851037
0.16190624326334324 -0.060964948135927045 0.07480934419681609
0.16161670234295836 -0.06023328768856857 0.07451471261672526
0.16129087201095635 -0.05978301390505264 0.0746534929857367
0.16146335178450713 -0.060522800461384384 0.07523360188786907
0.16084564395016873 -0.059105779951910076 0.07475015996543918
0.16056695672294094 -0.05839099417844935 0.07445971460893284
0.16024405062877253 -0.05793309923472854 0.07461826980416911
0.16040671464083686 -0.058671322159728895 0.07519519891414944
0.15980607041964723 -0.05722133452076412 0.07476746699417149
0.15952518398345003 -0.056495219713201095 0.07447306635544675
0.1592291068368371 -0.05603627175555059 0.0746159923571327
0.15937818336661042 -0.05671411956106727 0.0752322930726152
0.15886777311652417 -0.05546137992054479 0.07478417626161346
0.15826123491345623 -0.05418770953312367 0.07445509628051285
0.1584915200279422 -0.05489745199429275 0.0750599169139718
0.1578378778731657 -0.05361191578816848 0.07483826739240595
0.15711488139980906 -0.05237102474678628 0.07458911358612293
0.15740936535602285 -0.05303373410162333 0.07519394992993332
0.15629137348080552 -0.051224045911737584 0.07449813110030158
0.15664466218052986 -0.05185959660173271 0.07503361308162115
0.15556263201522197 -0.05018699730517484 0.07446629924155762
0.1558323358857505 -0.05076750546350145 0.0749798799166674
0.1549248784097754 -0.04896046533425471 0.074187691238799
0.15514470863478227 -0.04964084626749436 0.07480473251786841
0.15453576769565702 -0.0483562293351806 0.07458569545777213
0.15397526242489556 -0.047007846536356146 0.07433698887272841
0.1541572484556284 -0.04774187689604523 0.07496944020204249
0.15357105153347206 -0.04638842576536213 0.07471141070535411
0.1528935466662417 -0.045130703890294464 0.07444882298522389
0.1530942951798038 -0.04576933445145104 0.07514149289554874
0.15215221336232113 -0.04386402265636159 0.07397242732334865
0.15184421218706515 -0.0436124677002412 0.07442475903533773
0.15211714761956 -0.044143320342947434 0.0746948123556115
0.15245558637218531 -0.04471905553633555 0.07491830116885137
0.15115234184967158 -0.04214116850154663 0.074249097363452
0.151456051223087 -0.04300341023751378 0.07460408158071961
0.1505426350092763 -0.04064305738716852 0.07434377935527978
0.15076224628602122 -0.0415614301889546 0.0748426520353703
0.15025921497580724 -0.039929151355611876 0.07433512926062916
0.15001815173771482 -0.03962011621121522 0.0747088411400979
0.15018634422178959 -0.040180578659607745 0.07505315729045554
0.14964881417535825 -0.03862744849274367 0.07394953558809961
0.14976724703404584 -0.03915585277755259 0.07464077014252105
0.1742795949327458 -0.08345250756742585 0.0765495581369061
0.17375702138942814 -0.08260624759659599 0.07653254507498768
0.1741123638995009 -0.08330073379375875 0.07683242060937912
0.17314236539358746 -0.08175240210599091 0.07662476848246537
0.17257260968672408 -0.08096051226233494 0.07666797913565118
0.1720694809789845 -0.08024089357467949 0.0766612728672451
0.17128807072393495 -0.07906957693822105 0.07638084665334723
0.1717180024016828 -0.07971830219582712 0.07670593821906752
0.17062244780088437 -0.0783208254817874 0.07650530888670294
0.17000127580448207 -0.07759035179728457 0.0766490011001982
0.16909102333276893 -0.07611162073368205 0.07604493179569555
0.16944924825601385 -0.07686832318193282 0.0768793173731701
0.16855389177269606 -0.07539456241966036 0.0763624800020836
0.16777688401235738 -0.07393827782229304 0.07580263980862982
0.1680803298617227 -0.07466864439712581 0.0766067974672033
0.1673765303818749 -0.07321200553387607 0.07594292636003307
0.1669985026591186 -0.07251967366384389 0.07608980438131234
0.16664848084374942 -0.07183218499392865 0.0763114922389587
0.1660550273714142 -0.07030441315575328 0.07570275069774633
0.1662757209654144 -0.07111264799218799 0.07652654137855125
0.16568057121564508 -0.06952935662069105 0.07585585391036534
0.1652713205442069 -0.06870320122836987 0.07599847783308562
0.16499091747885059 -0.06796580022622485 0.07571407602429578
0.16473151404352565 -0.06747573273685721 0.07584872266594725
0.16492397235852452 -0.06822068312088997 0.07644351959353358
0.16437247758256335 -0.0667839807347592 0.0759474553022637
0.16397709884788259 -0.06607914527073416 0.07611687089191413
0.1634234356113642 -0.06463345240751567 0.07564662951202976
0.16361559286350788 -0.06548087582728103 0.07634512086533544
0.16303468985836703 -0.06391593703114705 0.07581880392095186
0.16266303231993934 -0.0632197250742812 0.07592951825554131
0.16208494328983453 -0.06199328550079254 0.07574916171074234
0.1623708425175733 -0.06274048690121875 0.07606018881679967
0.16163688315699684 -0.061283879215415255 0.07583466359727223
0.16100829903839547 -0.0600928882315391 0.07565779949273221
0.1612969218002127 -0.06082150495350306 0.07596217371013687
0.16057056584818777 -0.05941382461126924 0.07575901060683578
0.15998278853201858 -0.05824628773389652 0.07568586119249807
0.16025621592412745 -0.058986349155685694 0.07594090344098663
0.15954034927710797 -0.0575080204355009 0.0758875549099443
0.15900457113605168 -0.056171542173109934 0.075523357155256
0.15916122621228118 -0.05692811705032263 0.07616587514338256
0.15865695201198993 -0.0555787705531277 0.07569866363900073
0.15809198576544964 -0.054410590263893444 0.07557371223873031
0.15837604128704094 -0.05508709211389262 0.07582422443932986
0.15765384238504285 -0.0537222502846729 0.07583778173202024
0.15696965356657747 -0.052515042448886565 0.07560241337834891
0.15725253686541832 -0.053172313610830635 0.07614204765272846
0.15616131100526057 -0.05137826015881653 0.07549967677170503
0.15650368374637622 -0.052022375722638646 0.07605148459415834
0.15539101902875121 -0.05027647939893417 0.07540638995399944
0.15569173615614795 -0.050896363655785065 0.07596002203967891
0.15473504787210413 -0.04905836409712573 0.07520133118852025
0.15495852123057982 -0.04973609029275755 0.0758152602457983
0.15435588724101135 -0.048459713781884114 0.07559016428230905
0.15376974413235858 -0.04710848730569135 0.075341056240781
0.15396823140645785 -0.04784898593257799 0.07597140172079728
0.153379335431783 -0.04650157156098567 0.07566945281321077
0.1527099437333043 -0.04520685949362363 0.07518254033260573
0.15240260590620783 -0.044986903920713674 0.0755898489099002
0.15266244235878484 -0.045485758739274365 0.07584806113198082
0.15299404228342817 -0.046061953101501636 0.07608221777862895
0.15166682036609472 -0.043737395551617084 0.07521450392883419
0.15198317722223767 -0.04444656814541768 0.07567814335311307
0.150988783357598 -0.04241714629123956 0.07528669155836672
0.15121122746910795 -0.043218384174400805 0.0756941136267166
0.15039556357106157 -0.0409552959759068 0.07542667763908092
0.15056759347179696 -0.041833207582236395 0.07587834001292726
0.14982559018911729 -0.039734130212752364 0.07547465022973932
0.1499955996640834 -0.04042978982121194 0.07597581621675814
0.14953312533752994 -0.03949395312460762 0.0759171383790316
0.17416695970612853 -0.08363730155663851 0.07727499209602569
0.1739199480157271 -0.0834498124914536 0.07767860594834698
0.1740833773627784 -0.08388716244961245 0.07792230627062918
0.173409444960697 -0.08263483662335615 0.077645976595768
0.17282989753700417 -0.08177224768571703 0.07766589257900686
0.172232259248667 -0.08089757971600138 0.07767432544582774
0.1718492189759235 -0.08014177345076187 0.07726806778875492
0.1714780513969625 -0.07965155547658292 0.07732010519744255
0.17173631245669196 -0.08032660607361508 0.07802985631652438
0.17092643860540238 -0.07902014177629704 0.07738211057633071
0.1703400231914549 -0.0783186123433824 0.07751881202010508
0.1697844520317258 -0.07761219328805027 0.0776875834913559
0.16891816966506723 -0.07616879939917742 0.07716130187866016
0.16928289532337695 -0.0769341611120904 0.07791187785744959
0.1683999795548351 -0.0754084139175644 0.07755616638369922
0.167631978172638 -0.07390667114463605 0.07688520021527095
0.1679706076156619 -0.07464054935524506 0.07747096026520525
0.1672432258344724 -0.07314784961517115 0.07674816297214242
0.16692841594835084 -0.07259080535338111 0.07705413799240196
0.1665525708734952 -0.07188953237768093 0.07731174683036122
0.16589987322884994 -0.07036866537194018 0.0767240603310423
0.16616334036723365 -0.07116767781733245 0.07754402189513039
0.16550306539559453 -0.06961161444857847 0.07690425192959016
0.16514277265588784 -0.06893182586516786 0.07704367616080468
0.16457242292548335 -0.06772390127459164 0.07686479162607104
0.1648584488647061 -0.06845274690165945 0.0771749126347149
0.16414383057733772 -0.06692088201870473 0.0769646513137391
0.1637882379394822 -0.06622735681278956 0.077027685767833
0.16322561608793862 -0.06493544997637983 0.07676221976370494
0.16351541028798164 -0.06571819302522948 0.07710645068000604
0.16273680209396513 -0.06403319466885853 0.07687342408374417
0.1624493338605921 -0.06326946912300713 0.07657540762652447
0.16213039164043494 -0.06279264837538774 0.0767013909577512
0.16231951292762184 -0.06356036403425783 0.07730228395996194
0.16167597920738602 -0.062082655794559904 0.0767930974193056
0.16136386592946456 -0.061342340188209804 0.07648796198576178
0.16102314628830874 -0.06087090806675822 0.0766212012212505
0.16120857063516614 -0.06164356959782592 0.07724315739700145
0.1606062368995549 -0.060157401818259834 0.07664727394266937
0.16033787436379054 -0.059492057814778614 0.07639284689949043
0.16003096000668063 -0.05911804123750901 0.07669361043353931
0.16027328565289148 -0.05978349489570883 0.07694103258839396
0.1596448362968561 -0.05833432413584637 0.07672378474631275
0.15929383320597684 -0.057662581672965584 0.07678997277076853
0.15873694308136524 -0.056382796450957416 0.07665992155851874
0.1590180682027711 -0.05718999380969693 0.07693862618583533
0.1584552601024891 -0.0555678963203165 0.07635172595816499
0.1581675149775883 -0.05506775483058874 0.07647128636388896
0.15831282647524822 -0.05579780581263556 0.0771209518224008
0.15781032166982514 -0.05442822921401376 0.07659501524331876
0.15744597012837097 -0.053800514606107394 0.07672819249068617
0.15682819343253945 -0.052746721528308976 0.0766828317483338
0.1571497941921799 -0.053345953770486516 0.07687821098277375
0.15602256712409251 -0.05153892932105088 0.07651603947626255
0.15634684526868248 -0.05218452505274762 0.07703068582362972
0.1552364622230913 -0.05038823034184579 0.07640597917609673
0.15554472359260296 -0.05104619804078757 0.07697547095231165
0.15454926431396634 -0.04915636202959585 0.07620524665051638
0.15478845067647645 -0.0498400341592169 0.07682988269097904
0.15416784550754647 -0.04856556492197494 0.07656629921013572
0.1535309553361425 -0.04719536132179543 0.07640082220477389
0.15380214183170807 -0.04800070121311204 0.07693389340457338
0.1532127154263066 -0.04656668066004307 0.07637342511778251
0.15293937659448076 -0.04631795052533227 0.07671608692691252
0.15313346691770682 -0.04682644714916428 0.0770226730096792
0.15218875566688966 -0.04509935412263836 0.07633422703275426
0.1525479341665911 -0.04580393574602727 0.07676237571845675
0.15143385984772983 -0.04389551411449322 0.07613992081799426
0.15158364805270239 -0.0445530997336512 0.07684403821208499
0.15074733387806472 -0.0427380397685855 0.07639779529379222
0.15104278808873633 -0.043458431434531666 0.07647401160022967
0.1501730572403729 -0.0412580568260709 0.0764156884447329
0.15033473333317784 -0.04205746448659149 0.07682192593574001
0.14956928703605124 -0.03998119478327865 0.07650104209960448
0.14976621223203174 -0.040723556784610315 0.07694983491774382
0.1492143153553893 -0.03973315913636247 0.0770586234124833
0.17392474972739227 -0.0841770923057984 0.07876706810393919
0.17359942239116158 -0.08355884048075102 0.07871538243290936
0.1730871311211437 -0.08271389593515834 0.07870311436860121
0.17254881636327324 -0.08185831944741807 0.07872079429535678
0.1720259176571017 -0.0811206871103187 0.0788016522422456
0.17121814235223318 -0.07974700022678383 0.0782284800264217
0.17151841097288298 -0.08050883181150678 0.07896760602140544
0.17064809366132522 -0.07907717735381177 0.07839796764642704
0.1701043294864325 -0.07835713815776693 0.07852851522357107
0.16959144250033595 -0.07766571112157972 0.0786695615333232
0.16881050170014955 -0.07629038351861347 0.07823434293455157
0.16914204977822858 -0.07702699445542399 0.07888185081147238
0.16845432408488312 -0.07574969251123068 0.07860319937108147
0.1677093753140772 -0.07423107902126222 0.07785433485069694
0.1680465790891801 -0.07496315834120089 0.07845477329072233
0.16730578056915116 -0.07344972130581826 0.07774865341450453
0.16760387191777368 -0.07417283340972379 0.07870988859447219
0.16686167447668343 -0.07265775120984844 0.07807861333108108
0.16646079285730342 -0.07193453770060193 0.07832607995772495
0.16576350835650844 -0.07043565026308334 0.07777326891277236
0.16606281060411715 -0.07123762366182837 0.07856740822530743
0.16530700635057924 -0.06964350370353775 0.07800148074965828
0.16498414134969505 -0.0689165969617959 0.0777069430054693
0.16468945104338115 -0.06841095152189956 0.07780312865536994
0.1649204770942071 -0.06910617355177755 0.07848665822270151
0.1643147657639694 -0.06771658615165897 0.07786398136786128
0.16388747092262887 -0.06692413306818086 0.0779606082210089
0.163609704163096 -0.06620779013440381 0.07764404563120764
0.16332638934150726 -0.06570699176894304 0.07774711085732541
0.1635198539985777 -0.06642797647991144 0.07836980931216506
0.16292590136368254 -0.06499793840552871 0.07782265649402943
0.1625187089604045 -0.06430205484283 0.07791196552733584
0.16189008274466168 -0.063100494931679 0.07771848587091867
0.16220177957189919 -0.06382997975085264 0.07803315415265648
0.16142470972714598 -0.06241396504191808 0.07782299493030337
0.16072551029144505 -0.06114427310670668 0.0777320672600919
0.16108037742973466 -0.061973861950029276 0.0780121055082491
0.16037601852371605 -0.06030577295731156 0.07741960664599926
0.16007151605833067 -0.05982992493867432 0.07756133892824608
0.16024453597611985 -0.0605985156429341 0.07821157266147567
0.15971534124494643 -0.05914779512950908 0.07762904611269006
0.15932792419462138 -0.058358735821702305 0.07764819109668143
0.15909493395628807 -0.05769640437363742 0.07740133014047902
0.15882052525557497 -0.0573129482092864 0.07769871257803519
0.15904531917311687 -0.05796727003248103 0.07793604599254038
0.15845513074401107 -0.05660180897754479 0.07780450014151974
0.157944002661893 -0.05520325205888759 0.07739655762916209
0.1581018251317303 -0.056018153551943485 0.07805774011911615
0.15752281978031304 -0.05447609816639656 0.07761526102644595
0.15724658481186352 -0.05377387987273009 0.07736087147029622
0.15694191397420298 -0.05334017616003496 0.07752633954973091
0.15713075206377616 -0.05399452011601918 0.07808230840735542
0.1565676119934412 -0.05279583915183996 0.07762888148577463
0.1558789106654483 -0.051764688824495 0.07759592858010798
0.15623041628287948 -0.05235160198510581 0.07777725052886293
0.15507605133214455 -0.050530452514799366 0.07743867177091143
0.1553846394235671 -0.05120109578805532 0.07797057995823585
0.1543587166603928 -0.04924369904239034 0.07720713271338364
0.15460864557448611 -0.04995598920400681 0.0778848327543795
0.15399146811660197 -0.04864391279947816 0.07746305405466707
0.1533936215604448 -0.04754482828689524 0.07750149913117746
0.1537027465419899 -0.04818048954112309 0.07766520463687238
0.15273226330787498 -0.0464082049399166 0.07736963349747049
0.1529473922727013 -0.04699158952357309 0.07780666465908401
0.1519635229348405 -0.045337338757974625 0.07729140702062894
0.15227823799637683 -0.045980049107331854 0.07771200063607339
0.1511550727965177 -0.043917238051449356 0.07689325290303566
0.15076269373235618 -0.04342672949810228 0.0771937777101769
0.1509868573605297 -0.044213953907242184 0.07777437990955362
0.15146084319011519 -0.044946050381155275 0.07779032229569903
0.1503893722676472 -0.04270925098743622 0.07735972634147374
0.14994565163254484 -0.041621094799811666 0.07738927201540345
0.15016728946498126 -0.042195115696378634 0.07741810871231838
0.14926228906438288 -0.04030823323642973 0.07765982626164629
0.1495717660373997 -0.04104277716026571 0.0777438976233058
0.14874449336954607 -0.03982901550774955 0.07829718291184598
0.17390231332175207 -0.08480139057786722 0.07971777392291093
0.1737261319542131 -0.0844392188619014 0.07973144234631474
0.17331729290106804 -0.08368603550639138 0.079744592344096
0.17281271626012293 -0.08281186524783912 0.07975190698707929
0.17228549891078646 -0.08196683650738092 0.07976362038151638
0.17175381665490194 -0.08123825399271548 0.0797288675692314
0.17098687084754752 -0.07995394759817986 0.07934576122396245
0.17134579854244522 -0.0806929511181316 0.07974657676607153
0.17040150193828935 -0.07913982766509867 0.07941946723432555
0.16986330245889478 -0.07838593559551918 0.07951388057339186
0.1694016999545775 -0.07767810028786777 0.07956448109846409
0.16874147211381188 -0.07645773826411652 0.07933247180404886
0.1690800614805836 -0.07714518913146637 0.07963872484599503
0.16831270366607165 -0.07565415158811557 0.07944940174769362
0.16790160356406658 -0.07488799389234402 0.0795614173672698
0.1671799402728423 -0.07341015247966717 0.07888798583685432
0.1674870633811416 -0.07413143890548675 0.07974071259848976
0.16676190302526764 -0.07266999518502316 0.07911237608798549
0.16636147432419843 -0.07197396840585774 0.07931793729641785
0.1656546700033486 -0.0705617314901498 0.07885732459019683
0.1659821341712285 -0.07134005230750587 0.07955553202397923
0.16522352115004524 -0.06990256778921862 0.07918891681881625
0.164524690465628 -0.06848429213080386 0.07870449516895335
0.16479402420424724 -0.06925386540137797 0.0794770656361842
0.16411559335788964 -0.06778568230954088 0.07885968777792571
0.16373532521687248 -0.06712777602763655 0.0789756269367361
0.16313852225369693 -0.06591191382297265 0.07877964584893446
0.16343893829322473 -0.06664194677785545 0.0791005786632242
0.16263046372607776 -0.06504599785147482 0.07886815748203053
0.16230711964240147 -0.06431906150324741 0.07855820900404631
0.16197098511577201 -0.06383930803858986 0.07867398563417574
0.16219680470054862 -0.06455827918012697 0.07929680899656176
0.16152067461121242 -0.06314560079553119 0.07870061799767836
0.16120594075240394 -0.06249994235159319 0.07846915148130966
0.16088141642487408 -0.06213326017987035 0.07878931141787968
0.1611752396407538 -0.06278643192056335 0.07901215513995602
0.16044474860606758 -0.06142821462785552 0.07891151681630014
0.15984870059452724 -0.059999795512310786 0.07847833147375531
0.16004854556028605 -0.060842552604394536 0.07916274633245028
0.15940699884153445 -0.05923385748793175 0.07867792637661676
0.15912909279755297 -0.0584629677891739 0.07839102588430447
0.15886952034473853 -0.05800242700704062 0.07853552778027696
0.15901886372782437 -0.05873464378791311 0.07915921838782508
0.15855122492605292 -0.057376479151975045 0.07861060597818226
0.15822984768563567 -0.05674900849389673 0.07868604401114504
0.15771326207348296 -0.05550517800007013 0.07852776048026779
0.15796888311992244 -0.05628174058403858 0.0788254716017099
0.15731184470920098 -0.05473289023726924 0.0786535847536148
0.15668847098543362 -0.05350050951661414 0.07856077671349636
0.15701476507925963 -0.054241534974510994 0.0788119712616829
0.15634452612119282 -0.052772315215224457 0.07827504188157043
0.15600767890550682 -0.05232753523573155 0.07842690334309843
0.15621491622920844 -0.05296951282415737 0.0790471641982544
0.15561805763999428 -0.05179419455360074 0.07854651615403349
0.15492945035563702 -0.05075298990449963 0.07857627132754656
0.15528497320703943 -0.05136706272578643 0.07873639072928097
0.1541078390560109 -0.0492592350963407 0.07826753850604298
0.15441250384649555 -0.05007862846386339 0.07895976963245971
0.1537890592218698 -0.04859705376408886 0.07811173150007554
0.15347499249245952 -0.04811970601372768 0.07829225767728462
0.153666116855521 -0.0487658539669574 0.07884897441150339
0.15308561049068348 -0.04751123822534533 0.07836869194530771
0.15250956880850366 -0.046599270091873035 0.0782345070827384
0.15280449392958032 -0.04707996021302566 0.0783538606607226
0.1517601993925357 -0.04563858869086508 0.07831212439735714
0.15213885156578374 -0.04614775409566426 0.0783314325219782
0.15036833138268818 -0.043418454902758384 0.07820860672767141
0.15060256431664582 -0.044233866393952666 0.07873996149794919
0.15108439894585146 -0.04496935536354417 0.07873216889466987
0.15000398536258888 -0.04240680848220992 0.07806292181253335
0.1496488753972235 -0.042268178953145386 0.07877189185494408
0.14985897062920667 -0.042977495234622305 0.07896411164864195
0.14961563876255868 -0.041689953886972345 0.07825549132745836
0.1492388745394308 -0.04102962507775411 0.0784745314470485
0.1492940001558704 -0.04177632900288242 0.07905725722604093
0.14882961564805022 -0.04039910337098064 0.078728893167367
0.14818396723510183 -0.03952591471056229 0.07918288569856495
0.14839441425100494 -0.03993503946235973 0.07917976152091906
0.17373978743323729 -0.08499291760911659 0.08050833845216937
0.17347581164768114 -0.0845818161129715 0.08071744802179802
0.1730370694647078 -0.08378941388645561 0.08077883724447174
0.1725478877475925 -0.08290095568377967 0.0808014949105492
0.17192168257109033 -0.08198514758302299 0.08079537188326517
0.1714753906694497 -0.08117281932274101 0.08034936967983645
0.17111981191867082 -0.08060920325344235 0.08036561254037408
0.17139746880220183 -0.08134401854255699 0.08114001813589329
0.17067047670704877 -0.07990514550496633 0.08035494469750187
0.17015060493570425 -0.07913933656710385 0.08043085649916451
0.16960769008871462 -0.07829228223872157 0.0805341965932921
0.16923571565204423 -0.07755425019788473 0.08018711807634753
0.16893758037820666 -0.07702630551466397 0.08025624485953398
0.16920222742073923 -0.07767681109198735 0.08094731462337654
0.1685619162045665 -0.0763403295948368 0.08031123533812523
0.16817241719828752 -0.07559639769065607 0.08043566309642503
0.16777324332162225 -0.07485390090779247 0.08058590925028032
0.1670659493765715 -0.0733938269966764 0.07993105645820486
0.16738072619421504 -0.07411936731047729 0.08076570456304133
0.16665271796381703 -0.072665888899375 0.08012035395928187
0.1662589795628199 -0.07199677290685115 0.08022302020881046
0.16558159388408888 -0.07079045735701313 0.08003045321835892
0.16594883837607174 -0.0714882622562192 0.08032705338042684
0.16509673793271507 -0.07003872281879614 0.08025239068707371
0.16436174273189394 -0.06858577711134807 0.07970896729099029
0.16465544534070786 -0.06938458449992402 0.08049084498321167
0.16389996523394298 -0.06783026035043223 0.07992578447820448
0.16356586306772453 -0.06710821098009616 0.07963158507031229
0.16326907389749531 -0.0666028192294896 0.07973237474788776
0.16350266081828524 -0.06731247463301869 0.08041003888499768
0.16287085036382276 -0.06592368316898814 0.07980012808706038
0.16244556545251165 -0.0652686637995275 0.07990644110038005
0.16171318514679803 -0.06403194896195118 0.07974578336301803
0.16210356544418592 -0.06479247974225019 0.08004411754354455
0.16131711987705635 -0.06327352467237837 0.07946525980808083
0.16099323223959763 -0.0628318350765371 0.07962616218655882
0.1612290614708463 -0.06352475548214549 0.08022837842874195
0.1606027330059495 -0.062218926316853586 0.07973856451568287
0.1602216893368615 -0.061579016866021664 0.0798280358777154
0.159647054723751 -0.060318688990089325 0.07961422849517162
0.1599291181104026 -0.061081406754627504 0.07992739099406358
0.15921861830984152 -0.059566723541970464 0.0798286619260771
0.15866791750377515 -0.05815000492795903 0.07941508663228454
0.15885124187843175 -0.05896165636446682 0.08010049960875805
0.15829657124193738 -0.057430306065917175 0.07952590969516904
0.15805460047292505 -0.05677439478694569 0.07928876586349855
0.1577839192464124 -0.05635877120100148 0.07957040179006049
0.15802213335242174 -0.0570333756582788 0.07981992778007117
0.1573746199369375 -0.055487970398814306 0.0796041609113702
0.15710438253481893 -0.05474542764147235 0.07931592188979111
0.15681810363039336 -0.05428765616312781 0.07948253506077103
0.15700730829365958 -0.055000566512604473 0.08004257070587323
0.15644205003331416 -0.05371797243021757 0.07969681340799117
0.1557536659290154 -0.05238680327012084 0.07938323723656845
0.15603895719322575 -0.053175792906931994 0.08000251484333566
0.15541687379587155 -0.051768072795905354 0.07920287780152088
0.15509444711250148 -0.05135294433761511 0.07940716952449633
0.15533210464998728 -0.05197972212370834 0.07995547018199382
0.15467583165014295 -0.050795677197088565 0.07965870339843964
0.15395636315444247 -0.04948998076020881 0.07936133568575401
0.15421803906634313 -0.050199117665568865 0.07999817872418015
0.1531686198296112 -0.048126404576051815 0.07925044962883895
0.15352330564170144 -0.04897276650912188 0.07979276116549715
0.15265663769742066 -0.04721541145021901 0.07900387647316798
0.15229255237829212 -0.04707487320308316 0.07974222511850335
0.15266822997760046 -0.04772501953996592 0.07998990092071759
0.1520211964454744 -0.04640587227393876 0.07909456981251375
0.15157117863543002 -0.04618698272332908 0.07981162030283673
0.15187864605409815 -0.04671053859913083 0.08011274857502879
0.15142091060195606 -0.04570911216233252 0.07926403141552321
0.1509686684834399 -0.04529655620885198 0.07959701942523296
0.15115995747219366 -0.04578516198935407 0.08007260799419463
0.1501444890158628 -0.04382699599278876 0.07931837434993877
0.1505259289436353 -0.04469120019829052 0.07965404070652206
0.1494332553943429 -0.042539151192283055 0.07949930459905907
0.14965493744487512 -0.04334410113478429 0.07991350386127521
0.1488464626313701 -0.04112321740145894 0.0794307542553144
0.14900940441431199 -0.04202963623526046 0.0799244397960253
0.14854517176584808 -0.04045501778367358 0.07942685533066537
0.1482407634649814 -0.04019527844517706 0.0797895405158771
0.14839253899973243 -0.04076601402738666 0.08005240749725374
0.1478110197896012 -0.039337398114483516 0.07975460958481367
0.1479326412911709 -0.03968155751349275 0.07992305503127446
0.1735290614489667 -0.08510413721903821 0.08147721349947312
0.17324696344503748 -0.08466907642981665 0.08173271131463226
0.17282355427938018 -0.08387659456517237 0.08181866325609674
0.17231576681587552 -0.08301737692824268 0.08186492469308639
0.171759701215043 -0.0822021467230145 0.08198123740642801
0.17094843517891878 -0.0806489804840385 0.0812580017589029
0.17126808699031237 -0.0814324400383368 0.08213251456283333
0.17045922890357065 -0.07991272049267976 0.08134073603080974
0.16997875341112204 -0.079150626608926 0.08145728367853386
0.1695255882741011 -0.07843888030258667 0.08166274195322885
0.16883252603307491 -0.07702199120847655 0.08113343376449633
0.16912492424825704 -0.0777504760561095 0.08190789820172646
0.16844108807739028 -0.0763147706678535 0.08127623183103846
0.1680550166515404 -0.07558316080491939 0.08142588559109715
0.16767412270162313 -0.07485357456603199 0.08158897128707641
0.16695787720805702 -0.07339630294940468 0.08096375345188717
0.16728953254639795 -0.07414687637674498 0.08177982566453476
0.16648098539043293 -0.0726133143133628 0.08116422416370715
0.16611164362204645 -0.0719096391897331 0.08086164455066026
0.16579910342238086 -0.07141086428178856 0.08096308770416631
0.16607909477211258 -0.07206387707253564 0.08162949361221991
0.16538450450114345 -0.07077869722280163 0.08106187156160445
0.16495144257305341 -0.0701266456176356 0.08124173364221889
0.1642335858376882 -0.06874465213021289 0.08077685060431586
0.16454748103837066 -0.06953067150707443 0.08147144525843887
0.16380827963967987 -0.06811699646069007 0.08110107734859653
0.163109090945551 -0.06670199268164163 0.08065364561482086
0.16339641805824148 -0.06749869815846717 0.08140330852665639
0.16262537015362144 -0.0659783317479118 0.08086323639472201
0.16225495982985697 -0.06526897358393544 0.08057493140411096
0.16192155444555953 -0.06479599332755909 0.08070038600331285
0.16219612575785944 -0.06548565489575407 0.08136146395737957
0.16150509644516933 -0.06423795429467202 0.08086371434320831
0.1608107665931382 -0.06298192041146516 0.08051928562635359
0.16108988753459888 -0.06372095633800588 0.08114681383078619
0.16034905146225253 -0.06227669761319864 0.08075244054875548
0.16002979207017082 -0.06156228587258385 0.08045999300523896
0.15974618143346492 -0.0610581947507876 0.08056239068398163
0.15995467346810577 -0.061763292963395375 0.08121624553734942
0.15939388806780083 -0.06038423938123847 0.08066218351284853
0.1590368354967877 -0.05971317954721598 0.08076486095194435
0.15844890316387847 -0.05835423730917672 0.08057199110945774
0.1587557181034565 -0.05918996796138836 0.08087951313009106
0.15813107125533252 -0.05753237237941465 0.08028251858484378
0.157863969835034 -0.05703999768578581 0.08042375013080148
0.1580510295072754 -0.05776672806226098 0.0810643690847021
0.15753050249984676 -0.056360908508089086 0.080505437605509
0.15718997094866047 -0.05570088982217635 0.08061258479998056
0.15664905287399072 -0.0545429385994356 0.08049616291065448
0.15692120571737508 -0.0552317904225077 0.08075507878640974
0.15624727118951742 -0.05385730671452598 0.08061662846701961
0.15562920614091408 -0.05274971168388247 0.08054815504999796
0.15594566271215518 -0.05339270754129915 0.08075809245965633
0.1549174430866061 -0.05148248477971936 0.08032955389893483
0.15518369744015761 -0.0521709492269177 0.08088807755932731
0.1544705976352033 -0.05091151792191676 0.08068037641414658
0.15379609062341948 -0.04963739061096491 0.08028197372952157
0.15398334978504136 -0.05026755610386677 0.08104211689791034
0.15308691127235646 -0.048578299021922414 0.0804637923253431
0.153468570988428 -0.04921830295002844 0.0805395536384832
0.152220955228656 -0.047339061776849246 0.0805337416518444
0.15257535955184262 -0.0480295229728798 0.08096690879174306
0.15142889373486296 -0.046331332258978564 0.08054972637690207
0.15176590976843438 -0.04693719574112364 0.08097916530877469
0.15072050752303934 -0.045315117905742684 0.0802840773986032
0.1509284030102452 -0.04586052281619949 0.08096927242561194
0.1499793969229919 -0.04422659753847098 0.08042777929117936
0.15035560401231202 -0.0448935805536511 0.08049924847299185
0.14920807921700918 -0.042813657126954265 0.08038668008299922
0.14944301089409723 -0.04357700590332711 0.08089987146258527
0.14858580131313684 -0.041523072394148604 0.08038382520305559
0.1487902159048461 -0.042293671943530196 0.0808094841993559
0.14797725656800137 -0.0403332989447494 0.08047956723850899
0.14815658748060173 -0.041072650482239334 0.08087546409855126
0.1475220880347461 -0.03939745369405948 0.080480406570334
0.1475267732659139 -0.039827843686796566 0.08094470910404063
0.1733636129403141 -0.08516286863766864 0.08248404968781861
0.17308907137330173 -0.08471797417724658 0.082757074125728
0.1726725035051618 -0.08394340534351195 0.082863378001577
0.1721703913512566 -0.08310466248828745 0.08294698133917998
0.17164743611826325 -0.0822656340737266 0.08306325706319945
0.1707830864006086 -0.08067186322575592 0.08224745761340568
0.17112608109253286 -0.08144710810114185 0.08314914209065456
0.17030962749935669 -0.07991129866673315 0.08232238302867728
0.1698615173682425 -0.07920772483254121 0.08244709564676875
0.1694481738213533 -0.07852296024363051 0.08267727446580332
0.16873906716485246 -0.07704913818770819 0.08209822591081982
0.1690542981945345 -0.07781177247034896 0.0829012656724364
0.16833791084686595 -0.0763249040047996 0.0822601406090197
0.16796154245687306 -0.07558674583022887 0.08241575187200417
0.16758941806637564 -0.0748731068423971 0.0825646762271551
0.16686740566715225 -0.07347432374271515 0.08203144681582776
0.1672297545647032 -0.07422997169335488 0.08275782869690676
0.16642995049520026 -0.07282241872106042 0.0823339426246556
0.16567033210297502 -0.07146586913124156 0.08185544571310858
0.16598190348700315 -0.07218614070915166 0.08260823807855568
0.1652278192704759 -0.07082246109045068 0.08203060953495851
0.16481749127331075 -0.0701915551106021 0.08213454648351853
0.1641487210285869 -0.06901082107369574 0.08193977431550506
0.16449762889379047 -0.06970976503411987 0.08223638397993575
0.16368646083339747 -0.06828336630991579 0.08214570476863474
0.16297529098398758 -0.06688963295563123 0.08170883285703605
0.1632935175688752 -0.06768429980542488 0.08239883258093038
0.16252742425012096 -0.06627568207268347 0.08205346056659608
0.16176915777160553 -0.06492566609772668 0.08161364457045585
0.16207711643175135 -0.06565506733791421 0.0823691813375669
0.1613518822657401 -0.06436125358778938 0.08175794222672875
0.16068359040373145 -0.06322652193506346 0.08162583786461265
0.1610301278521671 -0.06390997947264732 0.08189328030626937
0.16022561111146377 -0.06251484390831132 0.0818687399202311
0.1595950635221458 -0.061168477030934545 0.0814878324785032
0.1598535517427303 -0.06193253620991749 0.08214999575179638
0.15917978960828535 -0.060423954272873455 0.08171127798122653
0.15887374849711458 -0.05969117401143575 0.08141797162118088
0.15860835520404146 -0.05917802073927797 0.08155239385976634
0.15883065427230902 -0.059900012846133326 0.08219091843803639
0.15827708653836883 -0.05855358230432675 0.08175407798150926
0.1576989646319134 -0.05713922441418492 0.08131308358467094
0.15792159989865642 -0.057930248459056345 0.08205027228153008
0.15730210843778494 -0.056397381483585085 0.08152742525030453
0.15701893439767167 -0.05569073845608163 0.08125714814584743
0.1567483507974743 -0.055197682144880134 0.08138687850837013
0.1569513359346552 -0.05588746499999894 0.08202086228047045
0.1563549660621242 -0.05449459281143666 0.08151571450790837
0.15605217292749252 -0.05382262855355653 0.0812517063826045
0.15575190492445548 -0.05336018953295602 0.08139112769443321
0.15596373720306378 -0.053998247923094135 0.08199960766504973
0.1553935460598158 -0.052793612985333284 0.08148087453287964
0.15475198084544414 -0.05169035230747184 0.08140773627693637
0.15507702280127306 -0.05233545351700637 0.08163070114159535
0.15428052472973994 -0.05102545122563966 0.08165378943144226
0.1536269583098022 -0.04965123387794555 0.08095195009868413
0.15330580045936512 -0.04923785695241582 0.08120851250597835
0.15357668553192305 -0.049875038218206096 0.0816842644859155
0.1538915771417661 -0.05055022201803582 0.08204902664000131
0.15289221996024402 -0.048713506790021496 0.08150063840912261
0.1521241469343268 -0.04758358580070009 0.0814430943760291
0.1524669301203152 -0.048231112161219024 0.08188366610391193
0.15131630865035325 -0.04652284478536152 0.08139957349230557
0.15166600831453753 -0.04714100848533292 0.0818755298021539
0.15051093899801501 -0.045311055838813515 0.08094380797690076
0.150151037242601 -0.04488090488341846 0.0812159900166593
0.15048498825862006 -0.045573060113695975 0.0817817806417928
0.15093397880641837 -0.046173789960346726 0.08179713262944843
0.14969866606661403 -0.04428561491848328 0.08151539908323187
0.1489970722071647 -0.04299058221670943 0.08128384653922241
0.14921053176047264 -0.04366286470076358 0.08187622319326995
0.14838237708946117 -0.04181087976302864 0.08125634431686343
0.14860386934201741 -0.04247970274391336 0.08162647984505707
0.14768396341314358 -0.04060219494566499 0.08140122427003307
0.1479691037518329 -0.04135810237252745 0.08173164868173079
0.14706151171408988 -0.03939812266527819 0.08152404674988666
0.14711748396424257 -0.03997741088320117 0.0820274378922031
0.14654015024790004 -0.03901412075754451 0.08222604382536175
0.1732443201095958 -0.0851908186654279 0.08348834843922327
0.1729783583504807 -0.08474375430643658 0.0837729272800539
0.17254632001643905 -0.08397341619641135 0.08390278202544509
0.17205441668320592 -0.0831226080921609 0.08401912428103372
0.17152245939674465 -0.08223886715723433 0.08420583626995935
0.17062925340707757 -0.08062888393714858 0.08332528609767147
0.1710308436484873 -0.08139991401406195 0.08398281769296333
0.1701742837980918 -0.07985224949032525 0.08313602912410312
0.16981932793981644 -0.07929625805109355 0.08343425049654801
0.16940498246369695 -0.07859037702886026 0.08369324268953299
0.16865026570320646 -0.07708513761861337 0.08308976561773819
