# .PCD v.7 - Point Cloud Data file format
VERSION .7
FIELDS x y z
SIZE 4 4 4
TYPE f f f
COUNT 1 1 1
WIDTH 788
HEIGHT 1
VIEWPOINT 0 0 0 1 0 0 0
POINTS 788
DATA ascii
0.16746465935609897 -0.07660884119850406 0.0790552346390386
0.16674649702605 -0.07587883570342234 0.0791008842718285
0.16613424577633082 -0.07518432162942572 0.0791127253452239
0.1652552719045828 -0.07401581868568488 0.07886536019643868
0.16570921955534867 -0.07466356925592178 0.07916240897917584
0.16469712083769897 -0.07323380768635852 0.07895360838997566
0.1641507666147284 -0.07250035722416721 0.0790317395155413
0.16317997528832107 -0.071129076232579 0.07837352838604054
0.16359544766144993 -0.07177617845126145 0.07916978707451669
0.16261274391704134 -0.07043079083926135 0.07855332657916919
0.16207202450309666 -0.06978313336719015 0.07871687787879576
0.161138706603522 -0.0684852084247519 0.078266938095421
0.16157218164467763 -0.06918984304935487 0.07891101168696087
0.16057273576529643 -0.06787058095925702 0.07854375870327103
0.15963526305112885 -0.06659717456563256 0.0780803457473132
0.1600104192860839 -0.0672726433084336 0.07877781778736742
0.15909669865283163 -0.06596843562570293 0.07819850130311069
0.15859421261593007 -0.06538233494365762 0.07828316431610384
0.15781008466064583 -0.06430642233130382 0.07807859960637299
0.15820655292913854 -0.06494362580474822 0.07837729426545975
0.15714805330652032 -0.06355917176903667 0.07812770651185795
0.15672176331150273 -0.0629323909471315 0.07784475459362963
0.15629124891382026 -0.06253246628765836 0.07791891348547074
0.1565965464699957 -0.06315052651690073 0.07846850800991723
0.1557266602577247 -0.06193946631246881 0.07790873469890733
0.15533597057056547 -0.06137992126765726 0.07768904466036698
0.15495158449708185 -0.06106608254255151 0.07794309934668701
0.15530867030428622 -0.06163171848775281 0.07815652997155861
0.15442422122118926 -0.060471621573454856 0.07800797190158472
0.15369882217920544 -0.05925946897863965 0.07759194495886847
0.1539507867649944 -0.05997872074970876 0.07819206425450825
0.15317424585388129 -0.05862134314765179 0.07771304032248169
0.15284744852047222 -0.05796129643625507 0.07744838618550542
0.15255249401645377 -0.05756839289631866 0.07755417993670793
0.15272489558270821 -0.05820524285402516 0.0780950939918942
0.15219512394296628 -0.05703371334931889 0.07758483067885683
0.15183892658907325 -0.056494924282285704 0.07761709367944805
0.151279076312822 -0.0554436737718505 0.0774414199172363
0.15154818073542733 -0.056102417891597436 0.07771150640047282
0.15085038323860606 -0.05478094163779283 0.07752425781161128
0.15021242404868118 -0.05372607520423785 0.07739983499465491
0.1505365581769052 -0.05436203455426542 0.07763434392316546
0.14986141689193597 -0.053123705719004446 0.07712150228410602
0.14952762472509645 -0.05275219338480562 0.07722662899359695
0.1497191072600099 -0.053297581832896804 0.07775921523555343
0.14915275540918155 -0.05229037255352784 0.07731884831548481
0.1485158054762393 -0.05140409185484565 0.07732703498010954
0.14883355922961147 -0.051923869594409415 0.07747160472887298
0.1478082201589789 -0.050105519706048596 0.07706793380450688
0.1480412706417002 -0.05081324529155586 0.07764120123529175
0.14755147836262353 -0.049536338469537575 0.07694526677464725
0.14728647750278281 -0.04912544586251316 0.07710085689685428
0.14739422281725592 -0.04967337850822639 0.07754395979510795
0.1469704479672708 -0.04859193028565351 0.07717494063082722
0.146504723331426 -0.04778303385218314 0.07707314969285524
0.146738507474088 -0.048207510204446705 0.07716810764178396
0.1459068357732567 -0.04692338039465724 0.0771599544682811
0.14619442833715826 -0.04738493721864852 0.07715865022848796
0.14500691914867336 -0.04483070932997983 0.07714060237703925
0.14501933501088707 -0.04563124442719092 0.07754155672025094
0.14534472985088168 -0.046316180951912186 0.07751200295036254
0.14494607561457318 -0.043800157293264814 0.077082280056995
0.14459737570212836 -0.043684804649114194 0.0776659369828036
0.14459416866906666 -0.04440956630795472 0.07777317377707946
0.14474942296594975 -0.04306450713872584 0.07727803421035277
0.14455810860680599 -0.042380686528097115 0.07748877489476613
0.14436838720944617 -0.04318871338611896 0.07791331524349555
0.1443283545707709 -0.041727139277025434 0.07773361765788432
0.14393323708872705 -0.04080495444920503 0.07816579454735884
0.144010202879833 -0.041249174449191225 0.0781380812632773
0.17194697186399382 -0.08234319712751742 0.08028671080441102
0.1716038327129336 -0.08192963826369283 0.08047370553938309
0.17101438220352588 -0.08113308058774822 0.08051103122629803
0.17035959447098845 -0.08024584336448126 0.08050569379913829
0.16951989508735452 -0.07934648995734557 0.08045434949086644
0.16891294547547286 -0.07854907103733143 0.08000288612568046
0.16844465782243453 -0.07799506545696366 0.07999604543987562
0.1688315856593343 -0.07870317809406117 0.08074367281370648
0.16784507205220428 -0.07731869134033877 0.07994903012463335
0.1671507830652395 -0.0765736522270432 0.07997808001702972
0.16642895944368083 -0.07574274951200398 0.08003424003773008
0.16592937405711702 -0.07503156401838394 0.0796847319873384
0.16553323990590801 -0.07452275124765238 0.0797324686475225
0.16589871705190026 -0.07512728451869385 0.08039644414759718
0.16503084209750585 -0.07386280760089697 0.07976172364270684
0.16451733923136977 -0.07314216930860226 0.07985271681249896
0.16398378741944294 -0.07243009679403982 0.07996353775215405
0.16302485438316572 -0.07108019937690171 0.07931511668993077
0.1634632570329596 -0.07173006376249709 0.08010308186997131
0.1624730199333627 -0.0703974496777047 0.07946310924718579
0.1619437243387776 -0.06978155623395854 0.07952860103769398
0.16105109110511076 -0.06867156600958438 0.07931413645557323
0.16153737365757984 -0.06930654033579728 0.07960079395056517
0.1604232168310689 -0.06797325297838683 0.07948790973370362
0.15944026971479122 -0.06666837651172391 0.07896070065510499
0.15984859789967637 -0.06737548525301182 0.07966864005887449
0.15884065528899308 -0.06598771985633857 0.07912878320525894
0.1583916417142282 -0.06534609308054337 0.07884911838713737
0.15800937282011376 -0.06489561392125168 0.07892234948423134
0.15833656493620044 -0.06551500924625248 0.07953352100274115
0.15749172958504407 -0.06431075280192496 0.0789526244701015
0.15694095379134151 -0.06374816687182618 0.0790110225432604
0.15599472366703607 -0.0627027172602998 0.07882257534227263
0.15650588377177077 -0.06334043140658441 0.07910617317517417
0.15549410614408823 -0.062049879268334995 0.07855403906280224
0.15509848837343035 -0.06168004971367549 0.07866321403352926
0.15540318119461682 -0.06227632816126306 0.07920085038017884
0.15462725331444999 -0.06115671538468167 0.07872149276247214
0.15417538619441315 -0.06060190678388185 0.0787694374757844
0.15347953402990094 -0.05953935076569316 0.07852911081631699
0.15382844235403936 -0.06017697233281017 0.07882472188161976
0.15296882446071003 -0.058917973149783705 0.07866907570251899
0.15232093551412543 -0.05771974808812395 0.07828004781326577
0.1525396151980663 -0.058418386812949814 0.0788656922828021
0.1519068616746682 -0.05710245255429795 0.0783492753896898
0.15163959766546092 -0.056531411422058114 0.07812581861166752
0.1513375493789042 -0.05619226846259802 0.07833409016855594
0.15159790268994364 -0.056773201018316774 0.07857829555930447
0.1509023556865283 -0.055443966716628594 0.07832739899049083
0.15061990855698112 -0.05479673921495593 0.07806200629753694
0.1503238728392284 -0.05441036297113488 0.07817507034341217
0.15051072334391702 -0.05503086455215616 0.07866311321670211
0.14994324796434033 -0.05392349105293028 0.07832700946781589
0.1492665182841501 -0.052798441022175964 0.07802902378114304
0.1495382917901585 -0.053468158127264576 0.07855670311894083
0.1489487593851309 -0.05226127041014306 0.07787558996026893
0.14864690177554568 -0.051909472336853835 0.07803447094562531
0.148858548365196 -0.05244006436818925 0.07850233454514606
0.14826033766591618 -0.051427614596862826 0.07823585908571007
0.147623652675959 -0.05029912621228782 0.07796932450323694
0.147838425437867 -0.05090662906762718 0.07850400094019175
0.14695880463601022 -0.04912091649784293 0.07788147619014885
0.1472231783003828 -0.04984330780842469 0.07832412907786511
0.14656037804956895 -0.04832720997896866 0.07769931276326272
0.14620247525958263 -0.0482046905510836 0.07829195491048423
0.14649810619054526 -0.048766183497382425 0.07848488561692003
0.1460243603046844 -0.04761494632046456 0.07777223618245475
0.1455990896984378 -0.047420018791469315 0.07835611184087106
0.1458317684671164 -0.047878379184743476 0.07859827811137136
0.1455357338586025 -0.04699650780141896 0.07792526173681272
0.14514961578192442 -0.04662482926493932 0.07820366992909646
0.14525524708197143 -0.047063564821671906 0.07857244685850717
0.144649401980938 -0.0452496210840864 0.07801825392560274
0.14482301458511904 -0.0460666026011858 0.07826214182221013
0.14427901064255855 -0.04398643950420745 0.07821580482044772
0.1442791815645982 -0.04478893998306391 0.0785076079913293
0.1441088415533684 -0.04252037957275143 0.07825640816740016
0.14399650387615592 -0.04348030314397942 0.07858358473831477
0.14400026472310762 -0.04181524508542411 0.07831026982804005
0.14376008197688267 -0.04154855128340591 0.07862220512094921
0.14373923959404092 -0.042164483377479786 0.07878948519512777
0.14361587872898343 -0.04061386592466796 0.078657807854594
0.14363319667432625 -0.04098895178585673 0.07877588542519842
0.17171292960752024 -0.08243606447220045 0.08119609490267615
0.17133983721725796 -0.08199333027333013 0.08142199085391584
0.17076697178342531 -0.08119752749331739 0.08147902615955274
0.1700802702180935 -0.08034801723100903 0.08149013692924507
0.1693362085074266 -0.07953587720950704 0.08155900760498588
0.16823666923023659 -0.07801885904967228 0.08082118460318484
0.1686834132936531 -0.07876722692273198 0.08166554430393527
0.1675825009645714 -0.07729612100375535 0.08085684338105942
0.1669446757804392 -0.07654553683683271 0.08093073141222244
0.16634168362376217 -0.07584926013165463 0.08108787528912123
0.16540817553187198 -0.074491494862454 0.08054717573668913
0.16581316062164053 -0.07517171653348242 0.08129175826608302
0.16488289431797779 -0.07380826289664454 0.08065237961734276
0.16437105873153235 -0.07310111179521268 0.0807615480342928
0.1638687382316209 -0.07239848983116581 0.08088432131392297
0.16289489222701514 -0.07105260702628051 0.0802540330145592
0.16336250293855983 -0.07172434668775496 0.08103376864109996
0.16225935721876467 -0.0703245166494668 0.08040316692525921
0.16176175863817224 -0.06967893803466864 0.080096835884687
0.16135869876252285 -0.06921648917277821 0.08016962618013027
0.16174100169484124 -0.06980636569344846 0.08079780995149403
0.16081632015504976 -0.0686418523214606 0.08022988370781499
0.1602581780595299 -0.06804087133860999 0.0803639717814177
0.1593091916571635 -0.0667910987670692 0.07990143440722887
0.15973932669729932 -0.06749670525478914 0.08054394547876566
0.1587633050794042 -0.06622714254838714 0.08016384252888328
0.15783642311686708 -0.06497624457165367 0.07972321245963984
0.15824137881704062 -0.06567027178918662 0.08040656593409212
0.1572140188667403 -0.06435022923845247 0.07986600341553839
0.15672378121830538 -0.0637372334791529 0.07958408889723975
0.1563022707597381 -0.06333828713471763 0.07966981324914546
0.15668650812064971 -0.06391674254850725 0.08027313988490935
0.15577321118292878 -0.06287944823735611 0.07977080347242811
0.15489679436867404 -0.06181710029398596 0.07940654739375998
0.15526105449422214 -0.06244589910198541 0.07997577292329587
0.15435102265985587 -0.061204346175870776 0.07957040209043842
0.15396271132456438 -0.060586975824191744 0.07929000653652019
0.153624757217437 -0.060161968741844755 0.07934195386227089
0.1538957323801953 -0.0607574900012748 0.0799308758973506
0.15320654632695985 -0.05959527311089359 0.07939083176293342
0.15278016840287556 -0.059042385803253696 0.07943576986152873
0.1520948741324771 -0.057896329310212616 0.07924156823057905
0.15245368194160347 -0.05860363036244559 0.07950963208626548
0.15172504222964095 -0.05720147692440327 0.07897745964539801
0.15142156367838297 -0.05679599737733325 0.07906402754615952
0.15164987391441903 -0.057405792243266605 0.07962112779527526
0.15106115811383428 -0.05621558352168913 0.07909570078191817
0.15070006758144067 -0.05564822516771664 0.07915465759493039
0.1501461090983773 -0.05464088917051464 0.07901614213032458
0.1504178847739333 -0.05524540952129596 0.07925052778597047
0.14974338048139577 -0.05404652850257063 0.07909161520662567
0.14914061351926283 -0.05309363086120909 0.07900755784485286
0.14944522408976765 -0.05364783313630138 0.07919433940513518
0.14847023335497392 -0.05201016877890863 0.07879821267812487
0.148714347347929 -0.052595037672286425 0.07927278340952208
0.14805646275654855 -0.0515108242357354 0.07907977750019894
0.14744823771050708 -0.050412693127209744 0.07872807603020882
0.14760874774635574 -0.05094947610239674 0.07936694104200663
0.14682999125183477 -0.04949354554194588 0.07886848589269531
0.14714897037982486 -0.05004763033000484 0.07893429664943159
0.14609980383070376 -0.048425828877733695 0.07893144976574366
0.14638015718024658 -0.049010148914692755 0.07928167188099304
0.14544015886979458 -0.04754209648297979 0.07895518657504495
0.14570042294692317 -0.04806261294010537 0.07929430754325249
0.1448934737582091 -0.04663816369673649 0.07875342635937595
0.14502602115908503 -0.047119679779704805 0.07930393696622598
0.144396474698601 -0.04563395797870344 0.07889016080076085
0.14461104964480095 -0.04625481651224325 0.07893239763566695
0.14398056812414817 -0.0442764847744367 0.07891287309301617
0.1440278396491798 -0.045013128204421306 0.07929571574117932
0.1437101045228745 -0.042966721870672527 0.0789961925475619
0.1437042665409471 -0.043760660629644434 0.07929598403531396
0.14345956380892003 -0.04170763204446945 0.07917558548410818
0.14342036691966173 -0.042500243404637775 0.07943642163476441
0.14331485240635644 -0.04068683204458879 0.07926780846065423
0.14318345189841228 -0.041159746165174343 0.07961491277441789
0.17152593952785897 -0.08246654488342631 0.08213902844297298
0.17115703502999854 -0.08201119586472977 0.0823801361204205
0.17059089415050038 -0.08123830533256393 0.08245273569920407
0.16991295341975607 -0.08040625528857161 0.08249405878834164
0.16921038018300535 -0.07956779302411054 0.08256325481247728
0.1680346424729478 -0.07801409682869183 0.0817321085819251
0.16850920787120083 -0.07874997873939953 0.08259964380677674
0.16740178453343765 -0.07726565367494588 0.08176500725892197
0.1668019745912137 -0.07657875621267551 0.0818457915271937
0.16625547600016177 -0.07590487931871631 0.08203112864459819
0.16530197311480788 -0.07449159634153601 0.08144050012809301
0.16573941377016999 -0.07520933008724939 0.08221277574975895
0.1647649923825316 -0.07378989625584664 0.08155760360260747
0.16427119973423734 -0.07307369254099917 0.08167481610127805
0.16378098125047325 -0.07238850603741989 0.08178734716767372
0.16279963704373496 -0.07109531960846842 0.08123105870086333
0.16331044830023386 -0.07178061209033287 0.08193969002087233
0.1622277245252824 -0.07049067211256464 0.08147266763646939
0.16121798084298625 -0.06925340853239809 0.0809719741135971
0.16165045304638767 -0.06989822308606777 0.08168385577133834
0.1606456002937436 -0.06866396139243704 0.0810988748266293
0.16011694594287607 -0.06808558796761219 0.08116588754223819
0.15924162693093374 -0.06701904628776477 0.0809378131067841
0.15970183609788827 -0.06765073980858506 0.08123150124429084
0.15865043727792077 -0.06635959391601035 0.08109016248046516
0.15770654021926553 -0.06513486321580374 0.08064136194679257
0.1581568403990446 -0.06581996207650052 0.08128286105618895
0.15714272190283288 -0.06459397231814722 0.08090845912603759
0.15614756105166713 -0.06344875475966393 0.08045430646157825
0.1565837785548239 -0.06405566899064806 0.08115038850733314
0.1556192944815307 -0.06297702028039316 0.0805350214639484
0.15478529538934413 -0.062015582796607994 0.08036111433676728
0.15522412028767166 -0.06259069174637402 0.08062621629362253
0.15424595879037406 -0.06139598176064181 0.08052983449116899
0.1534765719893633 -0.06025082066993632 0.08012708892662336
0.15381192458786552 -0.06089359067178337 0.08073608954085103
0.15299143828744904 -0.05962293844067051 0.08026698798650508
0.15261411139904682 -0.05901652592541984 0.07997613889726533
0.15231550385261816 -0.058573735423617206 0.08007648833659235
0.15260223847152618 -0.05917363792837579 0.0806454088904958
0.15194001653382214 -0.058048319104560195 0.08022080438237103
0.1512621154535543 -0.05687986481711701 0.07978747975205507
0.15154475369664436 -0.057529073464722434 0.0804309745644627
0.15084858877463533 -0.05623126848061088 0.07992950731240596
0.1505318295633641 -0.055634812231867656 0.07967892214309862
0.1502593261532784 -0.05520199934147254 0.07976986997916423
0.1504974646442203 -0.05577489589819251 0.08032523765126393
0.14986687960274772 -0.05458446317647548 0.07985081323157624
0.14955418774765528 -0.05401076884485969 0.0796106107851779
0.14926219687321857 -0.05360649561574181 0.0797128869716822
0.14948680049326155 -0.05414291367406031 0.08023405016906876
0.14891415392631485 -0.05311948525979943 0.07976950914147282
0.14831155605423388 -0.05217499648238354 0.07968967026583915
0.14861088160984082 -0.052727878355309135 0.07987680976670143
0.14787706200922923 -0.05159225920344536 0.0798770200234772
0.14728383162920228 -0.05041371303127639 0.07928236833462515
0.14700175486532216 -0.050053166051088976 0.07948762632736486
0.1472371842915828 -0.05059664942506227 0.07988725532892
0.1475197644621709 -0.05117126912768845 0.08019748278709925
0.14664007560479542 -0.049592584343868436 0.07972810379209383
0.14599369129827222 -0.04861660631348448 0.07967239920627359
0.14627584205046573 -0.04916623411843595 0.08003597640835328
0.14532177947867253 -0.04769329385639436 0.07964013683927315
0.14560082121185397 -0.04822010330231997 0.08003120450584766
0.14469439069154547 -0.046628792430725825 0.07928982929877189
0.14443613509200337 -0.04623348653246915 0.0795132374121916
0.14465899487205616 -0.046842892666448734 0.07996336892330401
0.14501273347733673 -0.047376092930713036 0.0799677563523735
0.14413659782356175 -0.045676464237716013 0.07977645984320353
0.14373293759649206 -0.04444512781404615 0.07964183162906865
0.14380171577754902 -0.04507718095134021 0.08009932249865458
0.14343529160041818 -0.043266148983505406 0.07969971071505384
0.1434785152634321 -0.04393598087333944 0.07995874927820472
0.1430955395321407 -0.042000456279692636 0.07992055178361246
0.1431680858942199 -0.04279393568629068 0.08013772250557016
0.1428783154316887 -0.040686942875909626 0.08014784411406828
0.14274303727992124 -0.04131649316029028 0.08051486806605304
0.14249773576426478 -0.04025645579722239 0.0807885941899133
0.17138513691786117 -0.08246388663828391 0.08307817199980103
0.17102560973374165 -0.08200518834373033 0.08332583389097295
0.1704413112118854 -0.08123350666436274 0.08341596941139712
0.16977960748435636 -0.08038185142179115 0.08348757434183537
0.16906367776972653 -0.07949813448317151 0.08361710626279267
0.16784798364325762 -0.07793276985928906 0.08272652577341995
0.16839573408531422 -0.07867284729065628 0.08337070445366566
0.16723346921605453 -0.07718527724839641 0.08251405697491666
0.16676282686946048 -0.07663754707947881 0.0827683544813519
0.16621840722836836 -0.07594665463168258 0.08298225354919914
0.16520459510926638 -0.0745025921682131 0.08235423010299259
0.16567946656494237 -0.07523076042770499 0.08315194806413387
0.16468631043857804 -0.07377470487525739 0.082477040882243
0.1641716300126674 -0.07305193668772156 0.08257518317942739
0.16371489353836421 -0.07238358310850262 0.08260815298792334
0.1627935938186141 -0.07127661031996309 0.08230412168878455
0.16333598751489115 -0.07190116705306737 0.08265006111812725
0.16213026851616916 -0.07058722045656439 0.08242882208177668
0.1610849764238924 -0.06929820409728896 0.08186246491769457
0.1615539340641042 -0.06997896644116153 0.08259798807103966
0.16043668875920333 -0.06863602875075257 0.08201398257842034
0.1599353628148898 -0.0680289332788364 0.08172341535994358
0.15953077234453716 -0.06758492430149435 0.08179573011730222
0.15993661771110446 -0.06816249286832725 0.08241343927911977
0.15902921407736414 -0.06699741449627061 0.0818499310135917
0.15852371770955434 -0.06641666932325316 0.08189571861848735
0.157678509435133 -0.06537036921813495 0.08169137374439503
0.15814951200582808 -0.06597477962386597 0.08197417500636131
0.15706391756295177 -0.06472787198947891 0.08186483428262412
0.1559587161776436 -0.06349120142033282 0.08133895026106727
0.1565059036675107 -0.06417485067393959 0.08206440574804666
0.15545476177580306 -0.06294443154081938 0.08108812234438785
0.15506551321401893 -0.06255058682122684 0.08117591170230762
0.1554671639040417 -0.06309845406597654 0.08175341964132432
0.15458685495009558 -0.062003982469244504 0.08124758429454644
0.15413374053037382 -0.061447600520072795 0.08132144956686436
0.15340600982457916 -0.06043327470699684 0.08109421407842793
0.15378846564941978 -0.061033753359237136 0.0813885358071558
0.15293598340463158 -0.05980953711873213 0.08124098185996761
0.15224526262931395 -0.05868644322405926 0.080879184258094
0.15256466286469264 -0.05930877601991626 0.08144175896685303
0.15186661897810272 -0.058160771563826694 0.08108976478635795
0.1511635301979103 -0.05697183315972559 0.08063557606730799
0.15148395577713802 -0.0576182438431728 0.08128009542102495
0.15079886458387926 -0.056415329491958495 0.08089353126981595
0.15015175870600272 -0.055258646989785005 0.08053238665795365
0.15044349097606438 -0.05587615924213827 0.08115103786741165
0.14978394856649038 -0.054734178361175514 0.08075419491003254
0.14907531595586107 -0.05360883479121976 0.08049371647356303
0.14942212932909024 -0.054271863443392854 0.08102746313313212
0.14873405531133696 -0.05306607771348852 0.08028969061111312
0.14843608160251048 -0.05265186713693175 0.08041615997029396
0.14869920873614104 -0.053191845487367946 0.08095161983502808
0.1480468927067635 -0.052096775017203015 0.08051807686623404
0.1477469381333506 -0.05162597068339919 0.08045641506551544
0.14753774102858652 -0.05143135885325492 0.08085355483251815
0.1477839121841529 -0.05182366110430367 0.08086024599213337
0.14686802113769354 -0.05014718855837364 0.08023203109902173
0.14716803192503872 -0.05080839598466881 0.08077924163770826
0.14651375814922382 -0.049667055593001844 0.08044532245281626
0.14590986693552832 -0.04880037535227344 0.08049829268513418
0.14623505105249157 -0.04929987289330389 0.08062018610473193
0.14524189387126943 -0.047824213876015265 0.08035991696421742
0.14550663016445706 -0.04831853127684676 0.08074746863662055
0.14428266099700487 -0.046276928997589326 0.08029181640513287
0.14447360067817486 -0.04682730575654623 0.08083400163233802
0.14486266580899806 -0.04736935264353825 0.08063294907569807
0.1439494840600455 -0.04570194617979286 0.08061617875655742
0.14352420500138752 -0.04446431705710546 0.08033433074319155
0.14356715307574142 -0.045020539394071066 0.08099064727269863
0.14321670611171639 -0.04351863301807049 0.0804196596833763
0.14336958341264908 -0.04403616592014336 0.08040881851107597
0.14280795443111685 -0.04238745104268521 0.0807503336823299
0.14299699270724256 -0.043012911688390776 0.08062124142784959
0.14258507320595257 -0.04060125426513528 0.08073581693888725
0.14234796713075282 -0.04028725673274203 0.08112615980054497
0.14235793597572657 -0.040830387873887916 0.08123440193844841
0.14241992725992905 -0.041687480241935644 0.08135009308759938
0.14214549276667918 -0.03992612696146055 0.08140817807985085
0.17128410054890775 -0.08242614054155045 0.08396541873321745
0.1709284604503631 -0.08196088116997455 0.08422053151511824
0.17034297972843873 -0.08119628165096773 0.08435296080636345
0.169747271114828 -0.08039135416942207 0.08445308504072947
0.1692403183781007 -0.07974009984818277 0.08459864445995027
0.16803626355822496 -0.07823680018757632 0.08365569234525269
0.1686264498071721 -0.0789409195976339 0.08431118436227472
0.16740754079435502 -0.07747175093631258 0.08348486589972598
0.16797449012589938 -0.07815603671078021 0.08443038751086596
0.16678025208554836 -0.0766862940968734 0.0837620530071605
0.16618837028180916 -0.0759630472342875 0.08395130887243132
0.165141173933818 -0.07450133685656174 0.08329159842228032
0.16562482683635474 -0.07522836573758282 0.0841038145415337
0.16461263163160605 -0.07376530224884777 0.08341265476607214
0.16404208515324425 -0.07297823689502843 0.0835070135736036
0.16358208609721958 -0.07229722959998984 0.08316851917485857
0.16316832984362337 -0.07183586477921412 0.08320106178494668
0.16356730009869852 -0.07244002393702638 0.0838546951129929
0.16259399098206034 -0.0712458483648264 0.08322189056658165
0.16201841413522344 -0.07062713894362435 0.08333038055451954
0.16098655902672915 -0.06939214967193168 0.08280925490168888
0.16147628650490084 -0.0700673179735067 0.08348733331017617
0.1604234088104424 -0.06882117319179844 0.08304837535786527
0.15942011172561668 -0.06763724168892306 0.08261678386422537
0.15988825723073757 -0.06829818796402254 0.08326546974231644
0.15884185523185035 -0.06698181964952975 0.08275242035843183
0.15837592600152825 -0.06636663019983977 0.08245890376429649
0.15802117538284985 -0.06594139137535379 0.08256313638435982
0.15839897490573931 -0.0665367229033638 0.08311840125951295
0.15752950103186325 -0.06538110133534382 0.08265099321568176
0.15697781070510589 -0.06480761266707898 0.08276604330338694
0.15597205815456117 -0.06371031680081378 0.08234195207559497
0.15647486715511827 -0.06431847365067463 0.08294303337549816
0.15496621688261944 -0.0626001235729882 0.0819593592143183
0.15543782888974217 -0.06323625158001996 0.08262438317768409
0.1544265646548071 -0.06196684128986584 0.08212795006337666
0.1539966638214667 -0.06138727127659437 0.08186011288482826
0.15366551065721415 -0.060967956593808444 0.08192495573802298
0.15401326111613 -0.06151169263247521 0.08251280437647195
0.15325233235847607 -0.060420129333478935 0.08196765066621417
0.15285738769153667 -0.059866060721696944 0.08201106295368063
0.15222729033462473 -0.05885497621619008 0.08180928609585353
0.15256888723401268 -0.059438344601057444 0.08207850913783342
0.1518107761085541 -0.058221472399168014 0.0819394827404375
0.1511294322306466 -0.05706897833003826 0.08153022171045687
0.15145724243697312 -0.05769155535005871 0.08210950098555066
0.15077425878911627 -0.05650690652067528 0.08178096635239997
0.15008428605328333 -0.055326887675779236 0.08136253615828645
0.15041733462340676 -0.055923458152285895 0.08199317961952834
0.1497256373567784 -0.05480880192750414 0.08151421634568165
0.14908738334675004 -0.05386004789722584 0.08150248559763558
0.14944246211400486 -0.05441621815658538 0.081656681165603
0.14827618207437257 -0.05263071487163119 0.08124340164488196
0.14865886501951797 -0.05327788048331907 0.08181627404013327
0.147935706328374 -0.05212723796080306 0.08113573635576958
0.1476887518038706 -0.05180136513849935 0.08134720683157187
0.1479479045220458 -0.05224821892449302 0.0817346294751765
0.14737256695058182 -0.05132650443828923 0.0814999404098977
0.14668647372994564 -0.050149896198518555 0.08109348756545698
0.14698201769682254 -0.05077114848868883 0.0817152267066781
0.14637740403242974 -0.0496231394960252 0.0809801236270766
0.1460809226567004 -0.04924301395886015 0.0811638500330157
0.14632791489083757 -0.04973201279974443 0.08157321697726973
0.14571646376953923 -0.048744288870051965 0.08124841037451899
0.1451609896582727 -0.04794947760618574 0.08117426114726918
0.14545449618233827 -0.048372263461485335 0.08123861953755222
0.14412592240715008 -0.046286084433365036 0.08111580377160846
0.1443232113456016 -0.04677307436670612 0.08155053033972924
0.14469281099999023 -0.0473539105782288 0.08152180023637862
0.14380409917291842 -0.04573864818081891 0.08144487280822225
0.1432655707395148 -0.04415124549986906 0.08095059028613963
0.14299385122438052 -0.043980980546492784 0.08161194236757208
0.14322928186466108 -0.04459946191255803 0.08168255395200441
0.1435053103915356 -0.045259556511516176 0.08185720812193296
0.14285726705282953 -0.04329042897746481 0.08121705976422369
0.142520014678997 -0.04302658456124562 0.08188817581540155
0.14269020653393436 -0.04358391926900645 0.0819930262333871
0.14252121341002716 -0.04248925075978125 0.08156860208208822
0.14222787855369473 -0.04193958678850657 0.08197407175301287
0.14225929629000583 -0.04253069696002066 0.0822346582889727
0.14211881017057162 -0.04024039905942567 0.08165141921221332
0.1420006874724654 -0.041021787817419574 0.0821332102009339
0.14182585472021345 -0.03970046138326223 0.0819621242190823
0.14197114377487072 -0.039853336825880735 0.08180765235089817
0.17116905568521562 -0.08230513396647868 0.08460693384354709
0.17080002530501268 -0.08178517364888988 0.08501608997710937
0.1703028815463116 -0.08112973676257469 0.08527244845799273
0.16976182654126187 -0.08037082730295315 0.08534755125260843
0.16914751923335805 -0.0795751398935116 0.0853084232046315
0.16852737411822738 -0.07879550552423145 0.08526218826120485
0.16737798639546347 -0.07742797075508985 0.08458123492037156
0.16795664517651737 -0.07809188271220248 0.08535050475574033
0.166764020902527 -0.07669697378867535 0.08478204806534519
0.16615038020122855 -0.07594626016478882 0.08492602577200824
0.16509902057673118 -0.07450427536346683 0.08424480133803913
0.16559725846822532 -0.0752359472048546 0.0850628176949221
0.16456295115982061 -0.0737968379104125 0.08437790703025275
0.16402953592036254 -0.07314140658383858 0.08454861691717477
0.16305798508462682 -0.07187292854860318 0.08400325341182986
0.16351059460960168 -0.07254093093737096 0.08473921735915173
0.16248111508452673 -0.07126639412931543 0.08411064497176825
0.16191842354589145 -0.07065827242798126 0.08414926960216068
0.16095778375485242 -0.06955469081765087 0.08386677277453222
0.1614842455945174 -0.07018492865174836 0.08419860584534103
0.16033359308710832 -0.06890347507624449 0.08391145505591883
0.15938417451520626 -0.06779671942243728 0.08363777634956289
0.15988859300576633 -0.06844089555040596 0.08396803223767907
0.15880439739780897 -0.06714598799179679 0.08369705635947522
0.15797943024372044 -0.06608224507681419 0.08346943547691454
0.1584159049658264 -0.0667064631766945 0.08377725782679933
0.1574106334713714 -0.06541308136108591 0.08352745586102793
0.15689350664236132 -0.06485831625906661 0.08354499910080047
0.15600184673132872 -0.06391829793881747 0.08334575614146233
0.15649569634219637 -0.06445974341824828 0.08360107929004904
0.15491715922640317 -0.06267762918233964 0.0828588990799845
0.15540958348332748 -0.06333752036966145 0.08355089490294484
0.154436427639231 -0.06214095046243541 0.083115451501277
0.15359776242372866 -0.06099966460710846 0.08270347377473657
0.15399897323382783 -0.061621226133183334 0.08337088252639561
0.15312500293201517 -0.06039108430950861 0.08283612525108222
0.15275266291372813 -0.059797638140376516 0.08254650314304961
0.1524701563845538 -0.05937086594421006 0.08262048983393738
0.15277583919182894 -0.05993357746087424 0.08321436890316043
0.15210917700701043 -0.05880662235227249 0.08266860970831584
0.15175096575979874 -0.058229205384747504 0.08270440241035222
0.15114872305488447 -0.05719782966617645 0.08248780079718004
0.15147790648153553 -0.05779196540708802 0.0827603823324967
0.1507636926680109 -0.05653253917165802 0.08263630545831392
0.15001908443974254 -0.05530867402099441 0.08224583571297465
0.1504281785856458 -0.05597926851112378 0.08284618477614018
0.14964956395166634 -0.05475280743760722 0.08205785745769392
0.14937333623596138 -0.054348365897100105 0.08220950513794817
0.1497075373203265 -0.05486773384965508 0.08272552706065377
0.14901859581579455 -0.053838934782332495 0.0823988011783734
0.14828882559850906 -0.052783591474049145 0.08216728352957707
0.14865189904815745 -0.053330628837412644 0.08268999791893569
0.14762122487353968 -0.051807934359517256 0.08204278525895957
0.14794026295106577 -0.05231820016340761 0.08253558851372897
0.14726257914051005 -0.0513056721007418 0.08231504205970426
0.14660554742695173 -0.050250900597670914 0.08196704549189889
0.1468457891453529 -0.050739498702229074 0.082646576295553
0.14592409168479137 -0.04924754926959683 0.08205252454883341
0.1462980702084486 -0.049855971465674845 0.08219996642855949
0.1454257912241681 -0.048474756979467105 0.08181299266157488
0.1452134221985293 -0.048303905872720744 0.082416198151922
0.14551345000851798 -0.04877431476480246 0.08262283836907036
0.14501652361818307 -0.0479293538009822 0.08196405693761921
0.14471562533319846 -0.04754952718032362 0.08224465817314418
0.14493378103434082 -0.0479357917659291 0.08265370897166334
0.14398722900611025 -0.046308322166262475 0.0820214762462809
0.1443615551041672 -0.047030558710384 0.08231069549065644
0.14369372009735695 -0.04575287625065403 0.08208409480038373
0.14348547981746027 -0.045461685519288024 0.08244023110863784
0.14367527171065617 -0.045923530823644705 0.0826790578277092
0.1429033374366679 -0.04419081428770508 0.0822088114211433
0.14316312650204463 -0.044873187714234014 0.0825114815223066
0.1423522160901279 -0.04317096597524345 0.08245723886867593
0.14256945364571869 -0.0437657341760314 0.08260755210058038
0.14194758358309673 -0.0419058097926166 0.08256872912013623
0.14198414798091832 -0.04261516155204281 0.08295475140908969
0.14178730780763393 -0.04002538836787583 0.08227455139155866
0.1415089788175405 -0.03997853559487194 0.08279593589027773
0.1415479773023876 -0.04049347486000098 0.08293966270595513
0.1416220769817388 -0.04130237134001409 0.08304351212773312
0.14162322028457872 -0.039707967487528514 0.08240789551797423
0.1706868994158934 -0.08154740294125444 0.08596509296913321
0.17034795960864713 -0.08104864194450177 0.08618909157999215
0.16977610424960934 -0.08028083820510239 0.08621452959003945
0.16909720743185966 -0.07944779637129806 0.08616085279991074
0.1684790283066674 -0.07869515437988912 0.08607947332703411
0.16743456513143085 -0.07747877912067053 0.08570396824877774
0.16802192187880968 -0.07815132158443226 0.08608274068442923
0.16673581133756862 -0.07666924215457378 0.08578951315665917
0.16611814435549543 -0.0759561633231479 0.08589043783063835
0.16505335707165256 -0.07455030692193745 0.08520251333114598
0.16555905971172008 -0.07528421875191216 0.0860127511640279
0.16451366793333758 -0.0738755346823753 0.0853527036414674
0.16398103584647242 -0.07324117958465468 0.085487301659891
0.16297815335226626 -0.07194404164547939 0.08493052737521374
0.1634718471438134 -0.07265634442332572 0.08564570316312868
0.16233604982173086 -0.07123795483529222 0.08508353801282545
0.1617698846108092 -0.07057063781196443 0.08472959349012404
0.1613433327405803 -0.07009421992823443 0.08479163266455558
0.16182626785090518 -0.07071783749405988 0.08547610558248413
0.1607247292334062 -0.0694531834986714 0.0848328642834798
0.16016369636866223 -0.06883540894657324 0.08449325989286086
0.1597460882675181 -0.06836343659470151 0.08455510148107057
0.16022232182828444 -0.06897376919385868 0.0852168932874222
0.15917796177390212 -0.06770664910389519 0.0845977672161787
0.15867485716920818 -0.06709529074948561 0.08427743463822511
0.1583013242061513 -0.06663354091064479 0.08432648060246212
0.1587210400788354 -0.06721251025497328 0.08496092421235076
0.15780927778550813 -0.06603274211154225 0.0843384267831339
0.15722772735395474 -0.06536493582833901 0.084378833504656
0.15675143236545414 -0.0648040254371148 0.08407093668391598
0.1563771008509653 -0.06441392716224818 0.08416487315286564
0.1567917043233134 -0.06493735616371744 0.0847078769949828
0.1558964612601746 -0.06391180117830751 0.08427113595410174
0.15490333761634056 -0.06280601771679223 0.08380019606033062
0.15538528434395063 -0.06342021596724894 0.08443719951030376
0.15443499808104874 -0.06226028799480545 0.08403723028161754
0.1535720596600145 -0.06109756299736891 0.08360298805845053
0.153998389113169 -0.06174094294495546 0.08424683903872461
0.15316063290277468 -0.060557430289511896 0.0838303693686852
0.1524225451640103 -0.05941609058874771 0.08341671556714121
0.1527867202196372 -0.06004191077884355 0.08405270888678451
0.1520105551178483 -0.05875424071360733 0.0835516946131935
0.15166358487603204 -0.05813883806750735 0.08324328512672041
0.15140036404341028 -0.0576992219506961 0.08331039326958707
0.1516903995822934 -0.058258225358411624 0.08392189814472081
0.15106920975293112 -0.05711107390207508 0.08337051817193274
0.15074251510040296 -0.05652256288941167 0.08342820704107913
0.15012650486716023 -0.055519766388956324 0.08332143497225285
0.1504862672855835 -0.05608629065977061 0.08352996918050663
0.14936085300988386 -0.05436570358404365 0.08299716395162837
0.14972309352139082 -0.05492197871420125 0.0835936874907884
0.1490090342389094 -0.05385588006216138 0.0832408377355962
0.14830391481965027 -0.052854834563500215 0.08304287566377838
0.14867392571651064 -0.053386154366259174 0.08352390978971141
0.14759103060036194 -0.05182799271173325 0.08285343010892333
0.1479525147367042 -0.0523649172386983 0.0833957854957857
0.1472295021696254 -0.05132715027742741 0.08315634469598468
0.14648262982789445 -0.05021355887449693 0.08259564483338373
0.1461785678486008 -0.04980885135828006 0.08280481552548818
0.14651492295074747 -0.05035579568603477 0.08334206744405455
0.1469205584784238 -0.05091205236507388 0.08345849430399964
0.1458258876454363 -0.049313701646514316 0.08304081318696625
0.14520522343328476 -0.04839911296593519 0.08305620445450355
0.14550924657109457 -0.04889109741451155 0.08336806328145024
0.14459985866566782 -0.04750000842367333 0.08284233777727214
0.14482577641003447 -0.04792456190999544 0.08345114316593892
0.14399744272616433 -0.0465639526578908 0.08302370784685356
0.14431514898624004 -0.04711625772960285 0.08303970586225932
0.14333453867185553 -0.045413632729661556 0.08306398477042504
0.14357977046747844 -0.04595830539360668 0.08350598631938738
0.14276394508289764 -0.044265959838502504 0.08288156807851126
0.1429007826362184 -0.044776947135058275 0.0834368300832449
0.1422242750579102 -0.0434201419447678 0.08313932998876125
0.1425038442764936 -0.04388771017331912 0.08303111996863403
0.14170183923685287 -0.041983027855522555 0.08313454814095896
0.14144794103365338 -0.04166463895739165 0.08358082565901317
0.14162589082926094 -0.0422807896054124 0.08359783904533169
0.1418488072007213 -0.04289111338563731 0.08362296457719429
0.141363649781815 -0.0402975637078149 0.08328244697978945
0.14123737775255407 -0.04087479842002172 0.0839006679975308
0.17075526365938784 -0.08144954853168258 0.0869146091895671
0.1704267916534519 -0.08097584626604766 0.08712716002517787
0.16980263010510896 -0.08019187131930873 0.0871295723377354
0.16902721999042658 -0.07927070703281083 0.0870516924215976
0.16837490384209794 -0.07854866294107446 0.08663319176636926
0.16793058805603747 -0.07804618496894432 0.0866749923051948
0.16852465273852074 -0.07867719200670173 0.08733260162853848
0.16733242280583946 -0.07738351211399544 0.08670285236410093
0.1666820714994431 -0.07666367930038145 0.08675210352606365
0.1660801193657874 -0.07600037849661875 0.08681386491246702
0.16503121606909724 -0.07464327050526696 0.08619118265543185
0.16555608236779806 -0.07540245221498736 0.08694703790463879
0.16446087803188592 -0.07398101286166663 0.08632953536055855
0.16390378263244046 -0.07330773752332558 0.08634213651051184
0.16298248364763854 -0.07214606013077678 0.08604101048357818
0.16350223269572853 -0.0728131019099793 0.08639132787532527
0.1623696906539716 -0.07143958384366249 0.08620370728495699
0.16130541552402106 -0.07017174533182188 0.08566976700298284
0.16184904746569867 -0.07085734166091792 0.0864111230220986
0.1607657666104628 -0.06962318158684293 0.08588724737213342
0.15971839367795843 -0.06842608290504607 0.08540855007339183
0.16025075364617017 -0.06907722840583626 0.08612940105245347
0.1592066370562274 -0.06785377340886735 0.0856063719252125
0.15824612294695362 -0.06665184340040375 0.08510880826202542
0.15871920009882 -0.06727792323410478 0.08582528938845096
0.15771035536596292 -0.06604010488344828 0.08519344598929454
0.15722076223925074 -0.06545908115124327 0.08526091086185765
0.1563721128061751 -0.06451939191536923 0.08505629115090958
0.15685603340175558 -0.06505067617010736 0.08535236376615117
0.15581826839789167 -0.06394169620103181 0.08507214496169363
0.15492899202025806 -0.06294765126966631 0.08481695311798602
0.15542074405551667 -0.06352765072613707 0.08512707677750138
0.1544025579898972 -0.062304894314099656 0.08488140941581059
0.15360420158717242 -0.06127376343411353 0.08463536811743057
0.15404214705366534 -0.06187235262857686 0.08495737108439334
0.15313790806238883 -0.06062175725061259 0.08468876152901565
0.15243564225717335 -0.05957088196890621 0.08441801557983421
0.15281729364801902 -0.06017870491154331 0.08474791276448057
0.15202134348545177 -0.05890828753050965 0.08455556436564939
0.15137286377223336 -0.05771857409785216 0.08413101887441325
0.15169583816908777 -0.058372436676663544 0.08477419453611833
0.15099692644171053 -0.05705225107671534 0.08427870788031734
0.1506762722786872 -0.05644627534549823 0.08399422097142623
0.15041942573575498 -0.05603252613568488 0.08412796198380484
0.1507165222603235 -0.056585296251849965 0.08465826216516736
0.1500727746451175 -0.055499447414481325 0.08426336826365739
0.1493560727587064 -0.05439127764900042 0.08385852938850841
0.14970860672276828 -0.054948304787265256 0.08446210384386567
0.14900124434887596 -0.05388260054289704 0.08404505459161263
0.14836561899096531 -0.05296366606931453 0.08399889581696876
0.14872703089463124 -0.05348181992142176 0.08418460038988886
0.14758079599835816 -0.05185092289674677 0.08373485225231939
0.14795159174647812 -0.052392112038808024 0.08428829002944142
0.1472043828087977 -0.05133795992930662 0.08399247366504609
0.14608280379417754 -0.04979469325177445 0.08359957778357475
0.14635911479280445 -0.050213245731317364 0.08412849756158013
0.14679478688332742 -0.05078650212905811 0.08421906505913342
0.14573209181538913 -0.04930070356623214 0.08379363634824773
0.14521941594494342 -0.04856236710483433 0.08387247693704976
0.14549930282668544 -0.048964508956343376 0.08385926767708035
0.1444873849639319 -0.047426132247281656 0.08340122117657185
0.1442103587808993 -0.04703582768501217 0.08366269643036633
0.14450509465521844 -0.04754114089687878 0.08405111918392777
0.1448418187994896 -0.048085437333984044 0.08432537188330826
0.14384863165340758 -0.04650065864681938 0.08400824772021713
0.14321578677149666 -0.04538968416275268 0.0838464231908343
0.1434233802407362 -0.04585859970623595 0.08445874963633791
0.14244119885684675 -0.044032484491886334 0.08351408430396687
0.1421972002129511 -0.043887865899604715 0.084164966026115
0.14252487081006268 -0.044415456581857304 0.08411062122810384
0.1428538896885315 -0.044944997687990845 0.08419618726838965
0.14201360383540795 -0.043446346764346666 0.08385531622831265
0.14171308535497915 -0.04296760643559005 0.0841529825431782
0.1418170013953135 -0.04337469548861005 0.0846003121359644
0.1412729829034401 -0.04181764281419692 0.08426377729112744
0.14155898648388543 -0.04252007150982082 0.08405892557289237
0.14049118829044252 -0.03970964727792606 0.08509506293499741
0.14066303197485927 -0.04014377371231487 0.08505711263289145
0.14091523998849223 -0.041009158153478664 0.08494111281955079
0.17084844657817652 -0.08138710824880062 0.08789092680294466
0.17051939881204092 -0.08092952603619376 0.0881036031096662
0.16988437024784445 -0.0801304206818522 0.08809081117335672
0.16923607041244332 -0.07933519529061336 0.08802256044638211
0.16804573566409056 -0.07816189515726434 0.08766469319331997
0.1687656447723742 -0.07880948206412076 0.0880478456688894
0.16729304356800487 -0.07740008373375999 0.08766317275218223
0.16660831092214537 -0.07668879504596238 0.08765875931051693
0.1660479157176688 -0.0760614349772377 0.08764428053603558
0.16504057870985187 -0.07488355748385073 0.08731808921272652
0.1656163667028074 -0.07562142941153353 0.08771178682853772
0.16430498794439816 -0.07400625711701503 0.08731476184443444
0.16377681526874602 -0.07327129764312378 0.08694139513391887
0.16338534840206845 -0.07282210364382699 0.08701812496637808
0.16383172522176387 -0.07352509610383072 0.0876633580623628
0.1628625220304429 -0.07221205449879206 0.08707038209148932
0.16232720597925085 -0.07155596492799773 0.08716080447039029
0.16132674207724934 -0.07032234184080803 0.08664234799740071
0.16186324889381523 -0.07100639452311801 0.08733231604182053
0.1607889921187123 -0.06974938050786425 0.08687044593311544
0.1597316430562538 -0.06852059361296464 0.08633466277612983
0.16027048352339213 -0.06916981267726596 0.08706473539506046
0.1592164561961261 -0.06793990404521494 0.08654321637309004
0.15820136465479132 -0.06668348098721869 0.08598889373819257
0.1587189214081443 -0.0673521396566882 0.08674706361468126
0.15761022978387387 -0.06599980174753822 0.08613108957070267
0.15712574305228458 -0.06538759980949255 0.08583842867790151
0.156734881720097 -0.06498253654041904 0.0859051267983968
0.15717926553536524 -0.06552194757664265 0.08653931252282272
0.15616415316024407 -0.06440257507768152 0.08591876689548578
0.15568705522864318 -0.06385614746644895 0.08561426629257544
0.1553074142753472 -0.06344049628590402 0.08570590178399767
0.15573621004249083 -0.06396104488906841 0.08626946043907169
0.15476241191300646 -0.06282499811193412 0.08576677104893872
0.15429221998809747 -0.06224011713265228 0.08546184008129361
0.15394976848364433 -0.06181265083469147 0.08554963214584835
0.15436325041454246 -0.06237540314888289 0.0861338095426993
0.15346405121052345 -0.061159954381422216 0.08559894809492329
0.15303830914725525 -0.06054643734384936 0.08526042128300802
0.15272264811074038 -0.06011145014141163 0.08530525706537491
0.15307224857714963 -0.0606652478525758 0.08595835570529142
0.15234375316836282 -0.059533920325653654 0.08532217267280628
0.15199408612114723 -0.058955512521375666 0.08537916810546196
0.15138992404537957 -0.05787731413274095 0.08518110243849396
0.1517372823032758 -0.05853235648128994 0.08549471471302945
0.15100749985528159 -0.05718413297678213 0.08523305479789092
0.1504250144506206 -0.056136729629765875 0.08503903818311588
0.15075181477353367 -0.056730455724747345 0.08532865526967781
0.150026885521944 -0.055490097956077206 0.08508210482442426
0.14933456453180735 -0.05441345574206715 0.08487384646551452
0.1497321100889341 -0.05503118790481817 0.08515770441322072
0.14894235383631435 -0.053811075173537615 0.08462602061625661
0.1486574411554096 -0.05340733656423593 0.08477988685018101
0.14898127993177468 -0.05391994266905991 0.0853077151488034
0.1482957535542363 -0.05289890197887246 0.08487738862461928
0.14756992070438785 -0.05185851221018616 0.08478402997687652
0.14799259558373914 -0.05244916921341956 0.08499622448794644
0.14714256501111997 -0.051273531945401775 0.08465475344624149
0.14692022512066713 -0.05096632322168498 0.08499140854879209
0.1472406375528152 -0.05138979647409393 0.08530891444163725
0.14596665359320132 -0.04971558361128851 0.084500411950231
0.14648478485914207 -0.05039996913490398 0.08501639851873576
0.14550336848193782 -0.049065450641495846 0.08441657982049651
0.14533650952831847 -0.048930563414474174 0.08508190932199079
0.14563791978612528 -0.049357510887183195 0.08516411349039577
0.14514573624034688 -0.048574013923547196 0.08466836845583857
0.14485496480856866 -0.04821123725531643 0.08497747969459986
0.14505609483451568 -0.048576780452636505 0.08538131614937956
0.1441398648775551 -0.04705926951604019 0.08454173844668326
0.14449864458833017 -0.047688840085591835 0.08498049496218191
0.14376940742107439 -0.0464820702381408 0.08493400735974924
0.143075054944309 -0.04532269956413859 0.08447934951991429
0.14280981150890046 -0.0450016275138667 0.08474485556005862
0.14300701559521395 -0.04534618953387821 0.0851921981580232
0.14340609933005316 -0.04597151885760576 0.08536830263325443
0.14222324661613028 -0.044107240308497477 0.08480498312062988
0.1425852796987105 -0.04464260196796903 0.08461638660740074
0.14141391556939212 -0.04255830953387602 0.08468496332861758
