# .PCD v.7 - Point Cloud Data file format
VERSION .7
FIELDS x y z
SIZE 4 4 4
TYPE f f f
COUNT 1 1 1
WIDTH 789
HEIGHT 1
VIEWPOINT 0 0 0 1 0 0 0
POINTS 789
DATA ascii
0.1514169666682015 -0.054814230341101854 0.08204017158789058
0.15077903026550885 -0.05382547616348495 0.08203996280538026
0.15113241288976034 -0.05440715960932702 0.08219636322312802
0.14996543543319246 -0.05253994033675859 0.08177907416144209
0.15034096579385584 -0.05322594559031334 0.08237649091663851
0.1496234045520405 -0.052011551379065706 0.08166885028415412
0.14936878482498647 -0.05167596740624011 0.08189370316940005
0.1496251844306557 -0.05215051446972294 0.08229876233320949
0.14904120761712306 -0.05118546442158593 0.08205702690758872
0.14833725170252116 -0.049952522907992014 0.08163453135836965
0.14863769436672314 -0.05060963834003475 0.08228372997719235
0.14801460841826908 -0.04940292558784836 0.08151622603310255
0.14770442524242597 -0.04901117101662425 0.08170943981839049
0.14796011749327417 -0.049524919924656144 0.08213887144015143
0.147321326464866 -0.04849360053755518 0.08180050024987075
0.1467359160574424 -0.04766848771126709 0.08172338566756872
0.14704529099630356 -0.04810742722325675 0.08179203175783345
0.14561653107582492 -0.04594843141062625 0.0816531647836457
0.14583403149829893 -0.046457177243489405 0.08211389740911391
0.1462346183076736 -0.047055689601204126 0.08208644418349191
0.14525667152819524 -0.045392802359417284 0.0819885117408319
0.14462181770969557 -0.04377799445537111 0.08144288620131068
0.1443352791849592 -0.04361495285671488 0.08212976746740033
0.14460854102925194 -0.04424076654997485 0.08221783462545884
0.1449208393008729 -0.04491205058712633 0.08241154434708775
0.1441583370490055 -0.042917671286423216 0.08170171633140087
0.14379884137334673 -0.04266166307589725 0.08239566369369263
0.14400530151510807 -0.043221993463492994 0.0825205394483613
0.14375934278656996 -0.04212365552626652 0.08204488414261399
0.1434202421595349 -0.041585246153086675 0.08245132025051666
0.14349545844089592 -0.04217318213442801 0.0827418062441722
0.1431791941935291 -0.03992058829019339 0.08206683861925618
0.143119832576494 -0.040688965285397616 0.08259157721809267
0.14284340679204283 -0.039397591024846024 0.08237434535939869
0.1429983721307393 -0.03954521313808768 0.08221787093388032
0.17167288897259944 -0.08303533609051124 0.08474468159173867
0.17132849377262405 -0.0825187998965284 0.08516668879964488
0.17086440574243247 -0.0818666249912382 0.0854359456875647
0.17035923336319936 -0.08111033264804375 0.08552212148850304
0.1697854863766232 -0.08031569337069108 0.08549253421045876
0.16920545899252334 -0.07953475870743178 0.08545605442304423
0.16813417307157041 -0.07815111417283191 0.08478064066432527
0.16867029069025158 -0.07882961034670724 0.08555442694208222
0.16755791884182472 -0.07741637038697602 0.0849949882163716
0.166981563139644 -0.07666217836906224 0.08515293794697905
0.1660018796773786 -0.07519958592283055 0.0844778217086695
0.16646127936151903 -0.07594575244233473 0.08530240997553974
0.16549797679737838 -0.07448471318097988 0.08462427293915868
0.16499618082161988 -0.07382163048836715 0.08481012463633977
0.16409016034784554 -0.07252970963011292 0.084275030537088
0.1645068987192305 -0.07321399511452496 0.0850165197904596
0.1635480907984356 -0.07191193595623778 0.08439723209097123
0.16301909470765102 -0.07129319679072868 0.08444807238694318
0.16211700736414403 -0.07016442233804678 0.084177518429852
0.16260913463386564 -0.07081171497188213 0.08450747421144188
0.16152790991309768 -0.06949579645504173 0.08423641456183834
0.1606370625179326 -0.0683582936039008 0.08397558088458237
0.16110774239664033 -0.06902179862049031 0.08430491254087101
0.16009064792825234 -0.06768709350860956 0.08404816790617163
0.15931522722966163 -0.06659454684930831 0.08383590238168637
0.1597237115841012 -0.0672353903744291 0.08414044709983448
0.15877877915098898 -0.06590067429243077 0.0839099604961322
0.15829252036791383 -0.06532240611675169 0.08394528662416888
0.15745390488530758 -0.06433797963854701 0.0837679316244538
0.15791645113502634 -0.06490744143111274 0.08401912546514743
0.15643190172917706 -0.06304165625036655 0.08329115555713276
0.15688873032945214 -0.06373164436446381 0.08399546878155222
0.15596736855961807 -0.062485666480203324 0.08357047470965338
0.15517208356349377 -0.061290475034636915 0.08316656920576912
0.15554315629227583 -0.06194698372761979 0.08384788930291254
0.15471695492985058 -0.06065161483975362 0.08332097412482516
0.1543632409390921 -0.06003115677309512 0.08303395650202809
0.15408839886195197 -0.05958700858260661 0.08311948519008215
0.15437270536650088 -0.06017814925428994 0.08372621579293932
0.15373674708781734 -0.05899888475122625 0.08318263728907122
0.1533874501233691 -0.05839755297225454 0.08323395564387429
0.152802273556788 -0.05732013262126693 0.08302724856776572
0.15312042226287406 -0.05794130770619525 0.0833024885669059
0.1524173135683265 -0.05663360828436225 0.08319513824878762
0.15168905369566546 -0.055352307302971096 0.08280506449032113
0.15207934082045685 -0.056062710722984604 0.08342369480163193
0.15132797169742035 -0.054767963105296726 0.08261629224545086
0.15104792184916782 -0.0543517098152138 0.08278014820712869
0.15136737339339074 -0.05490420805597279 0.08331321767309971
0.1506876307692185 -0.053825797748784994 0.08298250850133025
0.14996018798072752 -0.05271766774602695 0.08274858200974808
0.1503123559179967 -0.053303083326858444 0.08329133596189232
0.14928792794781848 -0.05169831968083548 0.0826232939223422
0.1496005875956972 -0.0522413608769068 0.0831361166202069
0.14891678973294356 -0.051179819293990264 0.0829108321564333
0.14824524677736317 -0.050071163541115786 0.0825499922257824
0.14848405978119367 -0.05059500408709256 0.08325979351205147
0.14753183583587126 -0.04902839765712556 0.08264193213951243
0.1479247868838477 -0.04966325552440056 0.08279366089345365
0.14701060895293178 -0.04822305156626573 0.08239260688964913
0.14677985336964738 -0.04805561832740661 0.08302421882164726
0.1470931080739087 -0.04854754642544463 0.08323806819153139
0.14657675845323356 -0.04765955637791386 0.08255152978137922
0.1462529109846567 -0.04727307308483791 0.08284595905345489
0.14647809570866985 -0.0476796315733087 0.08327254679750072
0.14546470735403946 -0.04598842761114797 0.08260038785201185
0.14587330399279544 -0.0467381679381292 0.08291019055653502
0.14513721100320076 -0.04541873851912197 0.08265729286711239
0.14490468888976274 -0.04512938729133143 0.0830227099670763
0.14511786614628544 -0.04560917242726259 0.0832814457570362
0.14425152496432553 -0.04383771293318011 0.08275966279643852
0.14454670649268048 -0.044533831181640254 0.08308646702070246
0.14363483937922408 -0.04281620119896446 0.08299566725163439
0.14388682900563357 -0.04341730936596675 0.08316809801259865
0.1431320302461551 -0.04156088913215852 0.0830741415347291
0.14321607941988848 -0.04226893587448179 0.08349651202878414
0.14282539925364743 -0.03971857402443696 0.08270650841802286
0.14254201999074892 -0.03967993266864295 0.08324852562477779
0.14261836204118733 -0.040184365530853326 0.08341376328660262
0.1427537167842123 -0.04097599623344163 0.0835489847657787
0.14263877578201076 -0.03941088982260326 0.08283688547500792
0.1712214166732716 -0.08228817263671453 0.08613487037916537
0.17090470060754798 -0.08179360808181975 0.08636901159787222
0.17037018069376186 -0.0810280395193947 0.08640383544985449
0.16973473280239354 -0.08019619336448852 0.08635993080000944
0.16915581111346714 -0.07944203213500775 0.08628652783865857
0.16817801078607392 -0.07821537003643074 0.08592178104463068
0.1687267485649214 -0.07889619240910248 0.08629669657064148
0.1675212585000567 -0.07740043154268367 0.08602076914206143
0.16694135099438476 -0.07668025299054555 0.08613423733677378
0.1659494757134368 -0.07525355136682786 0.08545586022666386
0.16641482729276 -0.07600212603104188 0.08627022687492758
0.16544108348196174 -0.07457235282635566 0.08561976581487712
0.16493940296246673 -0.07392957168191659 0.0857688648873692
0.1640032440492303 -0.07260881241231586 0.08522384984915549
0.16445849967409146 -0.07333769345750712 0.08594223430238367
0.163396546720777 -0.07189168824793378 0.08539392645345047
0.1628699313878682 -0.0712098554554252 0.08504508558347842
0.1624658225109899 -0.07072393475262564 0.08511635316904181
0.16291032128988278 -0.07136384900512092 0.08580452175812155
0.16188237900586605 -0.0700634985847807 0.08517096859271482
0.1613600350451836 -0.06942709417913692 0.0848361336434765
0.1609642966190413 -0.06894379279044278 0.08490831038210811
0.16140261108097442 -0.06957132539169895 0.08557568812865261
0.1604269429991315 -0.06826750504585531 0.08496489451266556
0.1599594647195101 -0.0676355362544659 0.08464692767284152
0.15960560362453868 -0.06716315899509598 0.08470827392775404
0.15998907828943254 -0.06776161903470927 0.08535121404731867
0.15914152425604103 -0.06654407341558173 0.08473523565847672
0.1585928696611334 -0.06585307724054047 0.0847963605711502
0.1581498957430259 -0.06526937563842872 0.08449626576038151
0.15779309866694008 -0.06486581826631126 0.08460567092461349
0.15817502032007053 -0.06541273827859587 0.08515235695382346
0.15733407901962518 -0.0643424146089256 0.08472697236694923
0.1564008326675759 -0.06318091042777986 0.0842671995792932
0.15684585169440715 -0.0638264773053198 0.08491316251185943
0.15594635246564512 -0.06261854170119435 0.08452629678966887
0.15512912173315085 -0.06140035757753447 0.08410246508738968
0.15552353293123214 -0.06207923923732015 0.08475609472166232
0.1547281507979016 -0.060838641035295155 0.08435361967654328
0.1540259237075215 -0.059640860739544076 0.08394882767534104
0.15436322016285578 -0.06030259277891659 0.08459485423175699
0.15362058780468663 -0.058956039568977874 0.08410577470021062
0.1532900579495634 -0.058311616982455176 0.08379826363771148
0.15303046865102088 -0.057855315824063426 0.0838765167305123
0.15329940832376435 -0.05844629188737534 0.08450034850744242
0.1527015279684908 -0.05724830255174233 0.08394920803660537
0.15237535601053598 -0.0566403183749412 0.08402167811481481
0.15176730111504166 -0.05559635238659509 0.08392457284605305
0.15211833670821656 -0.05619033767374613 0.08413460515437494
0.1510145030585177 -0.05438907838131476 0.08360133432616904
0.15135903705365922 -0.05498159179140692 0.08421536090218325
0.15065513975162637 -0.053865374714057515 0.08386158751338813
0.1499537560926837 -0.05281467569010732 0.0836637689007172
0.1503118687500094 -0.053381861414777444 0.08416094462741269
0.14923856317119 -0.05173886800961604 0.08347275839642074
0.14959004244405902 -0.05231191729676247 0.08403602662485365
0.14886378839757577 -0.05122289978057081 0.08379198318959018
0.14811204301261388 -0.05004184022522171 0.0832059831085452
0.14779256003034413 -0.04962313917912817 0.08342589070802563
0.14812951498088478 -0.050209786727721306 0.08398777714478267
0.14854102668788627 -0.05079461133471999 0.08410924518021826
0.14741608684693341 -0.04911255175648232 0.08367263370712534
0.1467589188963835 -0.048167684432021324 0.08369165591606575
0.14707401382544882 -0.048682034563657474 0.08401575620584803
0.14612227706419592 -0.047234315684005344 0.08346721617113591
0.1463502462525026 -0.04768567069497695 0.08410073697655719
0.14546727484433422 -0.04627456112470408 0.08364787134534941
0.1458162314334127 -0.046842958778127296 0.08367026479169795
0.14473986881014217 -0.0450976434444162 0.08367313415782282
0.14500501139264535 -0.045666656481047646 0.08414123468603595
0.14410443971872397 -0.04392756562106218 0.08346228403458962
0.14426167187982986 -0.04445960800529113 0.08405090186956661
0.14351224837802795 -0.043079141066887504 0.08371168560877854
0.14382091096908126 -0.043548174224655574 0.08361031267432478
0.14288311553705152 -0.04164455133677186 0.08366560829975832
0.14259999024532238 -0.04133938503288146 0.0841177592685396
0.1428210003633452 -0.041946916590015114 0.08415270516223873
0.14308969950733028 -0.04255633617021507 0.08419782900580103
0.14241461679611103 -0.03999906336052846 0.08376341653716575
0.14232163033721643 -0.040576181314660086 0.08442202192129135
0.1712829300406697 -0.08219895470608722 0.08709961616128775
0.17097548324290887 -0.08172883424092339 0.08732045068588738
0.17039110337176416 -0.08094636814027137 0.08733228419083655
0.1696641570992592 -0.08002655844031749 0.08726507585444138
0.16905445764492855 -0.0792998139935362 0.08685022702913285
0.16863578687889952 -0.07879576401492591 0.08690020206953449
0.16918964312253032 -0.07943500068213676 0.08755859952542139
0.1680720478649255 -0.07812836552777212 0.08693774327365182
0.16745971606188026 -0.07740201588970817 0.08699877769686747
0.16689358696978476 -0.07673092533732657 0.08707320509770317
0.1659157261162 -0.07535516815801029 0.08646234796654519
0.16639874659347947 -0.07612671070817949 0.08721882772083345
0.1653780187094525 -0.07468436314912484 0.08661512285014314
0.16485467582508398 -0.07400384560299074 0.08664100173420902
0.16399110854387508 -0.07282169388493615 0.08635501024001634
0.16447553565826145 -0.07350367219111227 0.08670001522215195
0.1634100688750874 -0.0721031335488411 0.08653369663881362
0.1624158257300123 -0.07080506205573484 0.08601374079068601
0.16291496320390905 -0.07150969652340287 0.08675746067549743
0.16190306858416728 -0.07024302214879784 0.08625004019325448
0.16092311111291366 -0.06901022929682595 0.08578491052638719
0.16141221874781714 -0.06968437715705665 0.08651119545354387
0.1604353214804585 -0.06842578017442773 0.08600462668035039
0.15953804828137538 -0.06718689275805957 0.08551821379339135
0.15996979420671 -0.06783851586987405 0.08624425687224106
0.1590317404158638 -0.06655701884592204 0.08562444581821654
0.15856700553231928 -0.06596065158790611 0.08571028480921063
0.15776868583632842 -0.06498163264319158 0.08552332496163341
0.15821928959934942 -0.06553910179049863 0.08581527205919015
0.1572416753648087 -0.06437852883242172 0.08555640503284385
0.15640045046243467 -0.06334072202812377 0.08531932567794945
0.1568613879109157 -0.06394723751385721 0.08562611453783928
0.155894150817042 -0.06267703886711373 0.08540009297969978
0.1551358907629571 -0.06159464707850094 0.08517100446455819
0.15554767051642937 -0.06222536319953813 0.08548885779060898
0.15468573057279733 -0.06091674497613124 0.08524087364983506
0.15401490336716878 -0.05981329597132356 0.08498579019761089
0.154376108791473 -0.06045282587549979 0.08531225859936908
0.1536070882337282 -0.059128619453443575 0.08514374155243001
0.15298149010066178 -0.05789128472333729 0.08472710671089739
0.15328273195272452 -0.05857791387843951 0.08537950415029909
0.1526062013871539 -0.05720422586088359 0.08489170048680451
0.1522957007853298 -0.05657156257644501 0.08460934863069051
0.1520373360914241 -0.05614566909471673 0.08475296787838096
0.15231790869294112 -0.05672777674086916 0.08529321461960865
0.15168918957329927 -0.05559473712346152 0.08490087102047744
0.15098574129091105 -0.05443524463289043 0.08449697415180811
0.1513206115020977 -0.05502742928948304 0.08511516635119121
0.15062638032631046 -0.05391005698261522 0.08469635030790806
0.14998937223652248 -0.05295077267260351 0.08465912281671058
0.1503471187291125 -0.053495495742500974 0.08484700177483007
0.1492060212621713 -0.051782966595965194 0.08439095415310452
0.1495666019589088 -0.052360763224854376 0.08496225725997585
0.14881784390165267 -0.05125139802590613 0.08466103733143829
0.1476774659438794 -0.0496271263450321 0.08425542206419888
0.1479490997234727 -0.05008165086588338 0.08480631671352996
0.14839283592842117 -0.05068109142057723 0.08489806094215448
0.1473029915982828 -0.04911581113611878 0.08445814088750044
0.14675844379723108 -0.0483549776331426 0.08453943963979955
0.14705468859852144 -0.04876823160950631 0.08452616957794302
0.14599247281905656 -0.04717054933908447 0.08404779006735412
0.14568916686370043 -0.046776924725400314 0.08431778968142398
0.14599594116312878 -0.04730472862697171 0.08472177426651643
0.1463486933342566 -0.047873623676597754 0.08500810183631918
0.1452902663819316 -0.046236548054910585 0.08467018079731306
0.14459894852916455 -0.04509509172878195 0.08448743451509991
0.14481725078695376 -0.04559333597246191 0.08513016434114573
0.14375917821293852 -0.04370503561677034 0.08411498054367202
0.14349186286391158 -0.04357749850925392 0.08479074699355317
0.1438516548142535 -0.04411061575530599 0.0847450272346462
0.144206912940366 -0.04465020114499093 0.08484267397512382
0.14329053412810996 -0.04312120464493319 0.08445723996285076
0.1429499404786849 -0.04264801300066323 0.08475456292294219
0.14306794030087336 -0.043073159160542905 0.08523059396496478
0.14242507687186068 -0.04150828291929809 0.08483202750325329
0.1427651039795165 -0.042196579909567954 0.08464079703921705
0.14147006486881117 -0.03946970609039244 0.08562189935414681
0.1416715102996837 -0.03989366130230641 0.08559594989998033
0.14199011612526605 -0.040737460437017335 0.08550810222442479
0.17136603811295684 -0.0821455237520128 0.08808832182471282
0.1710569464734138 -0.08169035275919674 0.08830899584701074
0.17046168682268287 -0.08089368691088744 0.08830667020182173
0.16985304366233736 -0.08010107817300896 0.08824884999619628
0.16873393171367174 -0.07891890075960635 0.08790228761234509
0.16940931618895821 -0.07957467211387387 0.08828132989958154
0.16802267424974954 -0.07815002151034435 0.0879128097727039
0.16737716725628338 -0.07743215796922692 0.0879204850517652
0.16684952762306093 -0.07679731600901488 0.08791632082486668
0.1659069822131999 -0.07560279712212602 0.08760659229439156
0.16644270319194918 -0.0763509748409338 0.08799378296887146
0.16521496463696525 -0.07471382531509828 0.08761876807787634
0.1647254124980179 -0.07397005405230694 0.08725205042213205
0.16435443333112834 -0.07351376450949651 0.0873395600255988
0.164762751210841 -0.074227986080696 0.08798466721783654
0.16386016056380823 -0.07289243554080668 0.08740534415791766
0.16335301612367578 -0.0722260726239413 0.08751068670821843
0.1624187899851567 -0.07096293777104169 0.08700787411574877
0.16291151311902302 -0.07166578391861096 0.08769700732322318
0.16190688205145254 -0.0703801015503906 0.08725668606554075
0.16091810398758769 -0.06911468992233691 0.08673789228764102
0.1614125588958168 -0.06978775111485341 0.0874707634606019
0.16042709951433398 -0.06852332379052248 0.08696856161423194
0.15947777855842876 -0.06722760028544257 0.08642924157367232
0.15995151271834385 -0.06792241378113613 0.08719316017352863
0.1589162373356971 -0.06652715459475499 0.08659441945667554
0.15846283120627927 -0.06589532004285552 0.08630767265785455
0.15809097228879526 -0.06547245492279588 0.08638783107916023
0.15849660888786543 -0.06603953386159327 0.08702700858560268
0.15754910999673077 -0.06486798122435632 0.08642014988107227
0.15710158911368396 -0.06429718615675475 0.08612194969261841
0.15673655994858293 -0.06386706910118155 0.08622648236930741
0.15713044529678719 -0.06441776465708694 0.08679535267841781
0.1562151143891529 -0.06322729738637949 0.08630277410387759
0.1557743622003959 -0.06261438244034091 0.08600120324620962
0.15544331586013746 -0.06216871075201918 0.08610310973236895
0.15582283352173043 -0.06276326024293172 0.08669272338503257
0.15497427433488095 -0.061489826926116174 0.0861711069324194
0.15457479101943447 -0.06084434306760067 0.08583494415372708
0.15426958851721725 -0.06038842565933341 0.08589176402527769
0.1545880770173082 -0.060976909687721716 0.08655297181372264
0.153900733661678 -0.059788353627088994 0.08592357770794418
0.1535576420461876 -0.059192446893030735 0.08599309611050443
0.15297048832153246 -0.05807277719047037 0.08580762609461103
0.15330325930764294 -0.05875636046521798 0.08611973039564703
0.15259094426185893 -0.05735628597808202 0.08587552156092046
0.15201700791039943 -0.0562705350783739 0.08569426122667373
0.15233436929944302 -0.0568897745439917 0.08598290753672877
0.1516195839738989 -0.05560315609987557 0.0857486881254777
0.15093500015146036 -0.05448081602016413 0.08554877071314342
0.15132354332314885 -0.05512884234672059 0.08583391324745752
0.15055005243408187 -0.05384777976301186 0.08530103922035012
0.1502605311623434 -0.05342991866290708 0.08546426348417327
0.15057012780649226 -0.053973816438747636 0.08600301653479375
0.14989664196990987 -0.05290161732022027 0.08556788278249093
0.1491675958772426 -0.05181408910416107 0.0854774748633743
0.14958756834479714 -0.05243649997015805 0.08569508050426475
0.1487378660450552 -0.05119826543624575 0.0853463981541933
0.14849864427861506 -0.0508877455184634 0.0856970499769234
0.1488165093380462 -0.05133819652849531 0.08602301200504657
0.1475316196429043 -0.04957093846719032 0.08519324250328342
0.14804897829770428 -0.050301344047913775 0.08572669170776179
0.14704828913394283 -0.04888918385255651 0.08510493007645488
0.14685745088035668 -0.04876831303893201 0.0857933760514712
0.14717258363761251 -0.04921677974431973 0.08587954393520762
0.14666213649181709 -0.048387512045003446 0.08536522846162
0.14634844690624668 -0.04802151622668723 0.08568280917580973
0.14655374696640594 -0.048409143484090485 0.08609981550278123
0.14559548138991732 -0.046823021607388694 0.08522613681037318
0.14597128202394025 -0.047481454136573065 0.08568236977311978
0.14518288392648898 -0.046243553852177426 0.0856281432810278
0.14443995930308534 -0.045043719939875854 0.08514199048700147
0.14415254968146266 -0.044723870432342445 0.08541139731872516
0.14435552914973393 -0.04509218968439287 0.08588034394321888
0.14478301052668155 -0.04573519350699974 0.08607082012676481
0.1435114304834597 -0.04382041832668009 0.08545872338394674
0.14391159756043764 -0.04435564368639344 0.08527336567069067
0.1426076851716699 -0.04225668695890884 0.08529585795161991
0.14235025917920022 -0.042083464715432825 0.08604210078063042
0.14269201849717247 -0.04268166248147771 0.085958867860895
0.143048245765395 -0.04330264308362744 0.08600362084795789
0.1421716615518279 -0.04150999063178257 0.0857239936791082
0.14189169630773077 -0.04093437277368915 0.08616736002784005
0.14201051238145604 -0.04147519155589951 0.0865838412233532
0.14143979629749862 -0.039460244447758856 0.08574671520743034
0.14149961142053788 -0.03970126431059685 0.08595965542282881
0.14169048737399204 -0.04033296942263937 0.08622747194687054
0.17142131574047753 -0.08212745137091151 0.08910087401571497
0.17112087476481302 -0.08165735632387675 0.08931959321833215
0.17052562936848023 -0.08082443490431364 0.08931435464134778
0.1698661748362116 -0.08003063418410407 0.08886524945071676
0.16939496086219563 -0.07955374050585762 0.08891543281812296
0.17008559464585235 -0.08028541019226938 0.08964376006805107
0.16867597851154298 -0.07891629876892904 0.08889677834242528
0.16793672272898244 -0.07816905621622328 0.0888595104691379
0.167227760274229 -0.07742872308791317 0.08878727636535202
0.16673442653529902 -0.07681707660826946 0.08849610364752472
0.16635353386787846 -0.07645421005110214 0.08874129072653039
0.16683649717036245 -0.0770964553724482 0.08905434684982629
0.16570412580592842 -0.07563541349697614 0.08862672548439826
0.16517567714381937 -0.07495639253387093 0.08862036321027235
0.16433121224335595 -0.07377889601593578 0.08837555942314296
0.16480916972124868 -0.07451791497968126 0.08873508776402524
0.16375525851502012 -0.07297701456037547 0.0883709566963251
0.16329292150844513 -0.07231943654842357 0.08836192498966756
0.16246514374644766 -0.07120731483072953 0.08812282624969693
0.16295510757472187 -0.07187624782556899 0.08845015132289
0.16188028656377995 -0.07048703647301577 0.08823124473465833
0.16092235411525513 -0.06922083875310113 0.08770871898134557
0.1613975646385285 -0.06989418731869945 0.0883894651144415
0.1604326364976934 -0.06862510641122196 0.08794794993928993
0.1594629185364159 -0.06730510068083376 0.08741083485571922
0.15994936922426464 -0.06800833772346318 0.0881595824240346
0.15898356126984745 -0.06670879937860846 0.08768295122510242
0.1580256261617927 -0.06550487038367045 0.08723000875582097
0.1585043002172226 -0.06614010670426837 0.08796216129507878
0.15754145347717627 -0.06497177838131182 0.0873520413678066
0.15673297773103192 -0.06396096720670996 0.08719761633693922
0.15718240626377777 -0.06455591450972965 0.08748479771865089
0.15622201050724824 -0.06332873408826939 0.0872718021775943
0.1554595615384384 -0.062290435025190063 0.087085132610996
0.1558833979784696 -0.06288913048878035 0.08737896124275801
0.1549739661324757 -0.061628787046303514 0.08722975620045072
0.15420528654841656 -0.060422926260182044 0.08674033568757317
0.15457409418719265 -0.061069773065685264 0.08743413586379158
0.15379236760419918 -0.059759373502330244 0.08681329786508517
0.1534797038377161 -0.05917797292684889 0.08657543358555905
0.15324533073180224 -0.05878322437316042 0.08683727563597916
0.1535452837973799 -0.059384881370608295 0.08709376164271775
0.15281903799542038 -0.05797434506500234 0.0868225355154342
0.15249732277364672 -0.05730688949978876 0.08648923275343225
0.1522401758010451 -0.05684457391161572 0.0865909916892164
0.15251980828620737 -0.05748002147019331 0.08718838090991164
0.15185132042458793 -0.056161663937559905 0.08665426130696594
0.1515097657144244 -0.055516576557868264 0.08634025382545331
0.1512229675499137 -0.055075595626616194 0.08646043533483451
0.1515179259960561 -0.05567300935949663 0.08704953066590053
0.15087717381411628 -0.05454666354313232 0.08656447991952122
0.15019861168032977 -0.05346864538251457 0.08648271434003332
0.15059062752701938 -0.05411450613744413 0.08672171656337196
0.14980088387979731 -0.05280689346329501 0.08619699741768994
0.14949877827493915 -0.052341467421454846 0.08633077569069024
0.14982555888011542 -0.05291143829473316 0.08695901839884691
0.1491474975233755 -0.051816988490821 0.08646605728035409
0.1484745693037684 -0.05089859219674635 0.0865240575211324
0.14887365401146202 -0.05141483093195525 0.08666327484713836
0.1475478679134512 -0.049739428880331546 0.08616633384212094
0.1478902291811402 -0.05023604796016765 0.08688023105201662
0.14686721710065137 -0.04891403845438324 0.08652949152204012
0.14723497471249203 -0.049387037530943555 0.08650706125750086
0.1461902359862086 -0.04795037956625705 0.08629898561981618
0.14639352121147847 -0.04837076132242456 0.0869423803554631
0.1454854708416801 -0.04685465831324009 0.08639829012851477
0.1458861056647082 -0.047519367919022865 0.08649226140701728
0.14506424428373674 -0.04619552741387337 0.0863728239621876
0.14481280713701553 -0.04586334641557917 0.08670412280915715
0.14504760180675855 -0.046257733868688304 0.0871339423128951
0.14383329954844007 -0.044403191138830476 0.08595591864296581
0.14356472757136426 -0.044208163813833995 0.08671253360134899
0.14397019278017809 -0.04472602305664356 0.086734773665168
0.14446092244972886 -0.04536537658574266 0.08682153029788155
0.14334785082331875 -0.043819386648049366 0.08631689271785276
0.1429985859846422 -0.043360286512909886 0.08664939158447363
0.1431625670671781 -0.043695600020951415 0.08720991519727776
0.1423814917686284 -0.04231739410332389 0.08677040647471557
0.14275158519002598 -0.042944336982461424 0.08651397670297614
0.1417630746814629 -0.04080576231022728 0.08669571969713871
0.14164396606778876 -0.04061423586264894 0.08701596355020284
0.14176099907676692 -0.041025313169343866 0.08725790205192781
0.1420344720403606 -0.04165099069796887 0.0874154793916657
0.17145271361316883 -0.08211506620487921 0.09011395250753124
0.17116441106288086 -0.08167696469694509 0.09033762271953025
0.17071015182045857 -0.0810287306951102 0.0903732367775116
0.16953935327310624 -0.07978189835382189 0.08997725241350832
0.17028863542773703 -0.08053045344600393 0.09042614265171377
0.16861465817270657 -0.07897423594577002 0.08989667312350227
0.16776953285147228 -0.07819225537848347 0.08978540862294433
0.1671722158768011 -0.07757037590885946 0.08949315779964481
0.16680768826897746 -0.0772440234125019 0.0897843010058201
0.16736075564771097 -0.07786665154183135 0.09007931189057167
0.1661393509658551 -0.07645896072688033 0.0896506628703567
0.1654969986767737 -0.07567327867609415 0.0895270306590699
0.1650706284273798 -0.075017932798573 0.08923194406868981
0.1647441580478743 -0.07465125972542987 0.08949601599750062
0.16516063773556372 -0.07532899222893398 0.08980600893208328
0.16414799114345213 -0.07379143346019433 0.0893703265598823
0.1635930200189101 -0.07295426359289608 0.08925282586593615
0.16320172959296975 -0.07231905567101383 0.0889331751492445
0.16286855218028967 -0.07194136735917393 0.08916744262100387
0.1632826245007397 -0.07255040728329097 0.0894727146494932
0.16230425967811238 -0.07119215119331179 0.08911125654829641
0.16179424535546102 -0.07051982595731121 0.08908226541857049
0.16095908180937932 -0.06938549937096082 0.08878656078479735
0.161414131877516 -0.07003255419583536 0.08911721970742355
0.16040658487070206 -0.06869122597381166 0.0889117973411666
0.15948628588045702 -0.06741417034539247 0.08842907864465355
0.15994964856281146 -0.068104825159573 0.08911115213421505
0.15900567192795223 -0.06682621811863529 0.08869199759849909
0.157965561232554 -0.06551946829713064 0.08823333456679214
0.1585258394251736 -0.06626415421096989 0.08893861704929754
0.15746664505252997 -0.0649224941071779 0.08798183946925113
0.15710265667889858 -0.06448969126124886 0.08809982845477407
0.15755996184642015 -0.06508284610064365 0.08874615554542119
0.1565843168113852 -0.06385526556293189 0.08818788131364819
0.15612866214208884 -0.0632494930028423 0.08787900252656203
0.1558039852201639 -0.06280440424730313 0.08797310938836465
0.15619493269967516 -0.06336895246937185 0.08861586494010308
0.15537697901867217 -0.06223403784319258 0.08803750996703065
0.15494780856799284 -0.06165185038862391 0.08808815190936457
0.1541786016658772 -0.06048970403971886 0.08781240729183079
0.15461869232641312 -0.06118255209004582 0.08815750112661676
0.15376446930070528 -0.05979501819953082 0.08753290593349211
0.15349940887293098 -0.05936596803839374 0.08769020381606286
0.15382560116732902 -0.05997204164425464 0.08824371748442536
0.15314951127553303 -0.058740534240639866 0.08775635779704032
0.15280548793419155 -0.05810378697798887 0.08779261659033177
0.1522188522156995 -0.05699253073002197 0.08757413466339548
0.15255046616724585 -0.05765051986788869 0.0878861993187169
0.15182203290207874 -0.05630381377691709 0.08764428910517127
0.15116574911184477 -0.05517850535305084 0.08748656079144859
0.15154300686765854 -0.05584079414811725 0.08776230374226981
0.15079178199245855 -0.05452183546635373 0.08721580058881902
0.1505230759148596 -0.05409432203071056 0.08738987487028342
0.1508401019178 -0.054690514772439386 0.08794689595915728
0.15018694405576816 -0.05354591473253532 0.08760776592513647
0.1494443769354513 -0.05230286711883412 0.08727010630532675
0.14986365801317547 -0.05299010812513452 0.08789494181131745
0.14908522491378615 -0.05173428284436302 0.08708670435091971
0.14878223871079624 -0.051325730505154286 0.08727625189630922
0.1491335239829368 -0.05183749709369199 0.08780378477477936
0.14834012077691705 -0.05081005585102979 0.08747890752510053
0.1474540715895329 -0.04970988315038188 0.08684804017198211
0.14712826505864865 -0.04934621472175679 0.08713362298806342
0.14747584619575943 -0.049815721361334865 0.08756662967290867
0.1479198148679968 -0.050346975548049476 0.08788660371855904
0.14673485950978465 -0.048903661501589375 0.08738892730292312
0.1460442340309627 -0.04785735243678029 0.08690636290164507
0.14575812991645992 -0.047431556201496604 0.08720275826161376
0.14607312162157166 -0.04798259469299424 0.08758478634798236
0.14642827580470216 -0.048528614881177226 0.08777285192806876
0.14540142539415055 -0.04687372091163619 0.0875476288150446
0.14471818686103882 -0.04575757875924337 0.08718728399339223
0.14448330222187675 -0.045464986475878974 0.08755717005070959
0.14477897089520717 -0.04587963932976345 0.08779983260865268
0.1451108251737422 -0.04639164873578609 0.088006016115976
0.14357417894245125 -0.04429818537637757 0.08743740050612653
0.14404861941196867 -0.04491258964073683 0.08773010922553959
0.14268503054631995 -0.04295065769335732 0.08728147791461076
0.1425008984173965 -0.04264181769110426 0.08806936938694798
0.14281289200890526 -0.04322599712332596 0.08817715389304391
0.14322534620027738 -0.04385334913114716 0.08799448233614335
0.14230557959909482 -0.042246729126053366 0.08767917575722661
0.14205327311349367 -0.0417751726441106 0.08804388942299002
0.14225033591326056 -0.04217016931501517 0.08838981459699771
0.14163881753528065 -0.040812958139999904 0.08752562405941294
0.14182642581128507 -0.041293015566269825 0.0878841547441705
0.17143972474355645 -0.08211227458640433 0.09106968156716473
0.17112969235897368 -0.08167583329128016 0.09132147197728249
0.17067530170123876 -0.08102256113655124 0.09102130299656298
0.1702073200930221 -0.080520538462677 0.09107799585160907
0.1707829482208878 -0.08124622087733696 0.0917694439086369
0.1694095266317951 -0.07979285951711809 0.09102550181964597
0.1684522458001972 -0.07897728457015867 0.0908827101012915
0.16775742731982235 -0.07833022215480248 0.09053260140971142
0.16736604006593372 -0.07799828397562326 0.09081238559394621
0.1679579610146546 -0.078616730949035 0.09113174722321948
0.16662211269527522 -0.07726106293112682 0.09068165527773511
0.16592693360283714 -0.07648221382149742 0.09054322146345906
0.16544413473616698 -0.07583844499353029 0.09025025760781766
0.16514060349935414 -0.07550695998097406 0.09054485575297734
0.16558743841004522 -0.07616398522238135 0.09083620868882758
0.16456881548365443 -0.07466004397026495 0.09042710107386358
0.16396008630246056 -0.073777036486919 0.09034493398928414
0.16352450948460623 -0.07301738575198173 0.08996741675937642
0.16319022844852749 -0.07259121764250208 0.09007743328388329
0.16357662836776765 -0.07331705534144738 0.09071701979839929
0.1626986273982957 -0.07194985939407493 0.0900803550010464
0.16212168017185596 -0.07115099297633398 0.09004960107899332
0.16165839459349768 -0.07045885684300013 0.08966178513802985
0.16130094287474067 -0.06999851665067773 0.08973283095149347
0.1616954185517633 -0.07066446632186599 0.09038047249970811
0.1608279262510575 -0.06936934286593711 0.08976125004159191
0.1603516001727354 -0.06872656707388972 0.08977587637823588
0.15952388444125 -0.06760685732435975 0.0895610589489437
0.16000515140035787 -0.06827399517943482 0.08988901931275861
0.15896687454311242 -0.06690313690203668 0.08961623569080299
0.1581148248360587 -0.06583168380699546 0.08945833527489776
0.15859378255130033 -0.06644421412210358 0.08972379450040555
0.15710757829627528 -0.0645513998008336 0.08900136913729544
0.15759266076529937 -0.06523129302035098 0.0897260680853946
0.1566670338059435 -0.06400059531050689 0.08927326963480078
0.15579684576418817 -0.06282211085117057 0.08883585317323564
0.1562586838202048 -0.06346123261823199 0.08955143402254526
0.1553170408689477 -0.062167229877361854 0.08899799881231685
0.15487603407808745 -0.061553147070718885 0.08868598937158897
0.15454861992226349 -0.06108993327400402 0.08876522668589835
0.154951354269108 -0.06165838818672397 0.08944018867714743
0.15416933742439815 -0.06054716592795189 0.08881496473860419
0.15352294302807196 -0.059486022267621404 0.08864613731047825
0.1538847954950987 -0.06011410362703219 0.08893918865471516
0.15307650568824818 -0.05869530895799427 0.08871883999666048
0.15273401385002336 -0.05806196238755956 0.088402235597204
0.15247143106307473 -0.05760243957546052 0.0885126447651809
0.15278306171860262 -0.058221255090833875 0.08912045036783589
0.15208820212952132 -0.05691192310501945 0.08858764086378224
0.15173927857963188 -0.05625816122627697 0.08827380163258043
0.15147210537164182 -0.05581419744357257 0.08840748103198358
0.151787970918321 -0.05641981425331295 0.08900447822340646
0.15115429695749785 -0.05527854782576405 0.08851755735443767
0.1505734668802453 -0.05423125707277105 0.08840892617521753
0.1509046118274883 -0.05484332745992732 0.08866979110402408
0.15020955084819812 -0.053566964658460337 0.08852014620668737
0.14957726292143 -0.05249478188109648 0.08838974272893972
0.14995302513693876 -0.053095846679759535 0.08863845705412784
0.14870612156186802 -0.05129544732300748 0.08818267905236653
0.14915914050168155 -0.05190095117956469 0.08866435065977403
0.1482788901873945 -0.050781636396647255 0.08817472184663465
0.14804285676298817 -0.050520267525752796 0.08856620626444169
0.14841824068990309 -0.05095087016967138 0.08877548036003766
0.14700133478458682 -0.04930427128889825 0.08797770819725306
0.14750348185332404 -0.04991557502106745 0.08868971513499341
0.1466808430863769 -0.048910596029648694 0.08796827701529107
0.1465538272163543 -0.04874609870865215 0.08836797681063947
0.14675775938047567 -0.049032606185324006 0.08828464980068854
0.1457286267509333 -0.0474458233689796 0.08829855119484357
0.14619672825689914 -0.04822512937486296 0.08836592090223645
0.1453658212080777 -0.046819093703742876 0.08827339932950572
0.14518188628736398 -0.04651359675369795 0.08863001849916695
0.1454369318636198 -0.046892874597366636 0.08886800471894073
0.1444265564079771 -0.045422401425956674 0.08834708417753186
0.14485985103773388 -0.046022311402352224 0.08869272709107219
0.14355571879866508 -0.04427756681818417 0.08835109377245794
0.14396155053347234 -0.044738314135231196 0.0889879572922544
0.14248086777626576 -0.04262868417106454 0.08873217321954897
0.14273486248149653 -0.04304105776689935 0.089034138701196
0.14311565750302147 -0.043635239895279745 0.08888330503356576
0.1420242462721405 -0.04177624396005004 0.08845537996834077
0.14225046259231602 -0.04222345631615378 0.0889036198008725
0.17138628742207387 -0.08208618064185526 0.09175545294061321
0.1711509712239171 -0.08178927487424069 0.09219155600203714
0.17027707206936557 -0.08073609203927203 0.09216254839095694
0.17088286387723184 -0.08147546094081187 0.09251034899902678
0.16928362719068552 -0.07981187262269647 0.09213700014410821
0.16846382986560535 -0.07908228987942997 0.09169495147964181
0.16792635734565536 -0.07865024112596569 0.09176468739261195
0.16867737823187823 -0.07930185560683913 0.09254501386871065
0.16721270827222193 -0.07802589171821975 0.09171434611934991
0.16643603081541114 -0.07728435615078595 0.09159912901120947
0.16588616613292587 -0.07664956048047786 0.09127648137186664
0.16557804287153347 -0.07630827490358177 0.09155156680031322
0.16604880763353272 -0.07694356280760517 0.09185434721820199
0.1650077478231849 -0.07552116277629571 0.09145019401497557
0.1644547786783375 -0.07471878263383867 0.09137293570944645
0.16398274724894643 -0.07406001475870433 0.09136502147126897
0.1631813250023542 -0.07287429097981482 0.09109199026417562
0.1636470727288124 -0.07363815145661282 0.09147653340685676
0.16259173430727272 -0.07203917257076933 0.09104353794764046
0.1620929740520444 -0.0713648184223715 0.09102704400225244
0.16128322023452613 -0.07018815024417253 0.09074759194416088
0.16174014220221658 -0.07091325130879784 0.09112922847966538
0.16068335040846604 -0.06934432859316475 0.09066534363659273
0.16026484684267853 -0.06870995007264635 0.09037852064481895
0.1599371359003004 -0.06834005132381933 0.09065083741169312
0.16037397744325185 -0.06896611472803581 0.09094340088453462
0.1593257692635832 -0.06752283603591999 0.09059355223296901
0.15886108257857123 -0.0668573453399888 0.09025313318648867
0.1585083635894909 -0.06645077889623752 0.09037844169584024
0.1589196641407383 -0.06706162406267568 0.09097629971115145
0.15804783581508625 -0.06592006984578419 0.09049399679675353
0.15714379449159202 -0.06468528191287265 0.09001572318730512
0.15760289349892292 -0.0653734303030038 0.09070309460779283
0.15671953715137882 -0.06412514463961672 0.09027424133739753
0.15585008312476167 -0.06290220248567617 0.089818967032633
0.1563174845539124 -0.06356858930271218 0.09049260428342934
0.15543428151658117 -0.06233213907310763 0.09011655193824779
0.15452292865325748 -0.06106164159995159 0.08968400711168294
0.15503287181251524 -0.06176815208446034 0.09041723739752038
0.1541214435276072 -0.06047820094289527 0.08942551767427628
0.15383611540165185 -0.06002969279724587 0.08953436783731819
0.15420700782310254 -0.06060307483725726 0.09015952225626679
0.15345844088578844 -0.05942071882345605 0.08960738835465087
0.15309952242265662 -0.05882019806461682 0.08970922765831213
0.15249986973694635 -0.05774123228329259 0.08952892704199221
0.15284514004796879 -0.05838428187378402 0.08983912778534177
0.15211006168225097 -0.05705567684460306 0.08960856492286123
0.15148931009607852 -0.05590884393556451 0.08944645159637336
0.15184307815728734 -0.05658859611699131 0.08974069377830744
0.15112251206841784 -0.05524152409089635 0.0891634565814892
0.15087894183321854 -0.05478083269835285 0.08931183482149815
0.15120871013943118 -0.05539145931174164 0.08988721282494438
0.15051737559856274 -0.05409033842437005 0.08942252661915899
0.15017216437727518 -0.053448750849192955 0.08913522999884052
0.14989063753318263 -0.05297845396278698 0.08925320114724773
0.1502219749724512 -0.05354201457908463 0.08984187619469941
0.14948846777329577 -0.0523752863717089 0.08927357556817626
0.14884009975653875 -0.05148565870183831 0.08913682541851241
0.14918240373108635 -0.05194198420872025 0.0892351371379738
0.14810685846349733 -0.05063359867432552 0.08933034000529523
0.1485051580886044 -0.051071873372105024 0.08929363776709147
0.14685759770299617 -0.049139283288004966 0.08877399011008481
0.14668773864657852 -0.04893103198038671 0.08945213454391363
0.1470995005353329 -0.04944581772219291 0.089593923192708
0.14762049729523685 -0.05008907325913828 0.08984813416140419
0.14643584168097612 -0.04859565079443647 0.08899084320251263
0.14605545989246077 -0.04798711679618871 0.08917467900861364
0.14637832451441354 -0.048474104827331915 0.08974591168577936
0.14570657214190014 -0.04730944256568893 0.0893271584374414
0.14518252935550785 -0.046453776488842274 0.08930085026107736
0.145454909624775 -0.04687863218360481 0.08936828685967069
0.14454592385123377 -0.04547135526599835 0.08942891466793595
0.14489547584102344 -0.04598820581457392 0.08939411568081522
0.1434942100948437 -0.04410946210306493 0.08915975976183907
0.1432934820048927 -0.04372994748583769 0.08963851382225049
0.1436627336233167 -0.044193665516414946 0.08988584138934816
0.14412278286989502 -0.044801843173305246 0.09008962947471247
0.14252030674492228 -0.04269789704894191 0.08937016940157605
0.14289336643818734 -0.04320622566829666 0.0896398950914978
0.17107543239482856 -0.08176519169933165 0.09288684100651269
0.17073929005721927 -0.081390646867527 0.09307393111876495
0.17104702886821882 -0.08177359992016989 0.0931712910191319
0.17011461116238158 -0.08069094244729613 0.09317192966643312
0.1694351304294731 -0.08003974506663883 0.09334494094989973
0.16797441244114836 -0.07875800529316362 0.09268883722015424
0.1687893235132703 -0.07946834137440459 0.09355693280719973
0.16714577282549742 -0.07806419019941392 0.09275853686994291
0.1664424255634744 -0.07739263826045727 0.09237491868175635
0.16603724393496094 -0.07695243099715525 0.09245994416719878
0.16664956796070288 -0.07760872291811372 0.09319080442381784
0.1655076788707203 -0.0762953949863401 0.09242932196344969
0.16494744902987477 -0.0755408941218112 0.09238347319443736
0.1643592423342404 -0.07477708766943879 0.09228874687676311
0.16391785784540644 -0.07414363630151703 0.09198313096361824
0.16360426190307667 -0.07374831232221377 0.09222420121380341
0.16403872648496454 -0.07443520129805148 0.09255308318745135
0.16301428246250743 -0.07287686110328366 0.0920730384390471
0.162451782741494 -0.07206114390548037 0.09196395508692821
0.16200597850614287 -0.07140629989144046 0.09164601669372698
0.16167057370158838 -0.07101426491272611 0.09190111838928124
0.1621307038962515 -0.07170693213051295 0.09224174648935592
0.161057929672049 -0.07011158855139399 0.0917064990664993
0.16064278231595722 -0.06942587723239088 0.0913808235412153
0.16033094237143047 -0.06907550317467726 0.09165980006181346
0.1607263751116066 -0.06969487399921684 0.09194867780768377
0.15978013059701796 -0.06834259399060502 0.09158026635110639
0.1593017566591192 -0.06770353150262069 0.09157287503388885
0.15852390565666769 -0.06666615218433408 0.09137809707644659
0.1589729483654894 -0.06729182194237147 0.09170165443240952
0.15800027081975893 -0.06601956864606358 0.09138542996812435
0.15721106642231533 -0.0649030306343303 0.09115536181584713
0.1576577369916928 -0.06557958833502033 0.09149131566551202
0.1567206393693196 -0.06419625089484801 0.09118858977282084
0.15596395702851654 -0.06308450924846191 0.09093997475718102
0.15639107588138323 -0.06371578688678711 0.09125456455536086
0.1555034547479927 -0.06242728613454745 0.09111955350286312
0.15466412711875208 -0.06125032226347144 0.09077929540523971
0.1551333046853429 -0.06189036795249977 0.09138323856441768
0.15384714923796855 -0.06004965855565053 0.09041639862780222
0.15430153700157204 -0.06071222559079175 0.0911382038383263
0.1534343583535287 -0.05938462732505198 0.09060579140334137
0.1530664727036426 -0.05877386335698778 0.09034252970607733
0.15281454390969695 -0.058323755842146566 0.09047259732260406
0.1531657195831783 -0.05892751601492679 0.09106253511815139
0.15242844611303527 -0.05763794100868782 0.09056740703011049
0.15206178362365919 -0.05699878280002854 0.09026193027858934
0.15181818044708154 -0.056545369473470296 0.09039842481379899
0.15215161903906602 -0.057142834345150446 0.09100636171306208
0.15152360437081372 -0.05599250284498378 0.09049074538947006
0.15094289598880417 -0.054874516416601654 0.09033259142350883
0.15128644258553417 -0.055531008092489155 0.09062718179106162
0.1505692914911164 -0.05415578536345149 0.09043305365991453
0.14983619189436348 -0.05292393608662006 0.09023441602106902
0.15028943094748393 -0.05364202695092492 0.09054933478259405
0.1492221787152034 -0.05201841688402574 0.08986571831800991
0.14905698392285424 -0.051829049505295405 0.09049536299243263
0.14945074700158872 -0.05236620557948717 0.0906940976835411
0.14862146097890086 -0.051280633436731504 0.08996714456836233
0.1484061555394876 -0.051082547605215634 0.09062730556385795
0.14876209170007362 -0.05151103872508617 0.09079879656447609
0.14809125825198652 -0.05067894268584678 0.09020707754915294
0.14774661418682264 -0.050297764405453665 0.09058407300016302
0.14810177785797038 -0.0507486467466803 0.09088918495526345
0.14674468569346555 -0.048983773562005006 0.09011353805917338
0.14721174538615664 -0.04961940405244204 0.09067561987040945
0.14603417121248047 -0.047788682591741266 0.09025441971733943
0.1464762506081805 -0.04849238277263499 0.09040256641685344
0.14549869608547478 -0.04687605320031246 0.08999683557938608
0.145439671160223 -0.04651465368179751 0.0907117619506504
0.14572887814559163 -0.04710427171004687 0.09087652810493252
0.14503744940521174 -0.04603329880609211 0.09015089577000088
0.14489932407035305 -0.04566954964182826 0.09087955864464797
0.1452632444107588 -0.046070488785539584 0.09105256696802538
0.144564484448037 -0.04535022967629466 0.09043205693106389
0.14430589085849652 -0.04487132211940346 0.09089082143074843
0.14463329184941043 -0.04527326898178401 0.09120686329681967
0.14339510515906323 -0.04375724383262658 0.09029785084268195
0.1439008224819565 -0.044293871469681445 0.0909155194481073
0.14261218351071814 -0.042824044736746746 0.08973761822563858
0.17039709498264044 -0.08107449616448047 0.09363186878803492
0.16993959406658563 -0.08059433719321749 0.09399146525125003
0.169424354355223 -0.08010021331520897 0.09428646560712058
0.1681394274053776 -0.07889763970469263 0.09377073782876273
0.16891572869102536 -0.07958149512065371 0.09454115368645659
0.16745797531763384 -0.07832313690406886 0.09399843932512199
0.1661311421152502 -0.07701938205706477 0.09334836807832421
0.16686293736793154 -0.07771987801828859 0.09420361621789497
0.16554316487983142 -0.07631372105008111 0.09340344363253322
0.16490157855454546 -0.07552499704871174 0.0933389855971158
0.164361835778041 -0.07490605874358658 0.09301186607605427
0.16405653983906102 -0.07452228816922299 0.09327383484689006
0.16456197002406692 -0.07514748376545934 0.09359957289788215
0.1634752248963421 -0.07369343608811928 0.09313894811699715
0.16288364593322954 -0.07287221563036181 0.09300546634212892
0.1624292755487835 -0.07220816005629101 0.09270420848488933
0.16210691590367338 -0.07185840925885385 0.09300191612428975
