# .PCD v.7 - Point Cloud Data file format
VERSION .7
FIELDS x y z
SIZE 4 4 4
TYPE f f f
COUNT 1 1 1
WIDTH 790
HEIGHT 1
VIEWPOINT 0 0 0 1 0 0 0
POINTS 790
DATA ascii
0.16737147384765394 -0.07720682644739991 0.08413793503028263
0.16697558563068432 -0.07631275339765625 0.08413178965881997
0.1666465788726085 -0.07542273947646948 0.08414108502201771
0.16638464245524315 -0.07452555624568953 0.0841710316240636
0.16615910854601287 -0.07360953149735935 0.0841966923467644
0.16593171194993606 -0.07268484110408974 0.08421901052170568
0.16569745692725873 -0.07177457352147401 0.08423309008514555
0.16549459128730207 -0.07086355578855684 0.08427891565351237
0.16531800030721766 -0.06997992109242406 0.08434289666321941
0.16510711199582595 -0.06916715932885971 0.0844215568386813
0.1648064071728419 -0.06845461388992834 0.08448622868870541
0.16442414058823096 -0.06783651854472446 0.08457031947504358
0.16339589237899524 -0.0662571202015861 0.08403927856566494
0.16352634381900288 -0.06676116019392439 0.08477297335593664
0.16399197562990078 -0.06727355572986606 0.0846648928563815
0.16306079144630695 -0.06569659623434965 0.08417808205177954
0.16281747079936995 -0.06509486501902534 0.08430660734955091
0.16262557228780752 -0.06449431858858926 0.0844049017089387
0.16247411307768234 -0.06390103109504112 0.08449540060811349
0.16234417381380092 -0.06331598068455924 0.0845855770290341
0.16235618830018933 -0.06158110752320343 0.08402214907669614
0.1621110572329637 -0.062202404940055606 0.08477544222634315
0.16221735924988856 -0.06275622088204197 0.08466993048514801
0.16234347698945287 -0.06097570682174421 0.08415906620554425
0.1623534054190742 -0.06033469764317694 0.08427835220193512
0.1624099574401785 -0.05966909059929968 0.08441883837546668
0.16244869782979407 -0.058999107894390966 0.08456542617109011
0.16275891678071888 -0.05765237239910793 0.08420573085711491
0.1624261999456787 -0.0583963317077612 0.08474891517780937
0.16272032786914722 -0.05623751772075011 0.08397087253337764
0.16252408076612876 -0.0570755249737734 0.08453236845695437
0.16257419843881737 -0.05486431321337537 0.08386975387960163
0.1624109941781925 -0.055693994706345507 0.08436578196134344
0.16257302575631266 -0.05336824119420779 0.08375984214474465
0.16231527957882058 -0.05428391141252205 0.08425445365965055
0.16270502863370614 -0.05170826164271643 0.08364072507460026
0.16240217869761864 -0.052703155992702776 0.08414469653584601
0.16270577934641017 -0.050401391917720244 0.083753200804567
0.16253782673670847 -0.05107280604836423 0.0840874091645373
0.16245645359263017 -0.05012377599984677 0.08429672793258854
0.17636683800502637 -0.09604799001184053 0.0846019822056154
0.17592724897384945 -0.09546855496250646 0.08493330893009378
0.1754284561879919 -0.09474030668396671 0.08515948687251682
0.17477358878638646 -0.09385831103386587 0.08521326956968689
0.1741096807776809 -0.09287966630567072 0.08520527988108191
0.17348037223052012 -0.09190568662163147 0.08519077769695892
0.17294584945132502 -0.09089285701773403 0.08519672004342929
0.17246015900865425 -0.0898898815035897 0.08517817695730644
0.17201753851957158 -0.08888112616790121 0.08514612791578091
0.1715382181573579 -0.0878807491611729 0.08511984535688928
0.17106212636844118 -0.08690464466862642 0.08512178411133725
0.1706281184734569 -0.08594211228407067 0.08513849065473209
0.1702395736844726 -0.08500935785470548 0.08516918629507178
0.16988886793578858 -0.08407493870384307 0.08514852828996378
0.16950846504670106 -0.0830683496100921 0.08514121397043234
0.16912806167573902 -0.08207681317973026 0.08516334151737275
0.1687355830386924 -0.08110697238837856 0.08514732997324237
0.168342776373718 -0.08010888127087348 0.08507586045110449
0.16792892451415897 -0.07909683444874986 0.08501494400150329
0.16750090858594838 -0.07814440702573379 0.08498539541051109
0.1671165506030382 -0.07721949825404216 0.08497883374476618
0.16678217458798808 -0.07630363028341346 0.08498814950433652
0.16648518499866716 -0.07541111577572811 0.0849960663766473
0.1662178619168041 -0.07450969038388063 0.08500858795201723
0.16596553359448782 -0.07358866444775172 0.08502603485202317
0.1657257806533904 -0.07266124899900354 0.08505093601945031
0.1655086788506681 -0.0717361934308781 0.08508248821515403
0.16533123047644577 -0.07081826980447992 0.08514289742596398
0.16514780337743606 -0.06994199554551934 0.08520250278706769
0.164911740530812 -0.06913621006903714 0.08526327943072663
0.16458971268014824 -0.06842783551149938 0.08532700778143851
0.16418480628619636 -0.06780621152254582 0.0854043643520377
0.16311777578472533 -0.0662419698342425 0.08491514101242763
0.16327546247912383 -0.06674038056933522 0.08562573111336677
0.16373091121649883 -0.06725153000729382 0.08550037129242129
0.1628045208749431 -0.06568147096961442 0.08506324647937172
0.16254727681093517 -0.06510798116783365 0.08516946598750967
0.16236306823822727 -0.06452158038092261 0.08526697207951003
0.1622319197906883 -0.0639265645112046 0.0853636305367368
0.16209486692459898 -0.06335209740191268 0.08543763899474625
0.1620198905621723 -0.061620872398873795 0.08489467360523081
0.16184647095803928 -0.062230138496502024 0.08563574481993741
0.16196567320054422 -0.06279350015429487 0.08552594517597584
0.1619765676430197 -0.061020597867659405 0.08500833550176648
0.1619701000684542 -0.060384042000052665 0.0851373947887153
0.16200796624682912 -0.0596981780936675 0.08526293677441216
0.16208175691959656 -0.05904681954388352 0.08532407414004463
0.16222356508790395 -0.057878691056893264 0.08511759643766112
0.16208747403446522 -0.058546720316465316 0.08539696568814681
0.162257654285586 -0.056515664308537314 0.08489793480149332
0.16208731573071342 -0.05726186468001155 0.08534310521466892
0.16212218851230878 -0.05512729007661275 0.08476718846672127
0.1619779265303132 -0.05594815668814502 0.08531675970826218
0.16212968912244455 -0.05365976690029149 0.08465034906237681
0.16194861311263364 -0.0545042879004323 0.08516311718296829
0.1622813498710062 -0.052009073148776556 0.08456571664224494
0.1619907144174267 -0.052970749255034276 0.08506977311135316
0.16235608352067027 -0.05051819754192229 0.08453244694164225
0.16218478582530074 -0.05134753525520407 0.08501595192713214
0.16224465593343312 -0.05020824285742876 0.08496324943742023
0.17554636331839302 -0.09523560548465329 0.0857554911464416
0.17514926783264748 -0.09468704092219561 0.08600777587443882
0.17452669144250793 -0.09375229290230291 0.08604292448812713
0.1739009143332585 -0.09279467557270017 0.0860157839397982
0.17335413485683313 -0.09185247986484842 0.08604144303331789
0.17282940762278357 -0.09085631197559657 0.08604759993268217
0.1723537441162839 -0.08984675000577999 0.0860296973891743
0.1718856756045194 -0.088844443868047 0.08599622308983583
0.17138673847182448 -0.08785286991000628 0.08596523741201996
0.1708987106411958 -0.08688084679550544 0.08594193892880224
0.17048156998140815 -0.08590567391315393 0.085934503237357
0.1700774498125875 -0.08494460314111586 0.08592178463902828
0.16968942706599466 -0.08397684383272735 0.08591540344410037
0.16928247023296344 -0.0829841638905567 0.08591790309126393
0.16888863727728187 -0.08200654630827178 0.08591113572916582
0.1684886067880701 -0.08101998890638058 0.0858947264290917
0.1681050042367712 -0.08004339811148074 0.08586265868933038
0.16769125293803125 -0.07908778051074111 0.08583861892970789
0.1673188096450416 -0.07813579898028275 0.08582792215505497
0.16699727321075686 -0.07721028712021064 0.08583709569054745
0.1666640449058753 -0.07630641368530006 0.08584690993505797
0.16635006510260605 -0.07539704640965333 0.08584506939873736
0.16607952870361434 -0.0744763845976185 0.08585172212165405
0.1658231982930915 -0.07354517405066116 0.08586715147206903
0.16558854978501056 -0.07261457566301806 0.08589864382252416
0.1653895666422807 -0.07168143663176116 0.08594139239090766
0.1652077287310419 -0.07076882458176839 0.08599864417275142
0.1650055138506886 -0.06990305872823087 0.08604804921561389
0.1647486956214416 -0.06910521723013748 0.08610980096826051
0.16439915698466925 -0.0684040514019328 0.08616681087477299
0.16397683640001742 -0.06778858664673944 0.0862441418102459
0.16289098376828953 -0.06621953933910722 0.08577570398154916
0.16307488857865277 -0.06672863411276903 0.0864723958093949
0.16351925940125497 -0.06723979852597874 0.08634304529200905
0.16256762342288464 -0.06569249949696129 0.08590617403231511
0.16231439638635586 -0.06513192368694638 0.08601542529034001
0.16214116442919707 -0.0645396718734613 0.08611430190157039
0.16201052941282276 -0.0639635162546027 0.08619201150429806
0.16188721049625035 -0.06339125136889483 0.08627286090193499
0.16172542573890225 -0.06165584498669536 0.08574045348303132
0.16158899617462466 -0.06225486021861749 0.0864575260076637
0.16174130588424973 -0.06281286915975344 0.08636499080101194
0.16164228632418262 -0.06105540236703815 0.08586350482815629
0.16161018733914206 -0.060397338429067485 0.08600529853189524
0.1616210327179509 -0.05964037168613722 0.08613824219296175
0.16184526412337238 -0.05895350391698383 0.08587531313205436
0.16182052558877988 -0.058394306441489296 0.08592336552677496
0.16147291205182526 -0.059056537392010174 0.08656042095041186
0.16190004351948753 -0.057799263288489285 0.08571251753238471
0.16182074118936135 -0.0568251816406539 0.08590654597308402
0.16178630932852375 -0.057487764250772365 0.085961323006782
0.1617743724917035 -0.05528478618141232 0.08570085429314167
0.16163220346203422 -0.05606471962803736 0.08628534487266933
0.16179595209508962 -0.05385170153280919 0.08557830449890282
0.16163037055209817 -0.054617772028568226 0.08608392527953856
0.16194412066584937 -0.05224985634354324 0.08551776262159609
0.16170213986422644 -0.05314075922854693 0.08601097411754516
0.1620839507778124 -0.05071642238460803 0.08543759755705303
0.161899447553539 -0.051527994613397916 0.08596391878924652
0.1620364547505787 -0.05037890737156486 0.08588277398536713
0.17551996757245572 -0.09607898887505543 0.08700569908897432
0.17538058921502334 -0.09554605981312617 0.0867822247073573
0.17489673470972494 -0.09460172908029377 0.08703057113650078
0.17429770189314034 -0.09354957029957035 0.08675737675654581
0.1738367901455099 -0.09274256707165526 0.08689804447781813
0.17332987325662383 -0.09178971564689845 0.0869413946361217
0.172796947745161 -0.09080387134347483 0.0869426466037515
0.17231246229289765 -0.08981661990868874 0.08692597402893724
0.17180270820581048 -0.08881997475673424 0.08688955760004746
0.17128805596250687 -0.08783267644070149 0.0868465831765353
0.17083948861936282 -0.08685306554205842 0.08681135312270488
0.17040634210096944 -0.08587869027593868 0.08678194922480582
0.16999011431943697 -0.08490511798739295 0.08676460364450544
0.16957838626879504 -0.0839222325814236 0.08675075880135584
0.16915588691717096 -0.08293463696452247 0.08674268235471383
0.1687558988173279 -0.0819624266287815 0.08673266275699715
0.16837344595706144 -0.0809917831566357 0.08671945827811035
0.16797840106976902 -0.0800313507131773 0.08670120638657387
0.16758890146700248 -0.07907750764117284 0.08668846098343845
0.16725888144679613 -0.07813010779594232 0.08669283537955148
0.1669309540374419 -0.07721224782045993 0.08669909608051009
0.1665811548057782 -0.07629974462195555 0.08670217721330337
0.16627051440957125 -0.07536593852866573 0.08670694651994662
0.16599942013399427 -0.07443425872732203 0.08671340440402679
0.16575023615578643 -0.07349630651266303 0.08673904092078792
0.1655252597969 -0.07256188261834759 0.0867650602567102
0.16532939358359633 -0.07162927035271521 0.08680827716513279
0.16511712868080688 -0.07073243012883285 0.0868482820902161
0.16488664452831198 -0.0698736188574308 0.0868886238867315
0.16459190108210212 -0.0690825926591466 0.08693499323751129
0.16422130597552576 -0.06838690179955635 0.08698728438743118
0.16377786381376683 -0.06778299081284747 0.08705426630271935
0.16268615579113155 -0.06621515739018147 0.08660176100188181
0.1628731779935663 -0.06674044806958804 0.08725508649644986
0.16331787017587665 -0.06724410952008009 0.08714726042175244
0.16235501280483403 -0.06570399502607496 0.08672226865356493
0.16212843917957598 -0.06514617305574771 0.0868479429744209
0.16195703855828486 -0.06457376199239034 0.08693344324324329
0.1618238480367282 -0.06399117373564664 0.08700039376901554
0.16169709356741777 -0.06340109589621519 0.08708154932097921
0.16144532835172418 -0.061691269520544885 0.086576480277943
0.16135538601104135 -0.06227152720941472 0.08726362235300686
0.1615377529782171 -0.06282676696122926 0.08716392356174618
0.16131533368151027 -0.061082581635646345 0.08672437439948444
0.16125181692615861 -0.06044076307926836 0.08688860987957459
0.16119488593322168 -0.05982781761501809 0.08707922046784766
0.16154018982575294 -0.058469166727551106 0.08650307521698292
0.16145166808563902 -0.05819882231010709 0.08674808025891217
0.1612968927703621 -0.05871516925236435 0.08705580014009721
0.16110114228803868 -0.05934727247026625 0.08736564540310825
0.1616639959229799 -0.057985494658383666 0.08624450672461806
0.16150350774814914 -0.057595635159649335 0.08665844664542818
0.16140810003273562 -0.056835424925603915 0.08691187547508614
0.16150903785117346 -0.05534072608538024 0.08665074892951066
0.16133728912556577 -0.056067802373887886 0.08724572329720331
0.16153081172848696 -0.05394109985599589 0.08648437938010081
0.16139724656749135 -0.054637492090794076 0.08696532658019816
0.16166839919776807 -0.05241325633620732 0.0864725425798693
0.16151385672086718 -0.05324437040091238 0.08694319400006581
0.1618934604768223 -0.05086912464825985 0.08640123334672245
0.16171966527630316 -0.05162579441353229 0.08691416660283072
0.16185732191360205 -0.05054234123196077 0.08686678232289506
0.175370891814254 -0.09614737333617922 0.08776309069701028
0.17545622300012098 -0.09609294550004292 0.08730677640667707
0.17527257421476838 -0.09594124920715329 0.08814962694065107
0.17525331912497275 -0.09568476864868906 0.08766465700295108
0.17515545585379616 -0.09558577481645612 0.08831009314177006
0.17488393046345913 -0.09491937095850415 0.08809255125399501
0.1743822868778425 -0.0937613736343959 0.08777080273134527
0.17382060851003428 -0.09264196917376727 0.08783284588385622
0.1732966923980399 -0.09168874100776953 0.08782460343177517
0.17281037155424925 -0.09075435422440714 0.0878386257532817
0.17227555980715936 -0.089790779433416 0.08782875901166996
0.17174336341948862 -0.08880047065018 0.08779911631946002
0.17125069447724128 -0.08781357500639336 0.08775939432029188
0.1708119197824398 -0.08683188772576492 0.08771877718989655
0.17038230602744225 -0.08584954920112277 0.08768550561940068
0.16995273614148879 -0.08486875031180709 0.08765407253093352
0.16954800269893516 -0.08389810643413073 0.08763433012846139
0.1691201865533215 -0.08292750743336998 0.08762140222016235
0.16871455134046956 -0.08195060336648413 0.08761029584898326
0.16833672937460561 -0.08098792014081178 0.08759412956882497
0.16794095500556552 -0.08002500511761333 0.0875748392674767
0.16758122561019262 -0.07906596333818414 0.08756561109189628
0.16725491931539105 -0.07811897159814388 0.08756046225384344
0.16689405277718822 -0.07720470955130153 0.08755525074710255
0.16653715185779738 -0.07627390468495224 0.08755211105422205
0.1662343307994031 -0.07533157692519217 0.08755520353743139
0.16595565059529413 -0.07439626454432183 0.08757015048641642
0.1657111188745172 -0.07345960772939975 0.08758904105088965
0.165487756227542 -0.07252042765374841 0.08761477498890877
0.165277894720678 -0.07159887693826796 0.08765167284274292
0.16504554897475152 -0.0707041341234758 0.08768380700810058
0.1647845310825643 -0.06984986176430523 0.08771603057663357
0.16445061977104114 -0.06906633698109763 0.0877565057515821
0.1640457227245011 -0.0683739179736905 0.08779150309950125
0.16358864091945458 -0.06778500705126488 0.08783840222135558
0.16248092215148377 -0.06624463308605172 0.08737922725769029
0.16269230937003723 -0.06678750674786414 0.08800887509064145
0.16311816421159966 -0.06727718589058729 0.0879119066057133
0.16217770261435654 -0.06572144995581124 0.08752063126597677
0.16195312355576238 -0.06517864610694203 0.08764038817840605
0.16178647681947925 -0.06460405401004803 0.08771272177238151
0.16165388598337183 -0.06399574577740855 0.08777755753100515
0.16152141751855595 -0.06339912211595983 0.0878492707338926
0.16118093024353114 -0.0617186837891353 0.08740685487919327
0.16114326516209793 -0.06229030025267622 0.08804492942363457
0.16134104387346423 -0.06282222673802391 0.0879286889112026
0.16102124294612974 -0.061125132441963194 0.08758756766940469
0.1609064516301132 -0.060467067180906275 0.08781514622592664
0.1609490549128388 -0.05986996629152302 0.08769789748540072
0.16088749384843024 -0.059573314149749736 0.08793119764109454
0.16074267787871357 -0.06004999226102502 0.08825684913723379
0.16124574005053063 -0.058232744077569086 0.08733697752040617
0.1609845546302159 -0.05897369392218132 0.0878571093669726
0.16118787231079207 -0.057569509381580744 0.08756289556305143
0.1611160851617937 -0.05682289306537396 0.08784115031537047
0.16125380972510125 -0.055240079979197054 0.08762511197679415
0.16103280176664084 -0.05605173804455745 0.08816894664244002
0.16135729477204933 -0.053968314285903256 0.08730269010781422
0.16126133172204304 -0.05451975355166583 0.08759996063006653
0.16151465271172954 -0.05245704318775035 0.08741643328184834
0.16132263281339915 -0.05330602199843376 0.08788134766145508
0.16176503054422625 -0.05096140452991733 0.08735467102824691
0.16158474122203562 -0.05162470281969277 0.08780454949251137
0.16170409999649918 -0.050656785671692975 0.08784436547302629
0.17516625068521857 -0.09569657154780109 0.08852093116305239
0.17492836641528686 -0.09515585754570381 0.08876869101460218
0.17458013611535317 -0.09436032028411968 0.088808341626957
0.17418628127612354 -0.09333943412873089 0.08884451957011366
0.17369483131809185 -0.09238338276513551 0.08858297972710485
0.17326386903249216 -0.09159979854890606 0.08868162959885892
0.17279718118747833 -0.09069289116012808 0.08870039856275713
0.17223186933046422 -0.08975951197434182 0.08872190615386541
0.17169458941254023 -0.0887698036662436 0.08871413253210232
0.17121245936024357 -0.08778438120260723 0.08868520180798954
0.17079380385470608 -0.08679812957741972 0.08864779445312825
0.17037517782599482 -0.08581589391503638 0.08860876600603546
0.16996094775938983 -0.08485524085114646 0.08857895241371451
0.16954631345258434 -0.0838954217315676 0.08855635008960322
0.16915395048836618 -0.08293370374308633 0.0885405510534487
0.16874803457331367 -0.08196873441763121 0.08852266946333957
0.16835446700238746 -0.08100191835143349 0.08849967437487403
0.16797567249955572 -0.08002425920913551 0.08847651183075142
0.1676243475730243 -0.0790672144973831 0.08845241789339083
0.1672641677521386 -0.07812200620277242 0.08843099914651378
0.166880273521701 -0.07719390486840538 0.08841141134757059
0.1665339741226222 -0.07625067174667187 0.0884054890229936
0.16623494470396127 -0.07530840347398722 0.08841427472260459
0.1659605279385112 -0.07437114881758965 0.08842303575767817
0.16571333153411894 -0.07343374547798126 0.08843881314008135
0.1654869493625195 -0.0724939383291704 0.08846105379536659
0.16525764776518542 -0.07157316965143481 0.08848167661283536
0.16499600246326074 -0.07067622064553074 0.08850402969618829
0.16467773996911064 -0.06982633761234383 0.08853256155502663
0.16429034095506653 -0.06903459442742 0.08855135783447501
0.16384600482391207 -0.06834394405641392 0.08855023250439366
0.16338431551742025 -0.06779524237019902 0.08854568840626471
0.16233759819994034 -0.06631389492467246 0.08816751996286118
0.16257214672819859 -0.06682186563676597 0.08865093936507731
0.16295191768081876 -0.06733351735882781 0.08868826581940004
0.16204892212722763 -0.0657898788230802 0.08834132393713141
0.16181894536199298 -0.06522185823840672 0.08843612473499593
0.1616598853536623 -0.06461292476725328 0.0885026918377349
0.16152149238658187 -0.06397559393279857 0.0885472925663328
0.16137064885238628 -0.06337183047865087 0.08858551480979318
0.16095060706758532 -0.061773127045424606 0.08822304411081691
0.16097546890360911 -0.062339755653304615 0.08879672296743872
0.1611821073201115 -0.06282093053625776 0.08865096767357238
0.16075684849215977 -0.06120531313820025 0.08845724499598809
0.16061853157154285 -0.060647533705922546 0.08872349789543181
0.16073538461090867 -0.0595747319680348 0.08846743559948715
0.16056469240287558 -0.06012295677744595 0.08893347866707882
0.1609467716893876 -0.05828945172842355 0.08816346206533024
0.16072100877860093 -0.05901143139065837 0.0887200568016405
0.16091518507650046 -0.05755949821339378 0.08845375730433325
0.16086168069025514 -0.05680830692558255 0.08872773063386794
0.16099178796834568 -0.05529901476342535 0.08849993527323768
0.16075005455834895 -0.056005535194580305 0.0890959372774264
0.16122985724696892 -0.05406069450718848 0.08789976694653301
0.16114777379584402 -0.05460773117814184 0.08816449884924549
0.16138549539067323 -0.05233596013055867 0.08835989908144842
0.16119238550873835 -0.05309730902566743 0.08863229609421652
0.16110633924016712 -0.05389755305625843 0.08853439447113895
0.16161267912760144 -0.05103486713161971 0.08822228682387163
0.16149208629663947 -0.05156177318509251 0.08847534240394771
0.1615638797850459 -0.05076631001690615 0.08890024678208278
0.17455374945935317 -0.09510719028021768 0.09085300937723756
0.1746155809906714 -0.09467906001582814 0.08976413184198567
0.1744352514652571 -0.09405828006941097 0.08944261298204717
0.17444798516569437 -0.09412754912244767 0.09000293719235965
0.17423224024339606 -0.09355268657256989 0.08968129308677537
0.17373085151952034 -0.09252963382338067 0.0895736547462235
0.17320072241939674 -0.09144732335868297 0.0893883637126826
0.1727293428160861 -0.09066077666134922 0.08954101730520148
0.17213520639046784 -0.08969273633368036 0.08959493973899396
0.17162019443664264 -0.08871561630881852 0.08961580289370825
0.171145434929264 -0.0877268241941651 0.08959925235411519
0.1707574055818085 -0.0867446658220753 0.08956451272278013
0.17036043841070542 -0.08579488074321219 0.08953632102076825
0.1699698037765261 -0.08485196530345175 0.08951606824127481
0.16959239629024622 -0.08391593970178834 0.08950178530885967
0.16919607053423105 -0.08296007237439429 0.08947777524701994
0.1688182492858061 -0.08198941727930152 0.08944958443692544
0.16842107918350446 -0.08101014308616339 0.08941308798227124
0.16804680683401405 -0.08003200120634597 0.08937643047326041
0.16767028747871637 -0.0790650809955326 0.08933312044663169
0.1672877343988171 -0.0781086402678834 0.08929518103400458
0.1669203130323637 -0.07716739696460917 0.08927629403137914
0.16658774535213788 -0.07622341949049116 0.08927112059653824
0.16628622675346405 -0.07529169484775973 0.08927348289445015
0.16601611982608536 -0.0743525125223322 0.08927641522726615
0.1657590149845931 -0.073417920225093 0.08928883279295097
0.16552834697573912 -0.07247350358862893 0.08929909527483038
0.16525556082810036 -0.07155576342801151 0.08931746017662737
0.16494811166474677 -0.07064951722765815 0.08933529344295797
0.16455501543356907 -0.0697845636531462 0.08933511539764305
0.1640808597069905 -0.06898314844901526 0.08931545760421383
0.16357524331155995 -0.06824972981901323 0.0892382793607798
0.1632522701173661 -0.06779735714542645 0.0890347428931744
0.16305749090906022 -0.06767574078347514 0.08933479520894343
0.16330330901717294 -0.06794995317399471 0.08935385137373196
0.16229532557075296 -0.06653112529942584 0.08907516181012337
0.16269850958782428 -0.06719187410835896 0.08925881688039887
0.16195441478403833 -0.06587810523227741 0.08917736052875495
0.16172197964204107 -0.06525588863747722 0.08923270410938887
0.16156676333357414 -0.0645975701838768 0.08927645616177006
0.16141134085750006 -0.06392467244069222 0.08928626545091473
0.16125203885300368 -0.06332394907842064 0.08925357190262388
0.16074698262286363 -0.06185994030382872 0.08904641608521549
0.16083586333059186 -0.06243363371381262 0.08951214855328465
0.16106226184659087 -0.06283613909728424 0.08930096124993861
0.16054986341624114 -0.06131374633909397 0.08931835276818195
0.16043815858808794 -0.060694289775653575 0.08957659741971002
0.16054517808440255 -0.059628757380509434 0.08915509792366354
0.16043123063473433 -0.06010103478879579 0.0894954442546362
0.16068282486803329 -0.05832076173503447 0.08906555176781242
0.1604827115764079 -0.05914014988645496 0.08962559719860096
0.16063876388325427 -0.057513017329649745 0.0893870707244963
0.16063679554202176 -0.05676698816720144 0.08940642207797517
0.1608348659260074 -0.05521065693826481 0.089147572283804
0.16082653697898802 -0.054646689454704744 0.08947768946902426
0.16061314912374366 -0.0554275271561481 0.08987456718061362
0.1605036279556533 -0.056373139022681464 0.08988330339853463
0.16097577699958626 -0.05464587093052111 0.08882347080599301
0.1609448266646625 -0.05412875466899288 0.08914744086111998
0.16121686371355287 -0.052574905809833254 0.08917433135474384
0.16104341559815913 -0.0534138508041455 0.08919356329033488
0.16149205821884882 -0.05119438713708351 0.0888680498293645
0.16136324719333425 -0.05179320076581381 0.08906008496138855
0.16147928866276767 -0.050589720810234495 0.08989174092809198
0.1614047044193648 -0.05113411243610138 0.08962618460344955
0.1744953559808058 -0.0953818492144537 0.09154862439079799
0.17446822202033996 -0.09449587359926791 0.09061816186479513
0.1743434824558417 -0.0948680984969288 0.09151482220028656
0.17416315115296221 -0.09406339500886202 0.0910929026672408
0.17387207296225043 -0.09392000414036042 0.09174972924384166
0.17411411193064918 -0.09354424988572914 0.09039263909848154
0.1737448218300381 -0.09322414087287384 0.09110185205658966
0.17362260659443024 -0.09262304714648961 0.09049953767740147
0.17320031837840197 -0.09164123047094941 0.09024897121283766
0.1725274044553054 -0.09058919869578376 0.09037072050541982
0.17194580319939123 -0.08961222673618394 0.09045127993659478
0.17143973185439051 -0.08862426904498774 0.0905106635232958
0.17102294628414716 -0.08762542551420749 0.0904815624132503
0.17066967596601362 -0.0866841675887562 0.09043802867281778
0.1703292103043329 -0.08577292088246424 0.09044657873674299
0.16999504528172799 -0.08485782860157332 0.09045169306684718
0.1696292596386198 -0.08393419535570083 0.0904396903905684
0.16926556358607847 -0.08297614665893316 0.09041519136122608
0.1688943685540647 -0.0820049501849915 0.09038017783162215
0.16849841923159742 -0.08102013365610497 0.09033569757022954
0.16811232977579232 -0.08003553421246468 0.09028040210032647
0.16773945375576205 -0.0790569881207137 0.09022890461857999
0.16735489205505552 -0.07810118615861379 0.0901923192004482
0.1670152703252953 -0.07715478109397537 0.09017001917059449
0.16668322524522253 -0.0762214939099205 0.09015686777087303
0.16638984741158766 -0.0752880153479116 0.09014641653451558
0.16611802537237494 -0.07435074172985373 0.09014396402251378
0.165863113453509 -0.07340710574860779 0.09014316717240312
0.16558680546882945 -0.07246721996357076 0.09015083799790377
0.1652695026323794 -0.07153662758508327 0.09016023351963844
0.16487891835873617 -0.07062233602049355 0.09016748739982307
0.16437409199495417 -0.06973221903441217 0.0901548449042006
0.16379522244208153 -0.06887221361959613 0.09008745639807479
0.1633014183627731 -0.06812967841457951 0.08979189168820245
0.16307745800102205 -0.06808375315301562 0.09022696682707904
0.16339088363555895 -0.06850206674424182 0.09039602309473356
0.1628908068542944 -0.06767633060112266 0.08983079287687709
0.16252279245003967 -0.06720152344131508 0.08989735834792163
0.16279275313974695 -0.06779683091009822 0.09040685710860549
0.16216293722236527 -0.0666081032975958 0.08996368253780852
0.16186652578526511 -0.06594643569485444 0.09001457206632911
0.16166010528793923 -0.06526449113855602 0.09005683654961522
0.161491055684859 -0.06454495683703584 0.09008533286044217
0.16130028864060209 -0.06378410774045411 0.09001554767867628
0.16115692565517745 -0.0632400401363409 0.0897261975904008
0.16059548319410213 -0.0620495301854618 0.0899514979983624
0.16079265765337544 -0.06263836100926963 0.09011748167470075
0.16098589463737706 -0.06292781061023872 0.08989083389953892
0.16041321398871602 -0.06140736757501861 0.09015059903203325
0.16033752795278003 -0.06091604180370476 0.09034211193430583
0.16039640191988658 -0.059767637538538185 0.08971929413375479
0.16032811899051563 -0.060291562093967195 0.0901307649124085
0.1604606773795496 -0.05835277152683916 0.09005195759421661
0.16031540691844606 -0.059159525656535525 0.09047964951162324
0.1603144102725241 -0.05969932584880171 0.09022899156229723
0.16042344460631067 -0.05765551176349007 0.09008661602366036
0.16033034278108826 -0.0573687910171912 0.0904190709848551
0.16030977113594289 -0.05790590431476482 0.09066871273493662
0.16046003413220344 -0.057084553532961886 0.08993626676814342
0.1603501898473956 -0.056828771509481686 0.09047533033872486
0.16069633079873155 -0.05446566050131717 0.09018348985916089
0.16072746136382565 -0.05410489752102775 0.09087364569956453
0.1604862557864205 -0.055112650616320064 0.09084728542732728
0.16040348588475709 -0.056088753339271505 0.09058249769801502
0.16085817239864006 -0.05360687655836975 0.09037666957732922
0.161013526211111 -0.052950207674651806 0.09065546327726354
0.16089715705505647 -0.05342278641240566 0.09093433222295337
0.16087551457603752 -0.05387365102452207 0.0897183737671855
0.1610586761482152 -0.05290099283647275 0.08995676337150556
0.16120334117369467 -0.052085771916205 0.09077680086110271
0.16125966960807028 -0.05196703997636368 0.08982399045839708
0.16131448281249347 -0.051404036081190575 0.09033878707617406
0.1614404805025639 -0.05046073510973969 0.09059949780981078
0.16140683108634268 -0.050792082843597264 0.09048131236996805
0.1743748694331759 -0.09526856563027288 0.09219272519080936
0.1740959645845905 -0.0946766606932235 0.09242511241444516
0.1734395708472988 -0.0935425964768783 0.09257119553046678
0.17336910214909462 -0.09287876012644568 0.09172195742343767
0.173293044161663 -0.09228225896879695 0.09105464256511087
0.17279396329812066 -0.09139648039326922 0.09104712506899625
0.17220949552403553 -0.0904871343804477 0.09115653266509008
0.17166327755927466 -0.08952779774814981 0.09130666997958219
0.17114484475358513 -0.08842613333224741 0.09148111090935494
0.17086019101714267 -0.0874148625656982 0.09118114712459614
0.17057248238282596 -0.08663147857850395 0.09130174409842719
0.17029852960919287 -0.08571563752323642 0.09134344124828737
0.169990682774109 -0.08483034371590532 0.091357515683716
0.16965359760279028 -0.0839091712963401 0.09135409187451433
0.16933084357249747 -0.0829669469324111 0.09133858468715138
0.1689712040630765 -0.08200532979051531 0.09130456089948155
0.1685873208793001 -0.08102912333686624 0.09125493141994608
0.1682130058578195 -0.08004438697414122 0.09119709811391254
0.16783965042981241 -0.07906633523362006 0.091146846334824
0.16748265660026962 -0.07810353761896616 0.0911062491763725
0.16713872227686122 -0.07716350566408758 0.0910788742872508
0.1668315987192208 -0.07621730404389164 0.09105266096177528
0.16655021797733738 -0.07527479178756487 0.09102728766715511
0.16628675327905368 -0.07433425427604284 0.09101577125342762
0.16599604652854946 -0.07338895601514953 0.09101252837117553
0.1656674502351239 -0.07245985366940229 0.09102303497278125
0.16527748759147654 -0.07152565473369624 0.09103390221699686
0.16477139718175135 -0.07060162944773528 0.09103436503092292
0.16412765716972047 -0.06966119244437384 0.0909919231490351
0.16368416786055912 -0.06895925930789958 0.09070780038904927
0.16310137801942784 -0.06830265235075711 0.09069930913450584
0.1634126922864152 -0.06869658088934402 0.0908659497265883
0.1624742591703416 -0.0674501454711934 0.09077541338928437
0.1628469477754895 -0.0680909159736941 0.0909725073308044
0.1620890889519135 -0.06669846503769486 0.09083399249533541
0.16182399415376714 -0.06599114486855097 0.09087221444932822
0.16163564657311028 -0.065266437136507 0.09091140664190253
0.16142880371594737 -0.06446205059481379 0.09097640040682402
0.16119699188640346 -0.06370172140170176 0.09068808808623499
0.1610781888497742 -0.06351101861511256 0.09102323975085781
0.16124729271553584 -0.06399555044090445 0.09145329721941253
0.16097050349878642 -0.06313974198472005 0.09052118628474175
0.16072617108547219 -0.06270098652499692 0.09076955417406771
0.1609337217974396 -0.06321458799534051 0.09104065831923532
0.16112862231701436 -0.06334879098574092 0.09015945052778625
0.16045621293858517 -0.06203078802619718 0.09081030688015532
0.1603269639108786 -0.06141242414984615 0.09091790205335745
0.1602773903933546 -0.06073423778519848 0.09091853606908765
0.16027396651867504 -0.0601440476202645 0.09064662198916458
0.16025445428137386 -0.05868643316845969 0.09107773699042415
0.16021707106017663 -0.059367483520125226 0.09111989274826357
0.16023709799198688 -0.059742931499670804 0.09083610835507702
0.16024150168735668 -0.057343569764138146 0.09096576235225272
0.1601946971757072 -0.057965000928977606 0.09141193757698901
0.16025518366779473 -0.056691254893605804 0.09114246012804816
0.16062560240581097 -0.05445023533015846 0.09141786210681492
0.16044515841970244 -0.05513755114535371 0.09174322900339761
0.16030530202114318 -0.05594839923097448 0.09137186281383276
0.16101446398680325 -0.052835275715512005 0.09128311540409567
0.1608521943644951 -0.05363880986425547 0.09156267477409323
0.16125084002064174 -0.05162711892574271 0.09130946489914538
0.16127275237120162 -0.05127229114032234 0.09160392619896389
0.16117690455035108 -0.05197702019474466 0.09188839301183652
0.1609998650694647 -0.0529029369867748 0.09197432054421935
0.1612944683313816 -0.051270255170243466 0.09099049205834915
0.16134002270592407 -0.05072017761492107 0.09147936780152542
0.1742412421533787 -0.09511503029556181 0.09302486243249282
0.17390709604928697 -0.09455116614684128 0.09327444645867096
0.17337471156566994 -0.09377901526002093 0.09342977821333782
0.17285003119816722 -0.09229574079981853 0.09220884074470376
0.17269435707615757 -0.09264237415551459 0.09314167737238131
0.1729563582737464 -0.09203036174068283 0.09156813345218179
0.1721749352881413 -0.09142678986013607 0.09248878843148813
0.17187525799687428 -0.09147349549969186 0.09329332380136159
0.1724409184533446 -0.09133118360724513 0.09173545346035844
0.1715797675547752 -0.09051447942905864 0.09269997317275704
0.17125871780747828 -0.09046649087587223 0.09348987815302842
0.17188870545893165 -0.09044569424118323 0.091934680082986
0.1711810511009967 -0.08986569200078467 0.09288288591773818
0.17133099201754348 -0.08952000387799644 0.09222399336129239
0.17102881223863692 -0.08928658087775582 0.09282496566334847
0.17095020263498778 -0.08862354062915745 0.09247951231213435
0.17075287982535137 -0.08757217501298102 0.0921082986819774
0.17045170996324496 -0.08652760127347545 0.09218000026684592
0.17021868991218447 -0.0856405590104005 0.09219943658789743
0.16995134689831212 -0.0847709893958341 0.09223148093367449
0.16966828846626378 -0.0838676266444554 0.09225057911156126
0.1693712408403737 -0.08293761116756213 0.09224812445299577
0.1690534647871225 -0.08198059789138225 0.09221994610975508
0.16869096740420989 -0.08101954931764614 0.09217045421772829
0.16834439104590562 -0.08004350925850875 0.09212022757174122
0.1679967799938801 -0.07907104949097123 0.09207559530740089
0.16763993890690176 -0.0781215053161837 0.09203358268754222
0.16730548573121348 -0.07717241960541202 0.09199197989823336
0.16703136346977002 -0.07621596434125615 0.091956318848383
0.16675369746108393 -0.07526622561409975 0.09192845071959084
0.16645924594980205 -0.0743226665134396 0.09191525340629349
0.1661379149621835 -0.07338376445825262 0.09191210339223829
0.16575488743271055 -0.07245401329328846 0.0919128415565591
0.16528169059134407 -0.07154056875661653 0.09192573242950262
0.16463417030762975 -0.07063086006908435 0.09198402904724273
0.16398720101345948 -0.06978288635250045 0.09177235174276982
0.16380409648208974 -0.06974870554842445 0.09221050930008533
0.1642197714921985 -0.07028827473035719 0.09244673333078125
0.16355066921158554 -0.06925998507532936 0.09178535748022205
0.16322938616144428 -0.06888723258460552 0.09189548907580057
0.16350239964704474 -0.06940268107051678 0.09233927365714109
0.16365889896143537 -0.06915058627219099 0.09123664926956894
0.16321874212150667 -0.06864971246399143 0.09130070763701553
0.16282284225105326 -0.06826198003817578 0.0916451413117573
0.16239406125506026 -0.06749924569234282 0.09165713372731643
0.16208160250805734 -0.06675181081658085 0.09168759169549838
0.16185565478811673 -0.06602886464270555 0.09171985993256891
0.16167018950087042 -0.0653139274932019 0.09178065296144404
0.1614996378224161 -0.06471492098978904 0.09193981471037137
0.16104604577328252 -0.06353546309359939 0.09140557086246033
0.16086769596694284 -0.06319572557976176 0.09149099406205732
0.16111079385698546 -0.06378601509761721 0.09203172448729084
0.16135568705624426 -0.0643250287369115 0.09216228954259376
0.16061100904778472 -0.06265250929470559 0.09152950118018195
0.1604009698365354 -0.062035196048701925 0.09161717131393639
0.16027689029993702 -0.061354032113487146 0.09173236151271608
0.16018467940062556 -0.06039014863460132 0.0917643209842937
0.16014647777034036 -0.060028354591297045 0.09196589774694935
0.16015566894812655 -0.060492753640829275 0.09233838420649879
0.16021165775300358 -0.060931220079211014 0.09212154622508856
0.16023587112561308 -0.06074018194148488 0.09154148523248062
0.16017823655114438 -0.05986635528689843 0.0914422513249505
0.16017574405930404 -0.05942199944740477 0.09182111803377091
0.16023142691127928 -0.060271391391741466 0.09118162844778815
0.16017103309085584 -0.05862460323685773 0.09206761394096749
0.16019117450205028 -0.05729965386063378 0.09173067302948344
0.1601760201978218 -0.05791715560631976 0.0920337287563594
0.160211029929026 -0.05658461064823939 0.09178437002937166
0.16068345849374335 -0.054326116584665345 0.0921031041650187
0.1605581371408437 -0.05507167449796148 0.09257451011919611
0.16030285505745576 -0.05594463777496376 0.09219002339327956
0.1609032336913595 -0.053497666751865264 0.09243535962368755
0.16126778926281765 -0.05107973315937089 0.09238345987201453
0.16119417845780326 -0.05173766465436765 0.09304738767956133
0.1610740411266602 -0.05262096814744542 0.09273740089150996
0.16123848298305443 -0.050427310891019296 0.09291530922178622
0.16117480745275095 -0.05001970551936959 0.09361408422993282
0.17414231250335346 -0.09499740603127207 0.09387367320570675
0.17375901776903377 -0.09447377876627071 0.0940883978280198
0.17314059537864873 -0.09354878155445973 0.09408189929414196
0.17233033702076717 -0.09249062638790348 0.09403410610765171
0.17164011937427545 -0.091484790371345 0.0941031620321931
0.17118116779289475 -0.09073040510496166 0.09426703822010697
0.17097127770168244 -0.08961115351725046 0.09329966283413334
0.1708454882140322 -0.0897009553946979 0.09412360841690894
0.17080075929630784 -0.08885895413047575 0.09331524780837186
0.1706940398971986 -0.08806687090518035 0.09292491741076091
0.17046458732202752 -0.0872023898341742 0.09309667480964598
0.17031057362401647 -0.08629410930227212 0.09289417235892489
0.1701047857023875 -0.0855553740427804 0.09301859204103902
0.16989760764126102 -0.08468055134009028 0.09306985773844755
0.16966972955548631 -0.08380126467841642 0.0931279025848485
0.16942669251654552 -0.08287843776947677 0.09313794706953632
0.1691358285879359 -0.08194727087853126 0.09311896531742352
0.1688071835439983 -0.08100044789477961 0.09308570091097733
0.16849326473918322 -0.08004076880566761 0.09304926063385519
0.16816078109076057 -0.07908285066622243 0.09300667699744455
0.1678122308286088 -0.07813072560023662 0.09296071374064073
0.16750935342295906 -0.07717648465916084 0.09291601676925623
0.16723434787671065 -0.07621360471564753 0.09287536921600177
0.16693812932355656 -0.07525154479905138 0.09284505311581633
0.1666358377219037 -0.0742971827652373 0.0928205371083601
0.16628870203141058 -0.07336656638359698 0.09281154422535497
0.16582562534848214 -0.07247319734806434 0.09280336877421047
0.16529441491009134 -0.07163429637964985 0.0928124560728411
0.16475184506108972 -0.0709927577333248 0.09290844322187836
0.16389791419244884 -0.06999401537219214 0.09274065333303748
0.16435025751961696 -0.07056346647276157 0.09307800499872115
0.16315037174706845 -0.06894326622063557 0.09245762631995968
0.16357381747552444 -0.06963725725245197 0.09299254312983923
0.16275594432467833 -0.06831676349473134 0.09250335519664424
0.16241720974621535 -0.06755504762246813 0.09251532976133492
0.162155694448965 -0.06679729138067317 0.0925347551645074
0.16195353002380117 -0.06606915171931449 0.09255063439646567
0.16176929182780048 -0.06539153463259285 0.09259746801695051
0.16158446977482344 -0.06482303204637545 0.09266396977859717
0.16084137832570614 -0.06327352226882851 0.0921937547136788
0.16111336683835098 -0.06386658134245446 0.0927967446574569
0.16135834327974286 -0.06432506128732288 0.09270964289121764
0.16059279782050753 -0.06271310237406792 0.09232053244894901
0.16039798355923063 -0.062107811948436044 0.09244893420284374
0.16027550816964023 -0.06154451657353164 0.09261428752667634
0.16013086655539605 -0.05998834933213523 0.0924769175038073
0.1601337590122832 -0.060561668305836994 0.09297771329335945
0.16020526497850238 -0.06106110130782562 0.09281262502797705
0.1601581025430849 -0.05939036395384108 0.09263028436596818
0.16016616302677564 -0.05881277724262398 0.09285112064922033
0.16020458663357443 -0.057584981294222924 0.09232593981831443
0.16018352258629506 -0.0580971876346103 0.09266864438998983
0.16022138273460268 -0.05697042579864698 0.09255235833093295
0.1602066779864857 -0.05758747597816367 0.09268425855588992
0.16078646213573633 -0.054256919423544415 0.09292270789170438
0.16068885461129226 -0.054955246652526386 0.0933320243251538
0.16040666403139284 -0.055929706180717846 0.09317668476426764
0.1609419582875183 -0.05339882945790953 0.09332299854985997
0.16119831202474338 -0.05095042278403322 0.0934472694879688
0.16118219732323547 -0.05166984203682308 0.09407388926113897
0.16112372200208647 -0.05247917858962227 0.09371275782519747
0.1611610205754589 -0.050340768185147634 0.09385675138144366
0.16113756432587928 -0.05008509057199436 0.09407355980759853
0.17403905928620786 -0.09491372548043225 0.09472382785797345
0.1736620407550876 -0.0943722862336077 0.09491090191996635
0.17295546926048228 -0.09345363561768609 0.09490389498304706
0.17216551941530994 -0.09244464696175313 0.09487319568313805
0.17152746313117254 -0.09150859864536025 0.09490122922137066
0.17103976803124307 -0.09060117171548102 0.094930847358819
0.17075981734804588 -0.08984796681134764 0.09505694250757464
0.1706031053437009 -0.0887466614486616 0.09402192925687458
0.17052441139640526 -0.08891380149674637 0.09484669775784664
0.17052920815046768 -0.08808174420121846 0.09360942052891298
0.17042182064860184 -0.08820254982613214 0.09427524689353585
0.17032559414236917 -0.08746006996977965 0.09404108499019499
0.17018351374746343 -0.08641405326482521 0.09383889292129678
0.16998814142047644 -0.08540326244797046 0.0937165117224285
0.1698150981907927 -0.08464218816159758 0.09392984287141869
0.1696417028000662 -0.08369976152930138 0.09398645195184852
0.16946876437302894 -0.08278966646721884 0.09398243677903795
0.1692221352670272 -0.08189280000647213 0.09399444188746789
0.16893147988245477 -0.08096492088326607 0.09398540316147343
0.16864357073686465 -0.08002874267242821 0.09396855359718453
0.16832230907561505 -0.07908356172073687 0.09393641031482175
0.16799912378597212 -0.07813085751274078 0.09388956834479828
0.16769955507037673 -0.07716651861483227 0.09384507651747988
0.1674016197004176 -0.07619141404341652 0.0937962269165995
0.16710320515470664 -0.07521671368949044 0.09374857624375431
0.16679314456685312 -0.07426819166491995 0.09371893370857565
0.16637388102292847 -0.07336233785817896 0.09368703540320364
0.16584669724048676 -0.07250526914397369 0.09364248598475303
0.16526393423579594 -0.07173676482245546 0.09360140844537906
0.16473436702387118 -0.0711042514766767 0.09354431018990726
0.1640892411073437 -0.07031564952973772 0.09341344834621473
0.164424870260524 -0.07071942712492563 0.09348033321891015
0.16326591129028495 -0.06924358998416325 0.09337891175215807
0.1637447044670806 -0.06995875011371165 0.09365115165110169
0.16283855473560016 -0.06841415797137387 0.0933786035923933
0.16254408974125378 -0.06760851263231522 0.09336966951927539
0.1623145407358226 -0.06683323066302205 0.0933525593114687
0.16210667360477957 -0.06608934717777608 0.09333942468437574
0.16188462799480485 -0.06541420304845831 0.0933264534250007
0.16164128911958664 -0.06482483166724264 0.09328650844854848
0.16086986171571319 -0.0633945139789495 0.09299120198078782
0.1611758304822151 -0.06400471917479134 0.0935326415715713
0.16139295989075325 -0.06436794264483107 0.09333106215111081
0.16062104675495595 -0.06282574639582746 0.09317501870010711
0.16041273043332818 -0.062196717389526084 0.09328417616440257
0.1602724120222584 -0.061628687123579544 0.0933581934391178
0.16013591809077843 -0.060037997771071654 0.09319142764281467
0.16016403295259335 -0.060604404464008485 0.0935806001594061
0.16021355134477966 -0.061148562447061613 0.09354048024315458
0.16017865418113392 -0.059392617812396874 0.09343537096078311
0.16022352914463386 -0.058505250025186806 0.09351580580950869
0.16022033499387217 -0.05764428039198863 0.093198416701653
0.16025643262266928 -0.057458123378201574 0.0937413558359209
0.16028343393859498 -0.05793036907516135 0.09380731539432995
0.1602557260390403 -0.05692118091636637 0.09344309600801898
0.16040037403756857 -0.05637178237700654 0.09403150417351086
0.16027424708818797 -0.05708417463101621 0.09401526762541972
0.16082316837728985 -0.05426736689795501 0.09383779001826233
0.16064090363797662 -0.05531635204503064 0.09415450443966432
0.16099967937366413 -0.053324678154561746 0.09429991438713034
0.1611474244382549 -0.050989057243288 0.09438911509713914
0.1611170185617804 -0.05173818197738576 0.09499311997832226
0.1611187898602746 -0.052451796730067085 0.09468302058940153
0.1611361029189658 -0.05051711647709072 0.094479125618529
0.1739655800746938 -0.09483032082811246 0.0955911256831385
0.17359057942170225 -0.09429812483525718 0.09577726658508222
0.17285603849274134 -0.09339204690697557 0.0957665546736152
0.17210913147317072 -0.09240453662014288 0.09573517332246108
0.1714622638375261 -0.09145148693782654 0.09572873541222313
0.17099474443015106 -0.09054106467232752 0.09575981511833921
0.17065608327709111 -0.08961137718794257 0.09578907215698641
0.1703723546376504 -0.08851635571564122 0.09590517216754472
0.1702822163065704 -0.08780062498920214 0.09488550072074944
0.17020139924875222 -0.08706659955434651 0.0944994734447114
0.17013067389195283 -0.08705367049249349 0.09499985126180045
0.17009503812300478 -0.08654993067484795 0.09466152606322864
0.1699289400944932 -0.08567339574805193 0.09459652028821057
0.16971049810516914 -0.08451759036589873 0.09491888117756367
0.1696071546229021 -0.08350572474125423 0.09468805001749117
0.16947620606348887 -0.0827410497878838 0.09482404511804116
0.16928036086366863 -0.0818279979374191 0.09486375981520492
0.169027041262232 -0.08092263414803137 0.09487547452860727
0.16875841408529885 -0.08000427047131813 0.09487218207575292
0.16847145112551007 -0.07906268316764721 0.09484863311312712
0.1681523751588442 -0.07809880359334556 0.0948046241908691
0.16784105465023325 -0.07711938755216005 0.09474841104765201
0.167538442351845 -0.07613178699286441 0.09468341134142139
0.16721617874192318 -0.07516723603433742 0.09463087721998903
0.1668531812468937 -0.07423085222820953 0.09457830638317331
0.1663568766161324 -0.07334812127211392 0.09451000917149988
0.16576083732098196 -0.07250710679544797 0.09441390461151161
0.16510392448621905 -0.07168253431729703 0.09428389953036323
0.1645190903801675 -0.07096057648945892 0.09395674596842339
0.1645132633168028 -0.07111685895024054 0.09453137439796103
0.16476914284536495 -0.07135526625694073 0.09441855010334654
0.164123695801092 -0.07052948096598197 0.09410288013758379
0.1638211299198272 -0.07014333297608091 0.09439675892904285
0.16424946305777252 -0.07083296382697031 0.094703530334799
