# .PCD v.7 - Point Cloud Data file format
VERSION .7
FIELDS x y z
SIZE 4 4 4
TYPE f f f
COUNT 1 1 1
WIDTH 791
HEIGHT 1
VIEWPOINT 0 0 0 1 0 0 0
POINTS 791
DATA ascii
0.16456839324881528 -0.05459930777414627 0.08339902069417639
0.16450551770462649 -0.05545338977679554 0.08392865292713751
0.16440573087864727 -0.0530364817859414 0.08330097045186269
0.16426323579268418 -0.05397744600080249 0.08382615458508365
0.1643333822655515 -0.051311300461391846 0.08318775050913735
0.1641628983034339 -0.052326508744589634 0.08372464539306995
0.1641668447584436 -0.049950591348303396 0.08331607227947099
0.1640848462652837 -0.05063162136031115 0.08367580737326866
0.16388719137527394 -0.049637703845818934 0.08390659948715375
0.17752787701692427 -0.09798129567520662 0.08446404772460829
0.1771536313031575 -0.09740837960575272 0.08481818612398531
0.17673548022440877 -0.0966845866445268 0.08506448610058628
0.176195821762088 -0.09580108564449219 0.08513651073884605
0.1756512543705072 -0.09482183890539352 0.0851443387866158
0.1751360710947918 -0.09384371055888692 0.08514382103857233
0.17469546541034092 -0.0928315738428855 0.08515739692438085
0.17429827838989156 -0.09182373637857467 0.08514630734404428
0.1739396432586492 -0.09080336620594733 0.0851185281171829
0.17355236152604775 -0.08978216940473084 0.08509742033083706
0.17317035922874183 -0.08877836837945108 0.08509789817439824
0.17281869877249148 -0.08778946328314383 0.08511672723064445
0.17250308303634948 -0.08683196796667048 0.0851480575208506
0.17222474688653044 -0.08586875214672238 0.08512558544686276
0.17191877615999265 -0.08483104431318314 0.08510886952396916
0.17160632956011257 -0.08380969137140161 0.08512769166957608
0.17128190225637238 -0.08280799531497388 0.0851040498196925
0.17095636839604256 -0.08177448659204292 0.08501653051936377
0.17060455823856727 -0.08072435334678531 0.08494153990478977
0.17023519434707354 -0.07972680880345612 0.08491251763320452
0.16989939756183148 -0.07875495451213557 0.08490932383782569
0.1696048188415817 -0.07778928950139716 0.08492259056345364
0.16934856440902954 -0.07684049635805501 0.0849321541508677
0.16911509993682713 -0.07587910983525463 0.08494404436516564
0.1688874833317942 -0.07489665110428162 0.08495869196120785
0.1686671203246918 -0.073906572049435 0.08497514338845773
0.16846455398228455 -0.07292315632604632 0.08499433862646703
0.1682924673792096 -0.07195471161831968 0.08503435508445462
0.1681153734154814 -0.07103797058739926 0.08507482008470942
0.16788822136600054 -0.07019675610906369 0.0851219275137856
0.16758237148955077 -0.0694492556364409 0.08517740148485656
0.16719764545799765 -0.06878229971405828 0.08525259732408783
0.1661788965569718 -0.06699295426851881 0.08467444626347645
0.1663305498296938 -0.0675913106595452 0.08547237950768755
0.1667659361597056 -0.06817202159868763 0.08534994042946936
0.16586277741184158 -0.066359406245389 0.08481402559721633
0.1655952261235176 -0.06570734610546122 0.08491844394341413
0.16538277306549137 -0.06504129952027182 0.08501424413713876
0.16521354968912721 -0.06437009696216052 0.08510470545987496
0.16503826133734362 -0.06371907825043206 0.08517602554460538
0.16478647865573015 -0.061775836807060086 0.08454839587321619
0.16468910554070465 -0.06246157979218306 0.08536900668897354
0.16486063094647319 -0.06308933571584599 0.08526281618643808
0.1646803756985611 -0.061108912646484465 0.08465918087271512
0.16460131708441286 -0.06041185760903798 0.08478537924722446
0.16456131365415197 -0.059669711799280954 0.08490527829740804
0.1645511219362751 -0.058966017925905514 0.08496103881260664
0.164559469130665 -0.05773219081110129 0.0847286965698755
0.16449781125968907 -0.05843296280214125 0.08503310019168762
0.16444728887996113 -0.05630405490639456 0.08449669619891101
0.16437083675434588 -0.05707954286347095 0.08497770115520942
0.16417356263507493 -0.054848626984731925 0.08437283051655832
0.16412201221116987 -0.05570054756320976 0.08496000961480578
0.16401092216533744 -0.05330773303117427 0.08426549716400951
0.16393291228830725 -0.054180561847078784 0.0848108344549638
0.16395377290040455 -0.05158579207193334 0.08418747811810917
0.16379386470580845 -0.05257301088112028 0.08472501978764707
0.1638369374558772 -0.05003935951882757 0.08415944734245268
0.16376218561005337 -0.05088619224806991 0.08467483529388158
0.1636789345125941 -0.049701573554038904 0.08462855529104475
0.17679907727055202 -0.0971765639179157 0.08568767421732826
0.1764631426522727 -0.09662857659488124 0.08596319081598572
0.17595546471865323 -0.09569536869422382 0.0860171295642981
0.17544640680718776 -0.09473867868871931 0.08600822002233872
0.17500036665844315 -0.09379516796969162 0.08604643953698948
0.1745696649027231 -0.09279908842672564 0.08606249228293941
0.1741800021580068 -0.09178609736326021 0.0860526946317013
0.17379731171060478 -0.09077240738770413 0.08602878198365856
0.1733907059030588 -0.08976086550957067 0.08600406963233882
0.17299289385444 -0.08876312765657601 0.08598599562455618
0.17265183146846036 -0.08776479070453178 0.0859806643861989
0.17232358293839556 -0.08677709273191939 0.08596995791292869
0.1720121841209229 -0.08577856466230996 0.08595759448734541
0.1716790721932026 -0.08475514235599026 0.08595574845686037
0.17135468307037402 -0.08374645061032043 0.08594771095765014
0.17102137830043923 -0.08272753342747921 0.08592341810135332
0.170700880645524 -0.08171516201471403 0.08588335468921333
0.1703520742399111 -0.08071661449112563 0.08585445667595384
0.1700289724068479 -0.07972378164292808 0.08584826831064661
0.1697531050289009 -0.07875427652040451 0.08585556422957755
0.16946687212885492 -0.07779657089602585 0.0858650775265423
0.16919016934703968 -0.07683170281199518 0.08587135553919942
0.1689494699373576 -0.07585617415339097 0.08587995535606696
0.1687162214911969 -0.07486751249995514 0.08589271799525122
0.16850234949942788 -0.07387752870672874 0.08591053932584063
0.16831680501236052 -0.07289039788531868 0.08593570761234932
0.16814607768569395 -0.07192969758616315 0.08596990514293662
0.1679569799611542 -0.07102436243916038 0.08600078215440987
0.1677130536470192 -0.0701894591296834 0.08604770032123026
0.1673835269173404 -0.06944797672803751 0.08609864338731815
0.1669844778957409 -0.06878569766258133 0.0861733767581632
0.16595701308286748 -0.06699689092859143 0.08561249607030207
0.1661251810859442 -0.067602481682674 0.0863959344110617
0.16655007896875973 -0.06818062849398857 0.08627167860458575
0.16563699587186909 -0.06638667532438937 0.08573563895394393
0.16536769055516173 -0.06574482410675885 0.08584583455446633
0.16516633638311662 -0.06507419275817605 0.0859423288380076
0.16500018513296164 -0.06441300014687201 0.08601576768905551
0.16483189201921258 -0.06376544490191176 0.0860940075251335
0.16451944629328913 -0.061822019329156895 0.08547232386209987
0.16444805342804056 -0.06250311517726909 0.08627671236065393
0.16464176987996285 -0.06312640364409286 0.08618519024148726
0.16437808637452664 -0.06115676844876741 0.08559238560769769
0.16427541005702354 -0.06043517488468848 0.08572837993030767
0.1641975333026981 -0.05960859904699842 0.08585708577197905
0.16431680019147832 -0.0588634794407582 0.08555368094909753
0.16423860747759184 -0.05827080131681602 0.08560232945822253
0.16399318497451887 -0.05897702881940341 0.08630706711236001
0.16425696830898082 -0.05764293726836438 0.08537670324323908
0.16406827272828728 -0.05661230309041841 0.08559328565533224
0.16411711168466064 -0.057309348817001844 0.08565152673457502
0.16385780319251328 -0.0549926561531122 0.08538490907135869
0.1638041354523008 -0.05580629919657926 0.08600984306174195
0.16370700495959226 -0.053484935392334065 0.08526393868349759
0.16364012238797312 -0.054281645937200924 0.08580567619843217
0.16364521491299494 -0.05180843585573035 0.08521135650541235
0.16352498230827647 -0.05272699820469738 0.08573809816870193
0.1635799839513359 -0.05021706122895648 0.08513432798292245
0.16349595105825324 -0.05104626329811482 0.08569565987467578
0.16347335005972233 -0.04985480407424187 0.08561604540298993
0.1766915161719018 -0.0980009138871669 0.08699779148339644
0.1765991500538732 -0.09747637325447837 0.08676848026879704
0.17620313800649673 -0.09653847828636015 0.0870431768648844
0.17573754728328625 -0.09549312715029476 0.0867762894559621
0.17536038855478353 -0.09468923347587377 0.0869383333971215
0.17495050498238443 -0.09373682531781309 0.08699610968549511
0.1745150099848632 -0.0927517306487873 0.087009122084987
0.17411774100497424 -0.09176020208760376 0.08700392505439566
0.17369700012178224 -0.09075277578026558 0.08698186807743163
0.1732716358366528 -0.0897469726601512 0.08695220034884714
0.17290263839041803 -0.08874604380281723 0.08692447839409985
0.17254806440037826 -0.08774743502078274 0.08689946295173279
0.17221040973692558 -0.08674657940761898 0.08688026758562813
0.17187241823947172 -0.0857349472463124 0.08686714102561055
0.17152299722082595 -0.08471715752630286 0.08685908762515172
0.17119288775248426 -0.08371242062230858 0.0868459445311332
0.17087547072310286 -0.08270800793076469 0.08682722466563404
0.17054418254349324 -0.0817089460610497 0.08680662290313532
0.1702134655856502 -0.08071429443636033 0.0867950642368577
0.1699333754586419 -0.07972730142376296 0.0867968189968176
0.16965518152319917 -0.0787616751777895 0.08680048765636944
0.16935151661324452 -0.07779390983643096 0.08680606669541385
0.16907324097956344 -0.07680780005520806 0.08681620113229876
0.16883021466955167 -0.07582493556067833 0.08682306010408634
0.16860524870279278 -0.0748325414290975 0.08683932695044569
0.16840165711398208 -0.0738446632074797 0.08685216205930876
0.16822280865797168 -0.07286128005908483 0.0868753917030758
0.16802991850442467 -0.07191730028716674 0.08689508344337302
0.16781657665036553 -0.07101899699884884 0.08691942949788352
0.16753896116078817 -0.0701901165964643 0.08695550078765361
0.16719188916615305 -0.06945212649750351 0.08700096349130491
0.16677421781030333 -0.06879803701678891 0.08706563761584808
0.16575129661115282 -0.06701716930735074 0.08652106492708111
0.16591662286846506 -0.06763581383718756 0.08726528741128241
0.16633918931513667 -0.06820243317921797 0.08715694170821295
0.16542392110598966 -0.06642065211784648 0.08664026939126337
0.16517974392559737 -0.06577829044688009 0.08676150992977058
0.16498311944188412 -0.06511626164669454 0.08684505063573261
0.1648135381405611 -0.06445005238440206 0.08691076881871489
0.1646428442640368 -0.06379252422457346 0.0869886610287327
0.16425795575209354 -0.061875318839898254 0.08639342899962166
0.16422811150158623 -0.06254073602904331 0.0871682914095039
0.16444441628210105 -0.06315691283270952 0.08706972702586244
0.16407839535695426 -0.061205098435136586 0.08653779131416771
0.16394749265402006 -0.06049110325740019 0.08669964073306084
0.16382037246707912 -0.05981659620828728 0.08689081468752674
0.1639909075086379 -0.05834500054493619 0.08623923244472852
0.16387645722425162 -0.05805162754770584 0.08651126541908671
0.16378933072311855 -0.058604373886659684 0.08684915339181733
0.1636810386979243 -0.05929174918093562 0.0871936902246591
0.1640555171694458 -0.05783217805547712 0.08595698959088664
0.1638559512380781 -0.05741403553674583 0.08641292158311799
0.1636784853769176 -0.05661048821144648 0.08668860795720586
0.16359872602576558 -0.055037101162488375 0.08641143122530412
0.16351705038602307 -0.05579669023843942 0.08705137339934803
0.16345852914481915 -0.05356165425285396 0.08624042971125442
0.1634113585024892 -0.05429249675116534 0.08675230417313531
0.1633828104255114 -0.05195662946699122 0.08623961138533535
0.16333564105584977 -0.05281839060247375 0.08673893621364964
0.16338426455912336 -0.050350449683549715 0.0861739293754951
0.16330809538865598 -0.05112563597544426 0.086720867195209
0.16328492896628857 -0.05000457563418329 0.0866745344513835
0.17651643093182307 -0.09805893071347362 0.08779634530965666
0.17661934108092986 -0.0980105398279517 0.08731495632289257
0.17641370977265028 -0.09785420525202267 0.08820372302219023
0.17643782824884527 -0.0976037408317584 0.08769750506070892
0.17631920745667046 -0.09750168573667672 0.08837472330960439
0.17612784282609595 -0.096844467950945 0.08815624435207167
0.17575756350117747 -0.09570104049776969 0.08783775907073843
0.17531330775173692 -0.09458894534636317 0.087921271137293
0.17489331945793654 -0.09363899128305402 0.08792870770126122
0.17449794001890645 -0.0927048069931115 0.08795605894167254
0.17405854941729373 -0.09173512375741509 0.08796049861998835
0.17361499808263078 -0.09073449543630423 0.08794992606173119
0.17320569405920877 -0.0897313437867229 0.08792498836567639
0.17284311869829597 -0.08873029347448898 0.08789454496431415
0.1724905421459815 -0.08772587774094122 0.08786636836523508
0.17213534794130572 -0.08672003153123647 0.08784281323801084
0.17180179368245385 -0.0857214254921286 0.0878269082010183
0.17144861165600536 -0.08471892984203203 0.08781392508967496
0.17111147165819776 -0.08370981510865978 0.087800470995173
0.17079747481458116 -0.08271250284666251 0.08778230827022998
0.170463370070815 -0.08171112366749468 0.08776500741356892
0.17015870167645958 -0.08071345487474277 0.08775548304313147
0.16988066117826986 -0.07972595618095016 0.0877499647850689
0.16957217147684353 -0.0787594043855332 0.08774421335087444
0.16925681070935947 -0.0777753175263342 0.08774544807693505
0.16898591975583707 -0.0767847746730955 0.08775045098147129
0.16873812311668732 -0.0757990328221918 0.08775870935506666
0.1685209870165734 -0.07481259760380124 0.08776699612787699
0.16832089232098252 -0.07382341129990529 0.08777854587010367
0.16813623904686928 -0.07285292331698168 0.08779391708014303
0.16792660581701704 -0.07191278097209909 0.08780764485511845
0.16768773161283632 -0.07101840903835287 0.08782455343363987
0.1673764196929713 -0.07019295159639549 0.08785228434521637
0.16699723052472976 -0.06945493502053406 0.08788095014896816
0.1665695226408907 -0.0688122596721749 0.08792375457332041
0.16553918903365608 -0.06706864478518311 0.087391119919783
0.16572035785675945 -0.06769766139255308 0.08809939269026695
0.16612627547632458 -0.06824638256274142 0.08800008004361935
0.1652345074218266 -0.06646726224629171 0.08753353956331339
0.16499673113780527 -0.06582967951514754 0.08765053478791074
0.1648005376652649 -0.06516058799809123 0.08772421346817441
0.16463240105575566 -0.06447517619107866 0.08778531102793839
0.16446105109364573 -0.06381166133681226 0.08784923934814641
0.16401481276056692 -0.061923981664727755 0.08730867204671477
0.16402572861953116 -0.06258520303772028 0.08803762233500032
0.16425017877171938 -0.0631787372268497 0.08792438892713651
0.16380929014475634 -0.061265583858721 0.08748947890721206
0.16363028231779222 -0.06053094846160686 0.08771928059496437
0.16359971608292176 -0.05986447437601152 0.08756737186678738
0.16350788267812782 -0.05953718593780988 0.08782145415547604
0.1634327609881194 -0.06006857722642432 0.08820020172495972
0.163678241624504 -0.05808376339110137 0.08715524666609335
0.1635213945691924 -0.05888186277533913 0.0877355894963457
0.16354576978174362 -0.057379286986121034 0.0873970099202162
0.16339135675561908 -0.056588205170174974 0.08770040312598397
0.16333651331107044 -0.054921108646299115 0.08745961624427764
0.16322193232119586 -0.055771887272164034 0.08805588012273774
0.1632889277221126 -0.053577797093093314 0.08711963758012675
0.16326554725806694 -0.05415961077127957 0.08743440658453376
0.1632170474946035 -0.05198527752463952 0.08725427830577685
0.16315270621780223 -0.05286968637984992 0.08775012793387879
0.16323787205685109 -0.05042865117364318 0.08719731285092985
0.16315479518973108 -0.05110804459375157 0.08768168774615868
0.16311769078009108 -0.05011067827514879 0.0877223496897407
0.17631068149341195 -0.09761087422040313 0.08859236157488956
0.17611986429684226 -0.0970728914635984 0.08885897541810929
0.17585378940679555 -0.09628825210536449 0.08891317207850864
0.1755554648688717 -0.09528016137913357 0.08896639477861293
0.17518282286659706 -0.09433202092260418 0.08871169761244996
0.17483345309663187 -0.09355194355387214 0.08882853485091075
0.17445664411243234 -0.09264352056416487 0.08886204858344601
0.17398945116615558 -0.09170199598429188 0.08890278842840536
0.17354168339379056 -0.09070191901842739 0.08891413078121817
0.17314070734734996 -0.0897006944002679 0.08890157851360264
0.17279334863993415 -0.08869755689386294 0.0888772683999829
0.1724455397780165 -0.08769597308736678 0.08885130905748094
0.17210334488318857 -0.08671113846909273 0.08883196773871592
0.17175965302473364 -0.08572393524351236 0.08881760701599352
0.17143448348070311 -0.08473248379133447 0.08880414674804414
0.17109755199042384 -0.08373395266261273 0.08878569792300782
0.1707682696231089 -0.0827317196822746 0.08876328146950566
0.1704464680673216 -0.08171837476126927 0.08874237661513992
0.1701468776239048 -0.08072238225308324 0.08872099139675226
0.16983614462532143 -0.07973276655848999 0.08870264908181871
0.169501903392712 -0.07875311354896483 0.08868729170611159
0.1691965535605398 -0.07776129881238118 0.088682649715924
0.16893364299100422 -0.07677280948442466 0.08868542221518819
0.168690721424936 -0.0757883598435216 0.08868701949491244
0.16847415895191895 -0.07480372979184897 0.08869102313239871
0.16827490331148173 -0.07381707887187292 0.08869828913011422
0.16807318582451883 -0.0728507824464773 0.08870219890880714
0.16783814664566177 -0.07190976397183814 0.0887074809926922
0.1675479079165243 -0.0710151086473473 0.08871749611914617
0.16718628290414841 -0.07017851010114663 0.08872371346808151
0.1667745142965908 -0.069435586433016 0.08871273959644504
0.16634879926481094 -0.06882715615299509 0.08870000650604906
0.1653717875801853 -0.06716130759984167 0.08826600760075096
0.16557750225174558 -0.0677476240612888 0.08880302218715044
0.16593710071108045 -0.0683165532014571 0.08884814122356222
0.16508128912467088 -0.0665624401495576 0.08844948156720392
0.16483821056795403 -0.06589148161507703 0.08854626631842787
0.16465031346910095 -0.06518907456813841 0.08860865428444824
0.16448193788672358 -0.06447787813688106 0.08864545168289033
0.16430069819329732 -0.06380890411940682 0.08867363293684574
0.16379864363216037 -0.06200307154090548 0.08821658355178084
0.16386144440362627 -0.06266109383326364 0.08887675528774792
0.16408852421274925 -0.063202157217552 0.08873209172041463
0.16356751678903353 -0.061374350143415454 0.08845651434848983
0.1633826132207254 -0.06074703086972513 0.08873946898336732
0.1633587915283628 -0.05954026952078222 0.08842671787735537
0.16326750647486885 -0.06015745050726161 0.08896512213772748
0.16339861607963274 -0.05814554023490948 0.08806436442832043
0.16326754941661004 -0.058927675147074025 0.08869453267220097
0.16327851792077763 -0.05736511546433544 0.0883761830905737
0.16313409069284976 -0.056568896400435546 0.08866836016943025
0.16309044904555492 -0.05497161386956065 0.08841484352847151
0.16293962782187882 -0.05571582860008038 0.08906869147479916
0.1631748082768509 -0.05366698226037732 0.08776479847357403
0.16315848804510816 -0.054243054919928764 0.08804909221908315
0.163053939509328 -0.051843922305214965 0.08827848248269982
0.16298581923856434 -0.05264027524017991 0.0885691597091852
0.1630192588273204 -0.05348754209019013 0.08845742861490705
0.1630737215645903 -0.05049412080409641 0.08813189029452798
0.16303169223761582 -0.05103480923192683 0.08840705630144753
0.1629561416390392 -0.050221202184703696 0.08885519981889838
0.17569724736757514 -0.09700559567570749 0.09104628194517124
0.17582095455873822 -0.0965917283199666 0.08990921086956428
0.17571099034422508 -0.09598380138682198 0.08957997714646723
0.17568627926737423 -0.0960459554012313 0.09016486409628274
0.1755447346771443 -0.09548311321007463 0.08983685993410077
0.1751568663671515 -0.09447464804378626 0.08974529227496676
0.1747504844476738 -0.09339854579138952 0.08957092578844716
0.17435968279077652 -0.09260850080622372 0.0897457353486339
0.1738662368282162 -0.09163257139706969 0.08982374386388559
0.1734401188817478 -0.09064175454123218 0.08986275035982833
0.1730463377930545 -0.08963679116729453 0.08986445773313927
0.17272547559328585 -0.08863986801046113 0.08984535375463787
0.17239848598991717 -0.0876709716523352 0.08983117554786296
0.17207372730760198 -0.08670624551110945 0.08982661666549832
0.17176216149766316 -0.08574380532103748 0.08982077821145343
0.17143042963230995 -0.0847586740387272 0.08980542019963739
0.17111251626263732 -0.08375787659191394 0.08978271184736071
0.1707747376586225 -0.0827444106936184 0.08975209573725025
0.17045455060537693 -0.08173062048784986 0.08971973830790496
0.17012629398886991 -0.08072348810657108 0.0896851374429598
0.16979082521125624 -0.07972279713825035 0.0896551366483844
0.16947315665373103 -0.0787352116436447 0.08963566165005164
0.1691840239085824 -0.07774632994531996 0.08962591385549774
0.1689225118388066 -0.07676908551876915 0.08961985832484728
0.1686858050984724 -0.07578560117461625 0.0896153765968068
0.16846433971523275 -0.07480543061688474 0.08961443698264414
0.16826248003906116 -0.0738189380720334 0.08961246679539513
0.16802434890729198 -0.07285473733707916 0.08961175124719574
0.16774737564490874 -0.07190432805553175 0.08961113779121359
0.1673839053374462 -0.07099248685745044 0.08959686966547828
0.16694759721550773 -0.07013562181798277 0.08956099714751384
0.16648544726645037 -0.06934006493291563 0.08946601035127359
0.16620018641419348 -0.06883589373450248 0.08923590819014363
0.16600106924631697 -0.06870457397141123 0.08955979545435362
0.16622848588585873 -0.06901211808717043 0.08958659925910345
0.1652900034524307 -0.06741981110068213 0.0892684892815295
0.16566487536749308 -0.06816881405216725 0.08947230056009216
0.16494745322620938 -0.06666817021166967 0.0893835948598936
0.16470478359401655 -0.06594200020305141 0.08944208088034891
0.16452447002861562 -0.06519438121217011 0.0894772456270295
0.16434547166227498 -0.06444742960424948 0.0894726291354004
0.1641621034017781 -0.06378180702969317 0.08942213536309594
0.16361134950678893 -0.062124306598263304 0.0891366330809951
0.16372360263149682 -0.06279718792105113 0.0896841358218215
0.16395770103024626 -0.06324532028924862 0.08946086601567396
0.16337786494595757 -0.06151283441281834 0.08942405756285873
0.16320257105851352 -0.06081119700256966 0.08969924872239042
0.1631834126968483 -0.05961052115084611 0.08919695907364104
0.16313503228111795 -0.060143774853521494 0.08959241494805029
0.16314577121933468 -0.05818313653352319 0.08906376865738423
0.16305669843161602 -0.05908018584414255 0.08971163671819798
0.16300354600608688 -0.05731677125864865 0.08940472355560401
0.16291761594411572 -0.0565214627769414 0.08941197819275808
0.1629164497489282 -0.05487103198856734 0.08912138886728492
0.1628211488838968 -0.05427364896133854 0.0894783976350666
0.16272062588777006 -0.05509807325277248 0.08992421415989782
0.1627431563180696 -0.05610030995497898 0.08994127894874464
0.16298229330594682 -0.05427699656723875 0.08876800951132942
0.1628734567465565 -0.05373005760529502 0.0891191622728839
0.1629040890046575 -0.0520902939510763 0.08915648137180457
0.16287012421346456 -0.05297408764645434 0.0891743695439027
0.16295755055494338 -0.05065650540690746 0.0888264552311764
0.1629196964258391 -0.05127596253217293 0.08903452048916342
0.16281176734017794 -0.050057195149333565 0.08991690628647486
0.16283766368360164 -0.05060640019240788 0.0896368236993339
0.1756064853201196 -0.09727557222801504 0.09177467438035938
0.17565404558669911 -0.09640455674225455 0.0908028974996203
0.17549213611142347 -0.09676779297029763 0.091740741826783
0.17538388494003943 -0.09597601130658069 0.09130501494914772
0.17510253068013384 -0.09583419789770437 0.09199821091527814
0.17540041637725007 -0.09547030641272371 0.09058146327746047
0.17505344146512633 -0.09515234329070775 0.09132933992852592
0.1750055576801603 -0.09456613397518324 0.09071078686301073
0.17469285888152056 -0.09359067377517412 0.09046747123982514
0.17414066502538073 -0.0925313153047204 0.0906180450515608
0.17365975141650747 -0.0915427973203113 0.09072206972493385
0.17324083877315574 -0.09053773253875204 0.09080385089359257
0.17290129379391608 -0.08952310937119569 0.09079334552134989
0.17261530107606501 -0.08856736604256313 0.09076539021433917
0.17233249979394796 -0.08763948725958844 0.09079384339018666
0.1720576574786865 -0.0867040925859605 0.09081300775840954
0.17175289071745325 -0.08575527695708918 0.0908149239009821
0.17144520973970206 -0.08477204925457706 0.09080298374575692
0.1711294399709036 -0.08377213071465694 0.0907776719460614
0.17079052926085944 -0.08275475570721721 0.09074138657491629
0.17045302482309407 -0.08173439070042199 0.09069770300235729
0.17012580982014297 -0.0807186286279213 0.09065626545612891
0.1697933177168957 -0.07972030242818652 0.09062200013860036
0.1695006112584843 -0.07873278334670913 0.09059714240647393
0.16921416737061765 -0.07775525030129705 0.09057815984201291
0.16895882673685092 -0.07677912466891083 0.09056242524128041
0.16872341733322588 -0.07579938445723065 0.09055178329087038
0.168502564643479 -0.07481468276865719 0.090541558966864
0.1682635266533779 -0.07383152717338284 0.09053401879123044
0.1679832949950792 -0.07285664298864503 0.09052572541312147
0.16763038320763407 -0.07189531790477964 0.09051409445286968
0.16716713477198727 -0.07094962810676 0.09048238374052994
0.16663656675767685 -0.07002416402266833 0.09039663364391502
0.1661999358371219 -0.06921175531689587 0.09006355607348217
0.16596333388378642 -0.06915677426208233 0.09053998414272905
0.16624003472760518 -0.06962211330593915 0.0907300550006594
0.16581558630342694 -0.06870648721831538 0.0901008403926981
0.16546312446129555 -0.06817584349859215 0.09017292032574602
0.16568570447908493 -0.06883833442035209 0.09073344805960155
0.16511249972671993 -0.06750357471901178 0.09025228502501603
0.16481682476524104 -0.0667438106623671 0.09031234929322575
0.16460086973816426 -0.06596635896819456 0.09035181227071357
0.16441112212120618 -0.0651607967276218 0.09036788859352844
0.16419802293020838 -0.0643180627004836 0.0902794122516502
0.16404998875506174 -0.0637065166916527 0.08994331186570666
0.1634649018058332 -0.06236859029346371 0.0901631542065319
0.16367540142390308 -0.06304836528918172 0.09036911493607636
0.16387314677930745 -0.06336848355606937 0.09011937002195343
0.16323711717039371 -0.06163097509706393 0.09036206203310423
0.16311231514025581 -0.06106732085304242 0.09055899863911755
0.16306127450716768 -0.05977597936992117 0.08983444830460964
0.16304715609490295 -0.0603650547118379 0.09030786564105528
0.16292228460112657 -0.058224904778840764 0.0901659564879718
0.16288893433218007 -0.059111671030304805 0.09067419999254021
0.16296678837077846 -0.05970633420677426 0.09040797565718492
0.16280967581448294 -0.05747435782366041 0.09018511391863983
0.16268811989590898 -0.05716815372845838 0.09055122406341165
0.16271879042100484 -0.057748422632148876 0.09084093019679876
0.1627865494604414 -0.05685949004498621 0.09000647231021897
0.1626411459542024 -0.056586991266985014 0.09060734961818918
0.1626593156882341 -0.05408190301555811 0.0902562039554841
0.16260609523218883 -0.053710526766862055 0.09101299368085242
0.16253105328771023 -0.054770136107898396 0.09099544448719393
0.16258882279926132 -0.05579875622455053 0.09071594669003556
0.16267641524488974 -0.05318244123881251 0.0904649135472102
0.1627028264539998 -0.05250555457961987 0.09076366583537383
0.1626514964444738 -0.05300214902556983 0.0910731253488152
0.1627569351460126 -0.053459092185296035 0.08974151152217145
0.1627755060949564 -0.05244059311521544 0.09000183030117329
0.16273875916425137 -0.05161733893137844 0.09088089334559617
0.1628188356043706 -0.05146745177053295 0.08985373782209641
0.16276072448316403 -0.05090274638218511 0.09040388681023022
0.1627280074461845 -0.04994423819349365 0.09066985966565654
0.16274985611826867 -0.050279394481175396 0.09054803443511143
0.17547729675551368 -0.09716691200311477 0.09244902380746228
0.17524063714878965 -0.09658299030404512 0.09269788098038341
0.17469311712207627 -0.09546306803713586 0.09286838692679093
0.17470248648773404 -0.09480798730880778 0.09198649766380104
0.174701168860361 -0.09422356539513174 0.09129671301474175
0.17430269415666583 -0.09333642573661297 0.09130915155033928
0.17381714610603552 -0.09241802368134856 0.0914469487666768
0.17336062168028127 -0.09144340588221388 0.09162394432500189
0.1729273813157146 -0.09032153551182293 0.09183054423897767
0.1727267383040107 -0.08929894852888144 0.09153453286692417
0.17248576516000666 -0.0885025845430599 0.09167814617192578
0.17226024832268283 -0.0875726060724788 0.09174113080836271
0.17200698555489358 -0.0866662016426832 0.09177289745285074
0.17172294825679266 -0.08572363513946697 0.09178737237852891
0.17144980241790417 -0.08475838477418861 0.09178487196251096
0.17114381222363148 -0.08376900499975722 0.09176164449581753
0.17081279672334063 -0.08276078622578616 0.09172310579528226
0.1704849485857573 -0.0817427454709871 0.09167762884226852
0.17016005796238381 -0.08072939494615369 0.09163462583976612
0.16985100165877903 -0.07972940605590796 0.09159672487402208
0.16955565049147336 -0.07874847911660113 0.09156614116377204
0.1692875512171035 -0.07776322327737889 0.0915386720714052
0.1690392975997987 -0.07678158832399712 0.09151272761543391
0.1688121107375768 -0.07580269116818603 0.0914943636949205
0.16856320008176193 -0.07481638962989122 0.0914788269553873
0.1682824859715095 -0.07384263537191876 0.09146866683378566
0.16793703584627093 -0.07286250033668894 0.09145955562551422
0.1674758086012887 -0.07188549457639704 0.09144407115364633
0.166886265689327 -0.07087982157676624 0.09138421005741514
0.1664891476410125 -0.07012778494885193 0.09107536854368764
0.16595191651699173 -0.06939951694152041 0.09105607521211251
0.16622610994914494 -0.06984198603951308 0.09124357972524635
0.1653618585265467 -0.06844469758238612 0.09113743918529647
0.16569727149490301 -0.06916043637783058 0.09135169040677595
0.1649916678415931 -0.06760085200247905 0.09120594295166133
0.1647307261570224 -0.06679750813423586 0.09124778714732037
0.16452974996915454 -0.06598430902906831 0.09128534535867366
0.16430209201237697 -0.06509654944325682 0.09134617472498782
0.16406641309337405 -0.06424621755505937 0.09101696302726474
0.16393343158463702 -0.06404158524098379 0.09137925684898597
0.16408693600132362 -0.06458919180883058 0.0918628496362254
0.16384191165957257 -0.06361967918821773 0.0908243091481947
0.16358358507938284 -0.06312665477507412 0.09109169208495917
0.1637859605151204 -0.06370836783251667 0.09139521893455085
0.16401112419859482 -0.06384404233791581 0.0904306938929599
0.16329857677400691 -0.06236648993082041 0.09112333743982308
0.1631254172321155 -0.061647519998034604 0.09122619816486686
0.16301281089538922 -0.06086959985838043 0.09120716172805433
0.1629619350901937 -0.060204752599833794 0.09089023717673748
0.16274849566017976 -0.05860035535788211 0.09132826526578083
0.16280165832966387 -0.059349924381754335 0.0913975062919975
0.16287742703605695 -0.05976382109308115 0.09109249116035613
0.16258884039278984 -0.05714437675887146 0.0911655297951407
0.16259838140993474 -0.05782191735929971 0.09168265944849029
0.1625152312456963 -0.05644504244458069 0.09134794678831915
0.16254490758761125 -0.05408127879293742 0.0916121535545928
0.16246949706922995 -0.05481055783110184 0.0919834447064918
0.16245867430634023 -0.055658830976831206 0.0915860236064615
0.16265565382075114 -0.05240560351677624 0.09144043954891105
0.16261839383055154 -0.05324170379704746 0.0917560763161768
0.16269108219286416 -0.051162310406336085 0.09144211445206363
0.16265452389466156 -0.05080975512674574 0.09175145874861076
0.1626632785120761 -0.0515418580637781 0.09207022952294146
0.16263298371621523 -0.052494566025178616 0.09218396985297812
0.1626931811734759 -0.050786664469372175 0.09109759776479384
0.16264346745057334 -0.05023695752458719 0.09160877029674008
0.1753298957511613 -0.09702269549124976 0.09332369234934483
0.17504048511741815 -0.09646548644591549 0.09359363997130363
0.1745851162792595 -0.09569851537993303 0.0937717908443241
0.17423931958735012 -0.09422361288403577 0.09251165889413981
0.17403506001992522 -0.09456217447634312 0.09349082942963315
0.17438503970215996 -0.09396555170222173 0.09184225552631273
0.17365802893049256 -0.09334783751813325 0.09282940420600537
0.17333632297981855 -0.0933848926450777 0.0936803067083944
0.17394846846471324 -0.09326189086114488 0.09203727648094269
0.17314847046853654 -0.09242157611360342 0.09307446130147798
0.1728108971427302 -0.09236046244379723 0.09390877297294965
0.17347987044608132 -0.09236614212125048 0.09226691475406237
0.1728044754773639 -0.0917588025407802 0.09328345766953872
0.1729998851325455 -0.09142025689184283 0.09259320407598393
0.17269609172040418 -0.09117313143624241 0.09323170337535405
0.1726808515266303 -0.09050617593565405 0.09287718504293645
0.1725711335822507 -0.08944540471161426 0.09250527383404811
0.17233348350306787 -0.0883845670374877 0.09260179771561616
0.17214868085569446 -0.08748270055332898 0.09264076628749575
0.17192309677373205 -0.08659557422018332 0.09269633312205865
0.17168486672263666 -0.08567337087363157 0.09273295061208311
0.17143354168665484 -0.08472201334792008 0.09274501368330831
0.17116208129892063 -0.08374088087210717 0.09272983492421438
0.1708473624251363 -0.08274869118002316 0.09269492083573484
0.17054480791414917 -0.0817425311994007 0.09265613673431088
0.1702440405955616 -0.08073838058397126 0.09261730240007443
0.16993625750322455 -0.0797513991385766 0.09257775963133186
0.16964474759526724 -0.07876442562872753 0.09253869948925965
0.16940323816546407 -0.0777745149867658 0.09250496352425022
0.1691613652966912 -0.07678917889420585 0.09247453946834346
0.16891114753084888 -0.0758074944733011 0.09245073626001801
0.16863889328308576 -0.07482781665570278 0.09243116572176138
0.16830588215087425 -0.07385384277256948 0.0924131688704829
0.16788395466269554 -0.07289055088980285 0.09240877048179019
0.16729360337529575 -0.07191705598631697 0.0924542539730917
0.1667097188116443 -0.07100623447362119 0.09222202220668967
0.16651161496647476 -0.07096135234463842 0.09269333596628777
0.1668844630070288 -0.07154026636293433 0.09294588763392717
0.16629617915418568 -0.0704444350768728 0.09223841863271691
0.16598361789302446 -0.07003835452909477 0.09236077591970357
0.16621377023518877 -0.07059033264806787 0.09283489855461718
0.16643316183659154 -0.07033396201531886 0.09164492925165146
0.16601709549696947 -0.06978404440931094 0.091713034597461
0.1656244065807553 -0.06934202021287351 0.09208933190012383
0.16522301302468823 -0.06849406492513677 0.09210609424563107
0.16492560533735054 -0.0676605815345835 0.09214176871337669
0.1647046360843875 -0.0668497726225471 0.09217570367553612
0.16451258515356454 -0.06605763226374774 0.09223689294511761
0.16432533272218688 -0.0653952246963655 0.09240413149060563
0.16388466256785586 -0.06407318934109944 0.09180137554460738
0.16369966366463917 -0.063690113072357 0.09189249543801273
0.16391982717364176 -0.06435897316042623 0.09249399813614273
0.16416258924410096 -0.06496562823554738 0.09264380712585885
0.16343553619444912 -0.06308269431436574 0.09192996719198361
0.16319929284197018 -0.062382936285442586 0.09202038316352197
0.16302473428981307 -0.0615953607120187 0.09213364099229193
0.16284967085008129 -0.06049577290355774 0.09213910761134281
0.16276798156056704 -0.060096923302481155 0.09235524278161175
0.16279669945686315 -0.06062833493736659 0.0927914807219107
0.1629034711832322 -0.06111498347820696 0.09256101165836582
0.1629422515182121 -0.06088308307409499 0.09190110284800485
0.16280768222189382 -0.05990928709267488 0.09176695127670156
0.16273023697131386 -0.05941924804257044 0.09217667729166666
0.16290910426239288 -0.06035389650362104 0.0914896702190332
0.16261753985349317 -0.058547659814993346 0.09242566315460549
0.16250451585792922 -0.05710615732092712 0.09202351297630353
0.16254697407308585 -0.05777497179834696 0.09237303222109713
0.16243660819432407 -0.056343098996043436 0.09206306663497098
0.16255273534897946 -0.05397190159514471 0.09236248249906354
0.16252317037358183 -0.05476677579679524 0.09290010555453761
0.16242623526322175 -0.05567403081091845 0.0924966968370221
0.1626186232764275 -0.05312307880739889 0.09269937511036236
0.16260177340672607 -0.050639358933329305 0.09257922845432416
0.16261675305630222 -0.05133665880401817 0.09330378388251101
0.16264310436365953 -0.05223023308904916 0.09299707357079919
0.1624602040242521 -0.04997534543166428 0.09312914669645994
0.16230981875130737 -0.04956626890738351 0.09386388522542216
0.17520998303821272 -0.09691402085315301 0.09421735607281591
0.17487621860720204 -0.09639284131529871 0.09445131263339379
0.17435311376171467 -0.09546899324221962 0.09446160208679248
0.1736676123938675 -0.09440434651563288 0.09443622792405704
0.17307883019027312 -0.09338840380298422 0.0945311591606535
0.17268395848795964 -0.09262012127241555 0.09471887333283763
0.17259840993763487 -0.09149587064928275 0.09372461698265983
0.17243240324106854 -0.09157755994919324 0.09458229067625319
0.17247907079633534 -0.09073374494452552 0.09374940841351526
0.1724463079488462 -0.08993490978095985 0.09335341054792269
0.17226513179919878 -0.08905526745511909 0.0935487459667448
0.1721747202662667 -0.08813606301056645 0.0933536047013836
0.17200144910264226 -0.0873839778537165 0.09350153408634887
0.17182566994099044 -0.08649557089856616 0.09357684036182884
0.17163314942243557 -0.08559848905808468 0.09365365892579137
0.17142890020856177 -0.08465652077357315 0.093678919813624
0.17118081318008185 -0.08370131686675003 0.09367471355451117
0.17089596401437118 -0.08272677976471263 0.09365675638863569
0.17062316616434556 -0.08173950665411088 0.09363124366858713
0.17033467592505355 -0.08075026981468529 0.09359635826493842
0.1700330053531862 -0.07976315983401636 0.09355535912711554
0.16976819590304545 -0.07877570116726733 0.09351432439274043
0.16952769322333783 -0.0777817997018413 0.09347509127344426
0.1692736669895104 -0.07678657978392678 0.09343905654189173
0.16901503245882288 -0.07579745929463651 0.093404494450697
0.16872061922545556 -0.07482704131661501 0.09337776503218073
0.16831706809971456 -0.07388396260973225 0.0933507356867359
0.16783924783448945 -0.072991859007089 0.09334804292114966
0.1673391222090829 -0.0722977413561683 0.09344404039191934
0.1665587676190652 -0.07122177666021003 0.09326380199450303
0.1669498832399675 -0.07183581567448674 0.09362833424748725
0.16587382274648654 -0.0700874741813376 0.09296417287909722
0.16623218728212316 -0.07083588782964058 0.09353669927607212
0.16550157438533 -0.06939050841117905 0.09302068377116626
0.16518030932827935 -0.06855319892364982 0.09304414940476417
0.16493401529389776 -0.06771611757534424 0.09306679031344295
0.16473504547380852 -0.06691002823504284 0.09308713374437665
0.1645478923883121 -0.06616438272690818 0.09313719320414982
0.1643536946026598 -0.06553560499388869 0.09320924355923724
0.16363615933891418 -0.06378301419233698 0.09266887651797724
0.16387378221647567 -0.06445567030719442 0.09334403313297032
0.1641254077004304 -0.0649785669816293 0.09325368694920169
0.1633680832969767 -0.06315972970964359 0.09280813353961083
0.16314074115388943 -0.06247827454107104 0.09294471547571483
0.16297726262292497 -0.06183332509930951 0.09312356406933074
0.16271410684313248 -0.06006597149317014 0.09292865946579204
0.1627384567555778 -0.06072641705903358 0.09350300742719217
0.16285826092027889 -0.06128113636031819 0.09333395657522432
0.16265708454037828 -0.059402695519630205 0.09307890601249079
0.16258779162364734 -0.0587732930321425 0.0933064307969291
0.16251737032256625 -0.05741779360291411 0.09268846262569884
0.16254133254840214 -0.057981220117671636 0.09307843093986305
0.16244995299852383 -0.0567709480789481 0.09292254411265642
0.16250225013483022 -0.05742704849448219 0.09308112184926758
0.16259619312035187 -0.05393064171985508 0.09325618875453903
0.16258437791524497 -0.05467051901865098 0.09372041434343799
0.16246884877327078 -0.05568943471473823 0.09358229746400436
0.16261075883183482 -0.053055051119407504 0.09365431952451582
0.16249185190758605 -0.05053483298230684 0.09370871729829104
0.16256239072231823 -0.05129937641987446 0.09439576628333819
0.16263817603126046 -0.05212099813850896 0.09403776767381743
0.16234335402861644 -0.04990638413426666 0.09412932576434846
0.1622670412567768 -0.04964456720850318 0.0943561416492263
0.17508683241868453 -0.09683254184747056 0.09510822075073573
0.17475770645983651 -0.09629101628809662 0.09531275780763451
0.1741539828085503 -0.09536824358993316 0.09532519069175666
0.1734781048172238 -0.09435170689865603 0.09531804052328108
0.17293443320068114 -0.09340382332599921 0.09536584914636503
0.17252458025241454 -0.09248462609857899 0.09541267609886886
0.17229301433262273 -0.09171914268616843 0.0955535698996611
0.17226583610848975 -0.0906081003538827 0.09448714866027048
0.17213620271810606 -0.09076848387139388 0.09534529126344549
0.1722550939784334 -0.08993901979358025 0.09406807630147279
0.17211408658626218 -0.09005069067040475 0.09475913993649016
0.17207478201203694 -0.08930147381961191 0.09452681402067586
0.1719992328877853 -0.08824391536562377 0.09433548238155709
0.17185782237528285 -0.08722076479172627 0.09423236584096352
0.17170306799266483 -0.08644508599554476 0.09447091320302825
0.1715556816608124 -0.08548700782411854 0.09455102891909295
0.17141195895886985 -0.08456066274071036 0.09456357078175993
0.1711990587267068 -0.08364143600153662 0.09459354257794483
0.17094900478129615 -0.08268778364882151 0.09459895960348459
0.17070242265768043 -0.08172472014193295 0.0945903497553567
0.17042626789787838 -0.08074912570252651 0.09456465133616139
0.17014518318804508 -0.07976406151120274 0.09452416590693481
0.1698864230928592 -0.078769890170811 0.094482192963636
0.16962806874180975 -0.07776538594455594 0.09443393887605152
0.1693687640684026 -0.07676103673589814 0.0943832524333445
0.169104788933527 -0.07577962382422836 0.09434210987550133
0.16874385164902542 -0.07482929714885145 0.09429411096925726
0.16827719913257677 -0.07391900542628034 0.09423632495185859
0.16775226874811877 -0.07309395419011055 0.09418660065060441
0.16726753242028672 -0.07241426419251167 0.09412611838279093
0.1666720412493592 -0.07157184442447316 0.09399017190780319
0.16697895836828405 -0.0720048509574242 0.09406279361593159
0.16590972749680188 -0.07039727169339599 0.09395911000706837
0.1663343468670686 -0.07117991738055522 0.0942435638169485
0.16550419275706024 -0.06948952779355443 0.09397581780993573
0.16522698516424503 -0.0686132026184568 0.09397692529737862
0.16500904065108732 -0.06776519595160768 0.09396754477470592
0.1648068846342909 -0.06695237701345017 0.09395933810091689
0.1645876081967962 -0.06620933352357139 0.0939481861402439
0.1643482994025081 -0.06556050813767404 0.09390584875158207
0.1636093350139538 -0.06392880502837874 0.0935566546831219
0.16387725570603032 -0.06462753313206021 0.09415939282481567
0.1641062554824071 -0.06504561575528194 0.09394586725313872
0.16333575748537715 -0.06329925416269958 0.09375521916335003
0.16309845763413158 -0.06259394467746233 0.09387158398321142
0.16292847890076562 -0.06194682025262286 0.09394865155824188
0.1626708571857629 -0.06014387606935523 0.09372319758639155
0.1627240270053275 -0.060794076211067284 0.0941744278133624
0.16282167961075808 -0.06140119389988178 0.09414105029935083
0.16261981617993476 -0.05943249392599135 0.09397227775352653
0.16256636226124174 -0.058455576761082435 0.09403210974171221
0.16249452680825535 -0.057508478990537196 0.09365480843510623
0.16247414222405174 -0.05732960974900183 0.09425272419628977
0.16254160602097947 -0.05783611159388242 0.09433725138617904
0.162435046035793 -0.05674807329386074 0.09390468932393466
0.16246899897299588 -0.05618330745251012 0.09452684660346587
0.16243678023949484 -0.056940242001753405 0.0945365792617226
0.1625949612193476 -0.05397224378941861 0.09423815616968792
0.16254814180965485 -0.05507604247418841 0.09461861570045628
0.1626170510605751 -0.05301471693851448 0.09469783344634786
0.16241562452218505 -0.05059627173002058 0.09471308727065605
0.16247789482915725 -0.05139389616337372 0.0953785075193626
0.16259221769102933 -0.05212832438972392 0.09507354357171692
0.16231986076097316 -0.05010306109768516 0.09479727809912154
0.1749882786272248 -0.09674759318748531 0.09601135374756967
0.17465845836695715 -0.0962126472876849 0.09621505682147509
0.17402733820819652 -0.095301108028414 0.09622574716035683
0.17338755720234622 -0.09430641102377454 0.09621403747791267
0.17283414394255064 -0.09334158467183593 0.09622730624584247
0.17243998324851792 -0.09241809136805262 0.09627505850974769
0.17216697955276322 -0.09147237633804887 0.09631790313528361
0.17194806233904308 -0.09035667799922331 0.09645077101538163
0.17196452948254043 -0.08963591461534778 0.09540174018213428
0.17194997957771155 -0.0888954671704522 0.09501083002808411
0.1718481690441628 -0.08887615169277918 0.0955351072765338
0.17186021076107247 -0.08836953918524013 0.0951903740455434
0.1717414983481157 -0.08748151991140135 0.09513999550627696
0.17154664773428044 -0.08630500977941323 0.09549972683102667
0.17148431486080434 -0.08528267078399496 0.09528148954244943
0.17136594856664855 -0.08450305517590008 0.09543799881901628
0.17119803281261822 -0.08356998475327554 0.09549563330423877
0.17098342295614247 -0.08263897414101652 0.09551860881932277
0.1707535285332443 -0.08169327773387167 0.09552364174712721
0.170506729228073 -0.08072324906192972 0.09550672809318919
0.17023189110293677 -0.07972990491687013 0.09546822353888214
0.16996195223138127 -0.07872270116786005 0.0954164477889856
0.169697179380371 -0.07770894286552413 0.09535444952974405
0.1694193471034366 -0.07671500804809164 0.09529674572859761
0.16910482985911235 -0.07574383876754504 0.09523488171712015
0.16866962201798227 -0.07481208093368026 0.09515469329652577
0.16813479443062174 -0.07391466822892838 0.09505122482525266
0.167543470877278 -0.07303096970575074 0.09491256211209743
0.16703049098467213 -0.07225766298898584 0.0945660924548696
0.1669805991747351 -0.07241466252046132 0.09517279507274497
0.16722660121644053 -0.07267569901381477 0.09505345542052109
0.16664997781287966 -0.07179314921532608 0.09472146872034469
0.16633672632144864 -0.07136582688144304 0.0950444835325825
0.16671628541640232 -0.0721039390672041 0.0953603120430335
0.16590307762331563 -0.07044324086869441 0.09496438406151116
0.1655778081827614 -0.0695489539344407 0.09493448277505714
0.16533171477196115 -0.06866635775003811 0.09489562581910106
0.16510834915543654 -0.06778886242456911 0.09485170544240216
0.16486817817197863 -0.06694969954779324 0.09480560402101705
0.16457360842877022 -0.06615271046977919 0.09472764725302552
0.16430075339166766 -0.06552387074981597 0.09443505228190995
0.1636547070533998 -0.06422215501539923 0.0946323993949889
0.16395626647784303 -0.064909132684718 0.09487031382032678
0.16412397047256266 -0.06519896974646062 0.09461652703215914
0.16332702621560585 -0.06340239425995245 0.09474418784146185
0.16305785741856677 -0.06259189682866306 0.09475506808203127
0.16289743176025198 -0.061979443341884634 0.094510023077687
0.16286332258444047 -0.061762971039415755 0.09476049015813398
0.16293904659496047 -0.062178878018333994 0.09497935568091746
0.16268289888730814 -0.06038107895521158 0.0947502884105248
0.1628076685886061 -0.06127652206135617 0.09481460800229896
0.16260614902708817 -0.05931078470530015 0.09503280370165457
0.16250379005802768 -0.05804326697769043 0.09540745286982635
0.16244891464355204 -0.057474307932156146 0.09564364165798202
0.16248663683923695 -0.058121661038819446 0.09600542640769402
0.16252579627451982 -0.05869054298824381 0.095651990241958
0.16255593501496576 -0.05832095577984215 0.09488610839632988
0.1624859039324502 -0.05755394914190354 0.09488112399093196
0.16244042802950667 -0.05679736972651184 0.0951761150680516
0.16252867194869183 -0.05586543195605004 0.09534646998188512
0.16258030810422688 -0.05408741761179779 0.09548995585234114
0.16255658681203822 -0.055107056363531956 0.09540318462624048
0.16263158178435128 -0.05291573910810027 0.09559385522778913
0.1623874303679672 -0.05082256754561599 0.09540452387942003
0.16244205128268643 -0.051595846188496615 0.09606811998820697
0.16253583162947766 -0.05229721113700281 0.0961239898974026
