# .PCD v.7 - Point Cloud Data file format
VERSION .7
FIELDS x y z
SIZE 4 4 4
TYPE f f f
COUNT 1 1 1
WIDTH 790
HEIGHT 1
VIEWPOINT 0 0 0 1 0 0 0
POINTS 790
DATA ascii
0.16780489378686025 -0.054774069334015775 0.0747118488849743
0.16765931171852672 -0.055485280861048446 0.07525475298108535
0.16769137154994773 -0.05318606371220409 0.07430552942829176
0.16772961837954609 -0.053865553542758335 0.07479684363577466
0.1675197288171611 -0.05257573997053765 0.0746120857224059
0.16762529891411618 -0.05308515568967476 0.07490888854423114
0.16739558024339382 -0.05210700011893923 0.074883767777112
0.18016495655522755 -0.09598548235416839 0.07647112711254574
0.17989161186520156 -0.09549109376281778 0.07668533317117575
0.17945702681795234 -0.09461223567782316 0.07678817820899357
0.17895970822645607 -0.09362973630712237 0.07681889234066132
0.17838123683250812 -0.09264320464497983 0.07681424082115257
0.17776118897454268 -0.09165509632588796 0.07680789051411278
0.17721268352564254 -0.0906615727482165 0.07680575183406688
0.17671890646879462 -0.08968125514707416 0.07678567000158197
0.17628283595633104 -0.08866620940806894 0.07678685243362222
0.17587927847258908 -0.08764742866491504 0.07679545214706181
0.1754912089505701 -0.08664324207975065 0.07680954481115305
0.17514173857655926 -0.08565764339355156 0.07681503123954775
0.1748233684616187 -0.08470187597536764 0.07680138370035465
0.17453539652017008 -0.08375794494278328 0.07677827872668284
0.1742238493816248 -0.08279922273632515 0.07676627414925573
0.17395311446031997 -0.08179738809655468 0.07678484582751459
0.1737046965713791 -0.08078776092024714 0.07680672119515712
0.1734253941833142 -0.07977971173000159 0.07682739609946622
0.1731431009235505 -0.07878007781251849 0.07686072221326878
0.17282965285260754 -0.07783693896661383 0.07686640976970795
0.1724049928808761 -0.07695380410600276 0.07686633690243252
0.1718485865169494 -0.07606372741737649 0.0768672349451609
0.17145825381655128 -0.0751597182845014 0.07641747080569969
0.1710094737767392 -0.07500844006911547 0.0768747595706346
0.17115762077378047 -0.07555485361358862 0.07732720447881411
0.17101980322172033 -0.07459955370539308 0.07640811169575394
0.17054815539162235 -0.07411968045448565 0.07665562368564323
0.17073416775065475 -0.0747008143315608 0.07694025002451305
0.17015904569947155 -0.07327697756253954 0.07666808447101343
0.1698690284844203 -0.07241633058636997 0.07673468803753349
0.16965898609853372 -0.0715453226114313 0.07679300099994994
0.16947619708761075 -0.07068525603367343 0.07684039442766756
0.16930558958643874 -0.06986564809926708 0.07687512191876723
0.1690770099482415 -0.06911183276108503 0.07690918792091435
0.16876454771858593 -0.06843219388587371 0.07695742867322299
0.16807564574886857 -0.0665421719911978 0.07626963976255091
0.16801991441023614 -0.067183305255191 0.07715389803401913
0.16840586685008557 -0.0678004403795763 0.07704847305798114
0.16778209735124835 -0.06587858315376728 0.07639405912794858
0.16757528687743925 -0.06518061197033566 0.07649021170120593
0.16740313785562624 -0.06447545266397646 0.07657666493845629
0.16725004662946755 -0.06376917239869657 0.07666537694230446
0.1671009335803832 -0.06308140087959252 0.0767444190934065
0.16704799838766596 -0.06100054728758403 0.07602151834312967
0.16675355675380168 -0.06174963453668196 0.07691867886428543
0.16692477277011264 -0.062414163744619854 0.07682702153907299
0.16694285638537185 -0.06029393339705204 0.07612512713360828
0.16688444589408893 -0.05955140105982291 0.07622301121343063
0.16685030950709398 -0.05878066747860969 0.07635286326065299
0.16685502244186606 -0.05798459297837155 0.07650352984612901
0.1672849009385796 -0.05632365646785349 0.07593930688858566
0.16688475654985838 -0.05720197699235993 0.07670276673417567
0.16760069043619727 -0.05474707256057237 0.07553487567677059
0.16732336777726947 -0.05554872462461444 0.07620713844992254
0.1675189561382304 -0.05412812957404409 0.0758267593259665
0.16753290062191373 -0.052800395311174426 0.07525260220366649
0.16751508394826503 -0.05331920549090469 0.07571414833740533
0.16735462469981405 -0.05210646761572696 0.07539445673525322
0.1673737006002763 -0.05253463553870846 0.07588435978869787
0.17974356353946608 -0.0959315602548968 0.07729483245503921
0.17941894160881774 -0.09537934609787356 0.07758932911470107
0.17900935680855495 -0.09445537293285071 0.07766703878031321
0.17847330145022483 -0.09348364242327288 0.07766294843762385
0.17789099778556064 -0.09251646781395231 0.07768983028324537
0.17736319080556023 -0.09155899861713099 0.07770998766414985
0.17683898874785975 -0.09059257205678352 0.07772162547853759
0.1763888730756588 -0.08959352413579792 0.07773385816446109
0.17599371420775037 -0.08858838709785441 0.07774512222064366
0.175610559304911 -0.08757876665019118 0.07776206347113682
0.1752345809361292 -0.08658977598624666 0.07777842991026694
0.1748962551937752 -0.08562704919236325 0.07778171003686714
0.17459867761580677 -0.08469151307093864 0.07776997747365841
0.17429744868860964 -0.08375319993578356 0.07775555380149556
0.17398059586120582 -0.08278361310109623 0.07776059124028693
0.17372160448049728 -0.08177874338652176 0.07778130968700864
0.17344614294226188 -0.08077725720119523 0.07779239257827343
0.17313712179472507 -0.07976078734117588 0.07781435719220975
0.17282483583395986 -0.07877681954252025 0.07781789558851825
0.17244420063713628 -0.07784376059647878 0.07780378953489056
0.17197070393045055 -0.0769869284072575 0.07778666268140268
0.17144682547746914 -0.07632343253221645 0.07784957431299298
0.1707764272813603 -0.07506381577873604 0.07729768873019709
0.1704528640759952 -0.07473008673232888 0.07746425603629932
0.170651757483511 -0.07535923323954856 0.07788167597621816
0.17097371268421704 -0.07596833133836071 0.07813378537835632
0.17005345130822758 -0.07411918737530572 0.07756403985119534
0.1696873748278483 -0.0733081404116597 0.07763860943870006
0.16944202536836142 -0.07244091540223643 0.07770178526571948
0.16927004527660316 -0.07156061255755752 0.07775540180565338
0.16912587716277366 -0.07069124004871184 0.07779835291330034
0.16893853815029314 -0.06986882851189487 0.07783043937230238
0.1686923312202564 -0.06911200537964113 0.07787619576798886
0.1683729147409943 -0.0684303118705537 0.0779366393874664
0.16766923384403037 -0.066557095552672 0.07727222688590302
0.16759560304647153 -0.06718139920522939 0.07814261309223394
0.16799214087322198 -0.06780110164282561 0.07802927846275402
0.16739414668399907 -0.06589078429827092 0.07738559811376576
0.16716781028224723 -0.06521058195506924 0.0774689024403574
0.16698866331676812 -0.06452194329570299 0.07757213118161167
0.1668208894581063 -0.06382259484612719 0.07765774771371571
0.16665705680196433 -0.06314370946937894 0.0777306702445299
0.1666270046466591 -0.06107027797451088 0.0770117271390768
0.16635060400553453 -0.0618211464359942 0.07791571910500154
0.1665073366166416 -0.062482417352123475 0.07782348870496374
0.1665130398372695 -0.060370479512999044 0.07711055326109859
0.16644553085137143 -0.05963561735369868 0.07722284982310833
0.16643414189552294 -0.05887040566093977 0.07735515648761272
0.1664551039079191 -0.058095545238874224 0.07751753348526294
0.16691094535555956 -0.056421752082059205 0.07693802339832773
0.16648584765494615 -0.05731589749026143 0.07771120105005308
0.16733098529364396 -0.05480505499167554 0.07647226246901971
0.1669690554666606 -0.055631749283552814 0.07718493534086256
0.16728977606620105 -0.054036011012250106 0.07665621766682977
0.16722650070415912 -0.05321095782734649 0.07681089088212445
0.16719163975167498 -0.052108986466590346 0.07648101199608016
0.16711419093747365 -0.052500413233645835 0.07713158229066727
0.1792614966708194 -0.09608236081312171 0.07831585587952969
0.1788535237718081 -0.09524462202476068 0.0785919149300821
0.1785465834531398 -0.09418965992415643 0.07836503325155811
0.17803660289906184 -0.09334331773178438 0.0784756658541802
0.17749123195602537 -0.09239297206669546 0.07851695893366235
0.176951384672345 -0.09146071606504982 0.07856843403633218
0.17647080112274677 -0.09048327354363332 0.07861067349654516
0.1760695008093496 -0.089484300445477 0.07864579587495843
0.1756820558589655 -0.0884940225960354 0.078659398309774
0.17531856183605726 -0.0874986316296307 0.07868287923202087
0.17497635583303067 -0.08653772112331526 0.07870232940599853
0.17466260655796323 -0.08559283032043852 0.07871277558779513
0.17436305981160552 -0.08467113008729653 0.07870727707246829
0.17404585648086965 -0.0837309267988037 0.07871096292725122
0.17374506771828874 -0.08275076660550007 0.0787305555077081
0.1734748296751443 -0.0817486121792997 0.07875093532813672
0.17316411874485826 -0.080734693792242 0.07876881843461034
0.17285370961662713 -0.07972240037482664 0.07878555153801506
0.1724987130132822 -0.07876278532598573 0.07876158989780213
0.17203636020163054 -0.07784521932060241 0.07872721987865099
0.1714902249221337 -0.07699317282760543 0.0786269623411698
0.17119065201959813 -0.0764529906570054 0.07841034657648997
0.17090960631430469 -0.07635800038852503 0.07873923850057644
0.17115617577495892 -0.07667136136601364 0.0787510455797683
0.17009811255241436 -0.07504324536152927 0.07841810347087427
0.1705427956358637 -0.0758295408940476 0.07864155704437566
0.1696009825442084 -0.07420556117626073 0.07852520346388968
0.16927878141678718 -0.0733514993295375 0.07860247674553426
0.1690670700599683 -0.07246316883698936 0.078658715920352
0.16890598004940172 -0.07157044785318506 0.07869876163022957
0.16877095392794267 -0.07069327291440358 0.07873286421417752
0.16858779782319472 -0.06986411033369778 0.07878895027916775
0.1683297409230983 -0.0691018651439052 0.07884821642309588
0.1679750641224455 -0.06842474802091515 0.07890988826785515
0.16724849349667373 -0.06655148755185872 0.07826677364724823
0.16717470894254471 -0.06716623460894464 0.07912911397074651
0.1675767894755759 -0.06778723710168427 0.07901652931617045
0.16697053291560174 -0.06588886908435754 0.07833434879477516
0.16675994487781381 -0.0652343863005687 0.07840295720257619
0.1665751600963295 -0.06457071398071286 0.0785273073023429
0.16639033037885337 -0.06388128578813522 0.07863251173197162
0.16623272784247137 -0.06320006804099028 0.07871719571873871
0.16620521885719552 -0.0611547080297773 0.07800323587789985
0.16593005720480852 -0.061900555203850946 0.07889508406646413
0.16609697199542853 -0.06254200596133172 0.07880016486978338
0.1661045578744718 -0.06046540353245037 0.07811553622962361
0.1660393892209037 -0.059734159521079834 0.07822499259476469
0.16605450292067403 -0.058984121123286375 0.07836346737821584
0.16608184187946487 -0.058219860912694016 0.07853388019891165
0.16653268894946202 -0.05654222568774629 0.07794310479921054
0.16612582853174312 -0.057445464036036585 0.07872677987837341
0.16700225449524897 -0.0548395529580489 0.07743227437813159
0.16655832829027484 -0.05575151513478743 0.07819417465474114
0.1669657349533708 -0.05403067977702206 0.07765599644444308
0.16688622198369707 -0.0532347056184305 0.07788244785680538
0.1669274998578408 -0.052129751890443804 0.07762915880149653
0.1668003688979183 -0.052555834219531826 0.07818948451293743
0.17884674787525284 -0.09682162709770106 0.07950374446857535
0.17850419517327398 -0.09673587685255472 0.0801529738677429
0.17907496363365413 -0.09663033561040435 0.07897272239095533
0.17868271397391455 -0.09664474326574404 0.07973736256946755
0.17888398120725274 -0.09631607545592616 0.0791952076348708
0.1786233841530799 -0.0962864272046327 0.07967355038479186
0.17842947253224373 -0.09558645634998317 0.07961653604588692
0.17810600239574195 -0.0942589477115899 0.07930235530830108
0.17762698394405824 -0.09314278353716579 0.07914327075118735
0.17703153574872277 -0.09230865248211263 0.07931854709021316
0.1765167660734522 -0.09131533853223034 0.0793938328319093
0.17607449386557342 -0.09034653210293388 0.0794562586888134
0.17568414218596404 -0.08936501684598212 0.07948839670367379
0.17534499138957732 -0.08838366684193406 0.07949266253165393
0.1750217737972871 -0.08742590021680564 0.07953780205422423
0.17469861285864402 -0.08647609882806447 0.07956281845716587
0.17439791851305989 -0.08554239335850017 0.0795895257093934
0.17409403518890468 -0.08462560236293812 0.07960888514979254
0.1737670400305213 -0.08366066666567808 0.07964530091854088
0.1734808572460559 -0.08267125247868554 0.07967403458893862
0.1731835855496588 -0.08167501015596614 0.07969151253455022
0.17287072002196727 -0.08066665510678751 0.0797054798587325
0.1725306252398484 -0.07968989053242029 0.07969932197881749
0.17211015583774905 -0.07875201935031753 0.07967597790045584
0.1715107235668922 -0.0778196833831995 0.07966899943756357
0.17103036767967278 -0.07690797443936921 0.07926117821759177
0.17065961625667547 -0.07680820305845179 0.07969537395014403
0.17086755708311951 -0.07736923756850062 0.0801484890558696
0.17059584834126307 -0.07638616851981929 0.07924868346333334
0.17009337367704858 -0.07592568908248204 0.07943096920308387
0.17036322442129456 -0.07652283335787129 0.0797361446367664
0.16958101485828397 -0.07510757164838339 0.07942961722676173
0.16918094558261929 -0.07426602576261042 0.07948816022555576
0.16889932991740378 -0.07338769859728655 0.0795462334528682
0.1687123649368255 -0.07248381039729075 0.07959485730252358
0.1685792216908163 -0.0715669690543661 0.07963443584122157
0.16843989404117973 -0.07068095367108142 0.07967212577794616
0.1682368811300956 -0.06984982055428866 0.07973408895992222
0.16795384873582675 -0.06908885585325897 0.07979491967661345
0.16758685043813606 -0.06840459023321986 0.07987475103327177
0.16677076801649815 -0.0665278757055805 0.07932043582747315
0.16679328150109082 -0.06716582121950697 0.08001821201687664
0.16717211881646396 -0.06775284470656852 0.0799794943773706
0.16659637947175615 -0.0658408018967813 0.07913160057326209
0.16636145208382838 -0.06531604357818607 0.07934967100738387
0.1661506548492015 -0.06463109613781108 0.0794986254276071
0.16598435055091962 -0.06393010885409697 0.07961920867614596
0.1658270551113856 -0.06325223670834104 0.07969712598672052
0.16578943824814235 -0.06124257935653668 0.078997119321398
0.16553849842549295 -0.06197965986804693 0.07988388438168435
0.16567545199306044 -0.06261170183377189 0.07977831746222694
0.16570696004769456 -0.060556044714917955 0.07910127915573373
0.1656550975718118 -0.05984742186726796 0.07922703495413076
0.16566819820305667 -0.05910444809881892 0.07937169616319228
0.16571167434947898 -0.05835221294611139 0.07954523211027238
0.16615312490445597 -0.05667403558788935 0.07896136715222153
0.16573412015218691 -0.057590829390817236 0.07974910022595062
0.16660248445738673 -0.054919729432158296 0.07844107165941047
0.1661439794882568 -0.05586732253867302 0.07920531432857952
0.1665793224071893 -0.05409262294277486 0.07867550492820809
0.16654241932785083 -0.05328887504137947 0.07880698770348028
0.16649498993363945 -0.052132594358313376 0.07884099343423999
0.1665060501924805 -0.052702954431822116 0.07894357431601352
0.16611200860923192 -0.05153397475388376 0.0794244064156973
0.17838908564601624 -0.09627365285277455 0.0801296342808548
0.1778946580670446 -0.09618296339057765 0.08111861450334633
0.1780250295607601 -0.09552236546641027 0.08038348761306104
0.17802033271931486 -0.09489882889219137 0.07997572092158584
0.17771129018970325 -0.09480137496373717 0.08041318590630098
0.1777020715308331 -0.09429193328031728 0.0800707058820101
0.17727375772951448 -0.09335270192497222 0.07995082745834958
0.17647668816795223 -0.09213247457848601 0.08020657310312941
0.17609725800986506 -0.09108934056841403 0.0800693454580357
0.17556998434554727 -0.09022784505357702 0.08038372159873455
0.17533108287684385 -0.08914016270490097 0.08013861515568137
0.1749850946333927 -0.08830918387728741 0.08027463525371951
0.1746635366728721 -0.08732607054200504 0.08031103299383356
0.17439941453553037 -0.08640137707647555 0.08033261184771384
0.17410427670080203 -0.08550096083899769 0.08039521486688735
0.1737747712126137 -0.08455654887855146 0.08045574124704878
0.17345335027136982 -0.0835649810450052 0.08051864174420448
0.17317096563663792 -0.08256698787168266 0.08054930443557251
0.17286713619963584 -0.08156727203661393 0.08056454534492827
0.172552245010946 -0.08058205306973021 0.08057586381899291
0.17217144807303011 -0.07965881658245148 0.08056084486220105
0.17171483606101814 -0.07879314531534054 0.08055794222762103
0.17122605227703025 -0.07815988997540646 0.08064138519143581
0.17046305653199112 -0.07690037325849737 0.08009817705250763
0.1700861746695008 -0.07659335917585451 0.08023964052243658
0.1703678076644244 -0.07724320902668012 0.08067263547548645
0.17076851587072153 -0.077858704594941 0.08092883138051209
0.16960716140958393 -0.0759820385569249 0.08033233861687462
0.16914672566471242 -0.07518244022611831 0.08037756030183037
0.16879324935726178 -0.07431792752492104 0.08042894242669357
0.1685658494874898 -0.07341849502842629 0.08046781457426021
0.16839884600540486 -0.07249097851003009 0.0805120557172749
0.1682711054935974 -0.07155628874836815 0.08055655025911752
0.16811553487853814 -0.07066637239992822 0.08060393638696375
0.16790263813701425 -0.0698291445382746 0.08067130613922029
0.16761206196923054 -0.06906514345264551 0.08074280163975348
0.16722067228871096 -0.06837068684405606 0.08084081810388091
0.16652842736372286 -0.06676997060245743 0.08012639091406824
0.16653468159949605 -0.06709973433016216 0.08055099671910254
0.16672370451747218 -0.06763113180862698 0.08101031272987244
0.16629864845981412 -0.06618985825007226 0.08015698227920058
0.16635406296254648 -0.06678607038603783 0.08059374549292511
0.16595665736133064 -0.06538521438965358 0.08033741171859766
0.1657468976587477 -0.06466024633873575 0.08047164900261974
0.16558392515476192 -0.06396951347562013 0.0805788735495432
0.1654091291693748 -0.06331134835493947 0.08066781040075224
0.16540617329967905 -0.06132944726576569 0.07998022153537383
0.16514082397590785 -0.062051355772184916 0.08084082883268515
0.16526336443704465 -0.06267391516343358 0.08075397916870881
0.16531702489183792 -0.06066384455254179 0.08009309625498565
0.1652846361750758 -0.059963731580275556 0.0802323939801856
0.16530009321475478 -0.059228323214010684 0.0803757729526351
0.1653609431305674 -0.05848317106090793 0.08055269036295223
0.16574192451930797 -0.05680710450050649 0.07996857716555916
0.16537096858637448 -0.057720144108540955 0.08074579559822244
0.16614130109680977 -0.055019858611796 0.07945598090279114
0.16568787307525504 -0.0560184928595179 0.08022719506277111
0.16610626073057386 -0.05408258938413414 0.07966894484644226
0.16624287335913993 -0.05323613639919218 0.07941766718684445
0.16614612751070604 -0.05269791568669686 0.07954233074792735
0.1658680539939978 -0.05349283127651059 0.08007360814831685
0.16601881159990128 -0.05204116632448654 0.07964896233462113
0.16575576140172907 -0.05117995743121149 0.079918259656879
0.16586804128315685 -0.05153169772435202 0.07984377143156512
0.17776203201313667 -0.09676813533477109 0.08202409368383452
0.17755230067303365 -0.09646384340760722 0.08213327303460811
0.17748912834250619 -0.0950870283701532 0.08096992797793186
0.17710623978185114 -0.09541792972650884 0.08191145804730805
0.17683286072798324 -0.09423972805976429 0.0813377780363291
0.17628531074788706 -0.09417038402007803 0.08215325052243061
0.17726299944659699 -0.09415232309600008 0.08061016664388786
0.17633254977286328 -0.09347206660757887 0.08150852709592113
0.17663764775888233 -0.09319503034777223 0.08085231412650515
0.17610144469918437 -0.09279554908192289 0.08133025809865556
0.1761001975233004 -0.092304194645899 0.08093577021951058
0.17578897325245008 -0.09139090904140926 0.08078341026293284
0.17542312120845632 -0.09076525742749593 0.08099844534355788
0.1751704087037081 -0.0907108314688712 0.0813854352527621
0.1753830377243742 -0.09120398236344988 0.08132848808293631
0.17520158279670775 -0.09025011302636678 0.0810577054637319
0.17498939042362258 -0.0893462398039281 0.08091134649010598
0.17449614170103436 -0.08814068359468753 0.08109380666189761
0.17433927746163685 -0.0871262475584767 0.08090592059474583
0.17404787362069885 -0.08637303860359787 0.08104372346594686
0.17370742188359076 -0.0854421096191408 0.08114316589053003
0.17337991433387162 -0.08446181127879879 0.08123479488950651
0.17304775431721992 -0.08343643461809051 0.08131271578426509
0.17276928537991462 -0.08241903333658919 0.08131727031707552
0.17250192107534465 -0.08145603131455213 0.08131579751367583
0.17216907619229319 -0.08053420327649434 0.08133923094087617
0.17174626035601592 -0.0796377512733558 0.08133687698045745
0.17129585899630853 -0.07883457570979262 0.0813160684327539
0.17103219357358593 -0.07834141570058244 0.08117197854092688
0.17075204523918702 -0.07829467112915575 0.08148829864124428
0.17101911481682358 -0.07856881166305689 0.08147188931060412
0.16978498193198188 -0.07696880714921493 0.08119967940907565
0.1703133314205419 -0.07778509480486416 0.08143311012618556
0.1691834266064839 -0.07611138903284595 0.08127355217023739
0.1687693992652211 -0.0752492835768864 0.08131122054942778
0.16848644383505304 -0.0743553595862912 0.08134139405117433
0.16827324402219798 -0.07343392392913321 0.08137611507621895
0.1681144875874858 -0.07248120672147702 0.08142923991027957
0.16798196201249613 -0.07153739629501671 0.08147522368921895
0.1678020475494786 -0.0706475171757658 0.08152143899857282
0.1675767366698505 -0.06980770575280879 0.08159019494956203
0.1672800598427579 -0.06905168812786182 0.08167100006924538
0.16691371193306037 -0.06838691538860021 0.0817928056445275
0.16638399344462615 -0.06710968338226235 0.08102056788171061
0.16612493438669232 -0.06670558898809673 0.08112825849144041
0.16623735020377384 -0.06730563632426222 0.08182348300435456
0.16656389847414887 -0.06790874688600329 0.08200856680089844
0.1658327167943851 -0.06608142134097264 0.08119373784398479
0.16556452371326433 -0.06537506368551543 0.08132886679303883
0.16535735899807466 -0.06468181734948711 0.08143505238121114
0.16517542994208215 -0.06401681811502494 0.08153827517833397
0.16501823083176065 -0.06336691119366722 0.08163778717012882
0.16500346669402527 -0.061427197934711415 0.08095292625972474
0.1647327329478749 -0.062133870672626414 0.08180063383395114
0.16487266065143685 -0.06273835226746996 0.08171262393929486
0.16491983587004638 -0.060766547658253865 0.08107748040991523
0.16490178801925223 -0.060075847277859765 0.0812139364824344
0.1649253182281669 -0.0593604324613865 0.08136971778955956
0.16498061217045684 -0.05861402373984734 0.08153739203824964
0.16532833942351607 -0.056956689310635425 0.0809772628612031
0.1649793277099352 -0.05787955958098522 0.08174235598075312
0.1656305419356228 -0.05514944238153666 0.08047474609649143
0.16521388256011918 -0.05616235677510146 0.0812475448866661
0.16559462622542978 -0.05428304982458779 0.08063353522751554
0.16557455190674636 -0.05288628673490877 0.08040445605329452
0.1655416908559465 -0.0536838943611094 0.08061975141805339
0.16568957963700012 -0.05201062394406819 0.08016495653011746
0.16539553701616702 -0.05160855015604598 0.08052386735597915
0.16541343624219554 -0.05231492389454334 0.08058687116663478
0.1653540307059928 -0.050908589828964276 0.08044981018944877
0.16503444637036035 -0.0506271281787385 0.08084522193600267
0.17751138641111533 -0.09697366574076174 0.08280153254603734
0.17715290717247623 -0.096280641523631 0.08280213838467242
0.17656781991455114 -0.0952813196282221 0.08283614968281634
0.1759909855953771 -0.09443131489653628 0.08296384442017415
0.17583783611540202 -0.09300671964817658 0.08187606317467289
0.17553066021505204 -0.09333764104603257 0.08269983316485151
0.17534522722953508 -0.09233562603975233 0.08214307339653734
0.17490633632716568 -0.09217728895226497 0.08276357017856918
0.1756055159754752 -0.09201863710245063 0.08147800149000628
0.17497166789001645 -0.09120243459302149 0.08195736503057403
0.17436997427243112 -0.09106602702164662 0.08282314609466589
0.17438163800395517 -0.09012529672699666 0.08222061020029188
0.17387227871397382 -0.08995362625275824 0.08295416372984163
0.17484294708250875 -0.0901325738141821 0.08154877316797085
0.17404792843051095 -0.0893482757571325 0.08234140623262287
0.17439873244246773 -0.08915360404121025 0.08172818298332958
0.17400796242555003 -0.08874180843777854 0.08214496520274572
0.17413238140281898 -0.08829658333902486 0.08176798191142988
0.17398366294740755 -0.08736770258829257 0.08159780573161698
0.17357980089372216 -0.0863261049808818 0.08174069470483322
0.1732377090283923 -0.08533273998466509 0.08186151551083401
0.17287196965602664 -0.08431982205912293 0.08197929241120458
0.17250063391976944 -0.08318683515367561 0.08210125405356071
0.17238491894987562 -0.08218579344080432 0.08188486439718863
0.17208442935180318 -0.08140299059516347 0.08199311077817051
0.1717030772218054 -0.08047670595165071 0.08203265517721679
0.1712419720978522 -0.07956550006398908 0.08205225505985092
0.17091832638318055 -0.07882917497406941 0.08188078643759
0.17064244954697474 -0.0789993923242892 0.08242280135227092
0.17092063506064029 -0.0792334793672571 0.08228740814694155
0.17045819568928355 -0.07842008601564628 0.08202533763885218
0.16987362584360827 -0.07798208949046007 0.08226840898967906
0.17024932211975838 -0.07871577779056203 0.08258755041547618
0.16926114704414022 -0.07706732918096099 0.08220572934732412
0.1687877648192312 -0.07617615070291539 0.08222248363285428
0.16845378345444817 -0.07527995848082941 0.08223914787157023
0.16820775896172924 -0.07435994900861237 0.08226093364114395
0.1680210573505105 -0.07341229854534233 0.0822967512409758
0.16786129623933607 -0.0724563641220105 0.08233923593717675
0.16768909597346296 -0.07152627123333495 0.08237262331730756
0.16749533098554303 -0.07063058370727425 0.082427793940784
0.16726734300894489 -0.06978723617009093 0.08250534641418217
0.16698709641437015 -0.06903925772307673 0.08258543820505622
0.16664227621433186 -0.06841168911959761 0.0826835507645822
0.16579050959343808 -0.06668532773147313 0.08201140832862398
0.16585179327972166 -0.06724988449956543 0.08283305343768335
0.1662642313642779 -0.06783734166990553 0.08275332488616714
0.16545528205259635 -0.06605196038370761 0.08214329286226636
0.16517673885956033 -0.06538726793196407 0.08226901777730983
0.16496052476998488 -0.06471458116390265 0.0823785114677897
0.16478690357355588 -0.0640562585291097 0.0824768783812322
0.1646255796658237 -0.06342596717318456 0.08256309926231792
0.1646245701255559 -0.06151491088789951 0.08192195508893603
0.16432962704136392 -0.06220369199491529 0.08274245663859449
0.1644633519085146 -0.0628136103055369 0.08264995434198437
0.16454323547265984 -0.060864763199607486 0.08204374169815089
0.1645390739923546 -0.0601844378516912 0.08218314202517049
0.16456340005427833 -0.05946959544921125 0.08233521243744008
0.1645908149977087 -0.05874552764218195 0.08250311099270399
0.16488803492724965 -0.05714530768411817 0.0819944236273109
0.16458042132558295 -0.05802940160258193 0.0827153936524628
0.1650249822012498 -0.055243419338690036 0.08155111350706852
0.16473650949839153 -0.05640813566317229 0.08229578936335873
0.16510686382157072 -0.05396509208589548 0.08124795324348774
0.16462111042800623 -0.05388168162825813 0.08194600419213102
0.16453732163846638 -0.05476583572143423 0.08221507381791121
0.16494209306628835 -0.05284446755497437 0.08130006266671601
0.16445058417786862 -0.05263167736032212 0.08195973068437466
0.16433220295673845 -0.05342580184521368 0.08227935158688154
0.16474350078763306 -0.05186688871560694 0.08140140647239621
0.16452947435438728 -0.051258265069054516 0.08163612682605514
0.16427135744216537 -0.05200008750644017 0.08215522681937909
0.16497330066008797 -0.051010219815787586 0.0809794272967411
0.16460217311967262 -0.05068200415798726 0.08152528855411093
0.17744737557759102 -0.09737143069604653 0.08349694599554958
0.17724402731498717 -0.09697818693788231 0.08352515857509779
0.176787648241851 -0.09613016323913132 0.08357742201029598
0.17619072141922923 -0.09519279485636202 0.08360741676136704
0.17559796471608397 -0.0941944202240247 0.08357505520579746
0.17500268089289242 -0.0931385371930916 0.08352389214370477
0.17446071960605342 -0.09206322751983013 0.08354408875398175
0.17396476744496905 -0.09103686096648253 0.08359854992486143
0.17359305587853574 -0.09021880204109509 0.08371391713974799
0.1737030235135399 -0.08887753337415438 0.08264840528007597
0.1733352543027823 -0.08914504482521253 0.08345438844688897
0.1733033874033449 -0.08805975171609558 0.0828415180800298
0.17286303088625274 -0.08802596367622047 0.08355913963984948
0.17375867902213243 -0.08808862407311793 0.08221617003920795
0.17293678417346817 -0.08708751074344957 0.08295881462935548
0.17249852834422694 -0.08702368480873607 0.0836363384184664
0.17342854859415235 -0.08718948933620768 0.08229489370842105
0.1725878763496251 -0.086115612416749 0.083067052993294
0.17213058195884798 -0.08604836092216783 0.08371909290624287
0.17306770370969135 -0.08620279115492868 0.08241959840040544
0.17222473832769175 -0.08516704014237651 0.0831813424468151
0.1717442779664238 -0.08500136841978341 0.0838364333730884
0.17272409793635096 -0.08522102854770389 0.08254454122928342
0.1719406780852753 -0.08441033411236287 0.08328352699683422
0.17230557462310545 -0.08419741082479344 0.08272072923026931
0.1719375241232122 -0.08377572640619665 0.0831234736045001
0.1721048235832446 -0.08331278534567214 0.08276828306176569
0.17199291170113534 -0.08238549644359748 0.08257274418878156
0.17157729992656248 -0.08132650656990315 0.08266111226781732
0.17121319085992703 -0.08039789606540002 0.08266700146814152
0.1708279058797876 -0.07965064382010408 0.082686783040007
0.17053458257704093 -0.07988911727334869 0.08316933378462443
0.1708184472482702 -0.08030067639436582 0.08311720863951955
0.170386040407497 -0.07930969866177563 0.08293047069649921
0.16986362630612573 -0.07896858652265 0.08321597791616847
0.17020386135641047 -0.0797366583797192 0.08341407168171792
0.16930978757738457 -0.07802781928836444 0.08315231692091968
0.16884797360928375 -0.07711620720216328 0.08313188702480234
0.1684771607623006 -0.07620885846408836 0.08314238299003916
0.16818820988532351 -0.07528312449193426 0.08316560247696313
0.16797961116215976 -0.07434248944598841 0.08319361415096871
0.16778744958671626 -0.07338281476953688 0.08322264324820218
0.16759797976731539 -0.07243914748697189 0.08323683130808221
0.16739698894595406 -0.07151180316633718 0.08326874292418103
0.16719354428431055 -0.07060887002408826 0.0833228620601864
0.16697910743698513 -0.06976696095945913 0.08339377188817514
0.1667063516859299 -0.0690273464944946 0.0834673607725167
0.16635528860355947 -0.06838818563632212 0.08354601470695339
0.1654370234054578 -0.06665995461510542 0.0829503256106352
0.16552151867608017 -0.0672291534399446 0.08374490554208071
0.16595496111992097 -0.06779735429191523 0.08363852307420921
0.16507870050719148 -0.06605524597232204 0.08307082547199444
0.16481796292532028 -0.06540712605149124 0.08320728978469297
0.16461539292656785 -0.06473999684348894 0.08331814933369706
0.1644379715908392 -0.06410083528992967 0.08339610334313301
0.1642787189426054 -0.06348124446886115 0.08348709952268439
0.16422860374479434 -0.06159238274464191 0.08285531787763988
0.1639792672701476 -0.06226409126093416 0.08366634733606826
0.16412549014890396 -0.06286632788565313 0.08358059883439181
0.16416451724594408 -0.06095776825686327 0.08299279754481335
0.16415259860882536 -0.06027355858687059 0.08312711135411952
0.1641802774687513 -0.05957470039510503 0.08326865127302302
0.16418058291066331 -0.058871018931432074 0.08344222236121149
0.16447073756964126 -0.057344119003373474 0.08298105641380477
0.16415789191692542 -0.05818383460528144 0.08365012234177063
0.16442503639930203 -0.05577025752734763 0.0827073346741726
0.1642272153329073 -0.056714408027798834 0.08331879778949465
0.1641512828783948 -0.054337475072415965 0.08271077253460564
0.1640408703988127 -0.055235476438689056 0.08316467080904963
0.16403312636478007 -0.05289600432371771 0.0826553035035273
0.16382126361093594 -0.053816399783220795 0.08311687882083253
0.16409742095309776 -0.0511661204937177 0.08238110622553746
0.16384539114448415 -0.05221063436974228 0.08299162512988448
0.16412194181494763 -0.050454323957404 0.0823208171148757
0.16384317532138987 -0.050182330230438305 0.0828153152258307
0.16379276558215952 -0.0505806435988901 0.08297503962797188
0.1772614360894969 -0.09732839788840486 0.08404647485541118
0.1769419922250061 -0.09682150278948719 0.08422177100989081
0.17645420339172402 -0.0959812097250962 0.08432628566872596
0.17586345293059408 -0.0950525820147528 0.08436098273227757
0.17524308496786606 -0.09406075865679152 0.0843468264827069
0.17464684078371862 -0.09303993233128102 0.08433203363320493
0.17412856623560116 -0.09201445097850848 0.0843418961052791
0.1736879488580804 -0.09102307327145188 0.08436329136140396
0.17330345965716965 -0.09003347137223482 0.08432232679750133
0.17291764072574375 -0.08899321202445355 0.08428385031477516
0.17249120035385263 -0.08797005241236784 0.08430795152294086
0.1721179712140167 -0.08699212671547213 0.08434990934378936
0.17174936819619377 -0.08602972878764384 0.08442204460243055
0.1714549773345359 -0.08525673382968861 0.08453739687948705
0.1716367296108883 -0.08393063239973571 0.08357970152999898
0.17125010111623015 -0.08421968085310531 0.08431079292490795
0.17128091566079073 -0.08311889589960696 0.08376136893419815
0.1708477305862963 -0.08311808734835022 0.08442181212659611
0.17174457900641876 -0.08310352637136223 0.08319230408261667
0.17091280796096864 -0.08217511538108686 0.08386359953573026
0.17050214422542134 -0.08215459972477317 0.08446584318881485
0.17141120841460059 -0.08219572911571112 0.083244726015235
0.17060333702566519 -0.0814155873159764 0.08394225801701473
0.17019753517851435 -0.08119719589776322 0.08437310740214612
0.1710021294950413 -0.08115491880865884 0.08333043985675598
0.17045451084958446 -0.08051626952160906 0.0836411251297742
0.16985531303576376 -0.08005610008265766 0.08409481546870369
0.1693547803593583 -0.07901659517721014 0.0840637356996215
0.1689236913294353 -0.0780593681373697 0.08404669629396082
0.16855436700392318 -0.07713514124003175 0.08404334273726527
0.16824747612849836 -0.0762129109427743 0.0840555042869071
0.16800401144219262 -0.07528119178254446 0.08408252935101405
0.1677920000342174 -0.07433066402287834 0.0841051618988518
0.16757470307956615 -0.07337021317251012 0.08412451959635982
0.16735051943485774 -0.07242490572247821 0.0841348847291972
0.1671501100790048 -0.0714837942540069 0.0841742620644997
0.16697380796199612 -0.07057724222958983 0.08422906199567598
0.1667645771279289 -0.06974430599806768 0.08429783403204266
0.1664710977591373 -0.06901048921479198 0.08435773522320544
0.16609873444913284 -0.0683659547060073 0.0844377832942034
0.1650937367986082 -0.0666638822165671 0.08386125972527404
0.16522435590844298 -0.06722153315885052 0.084641160280553
0.16567774351989123 -0.06777306616991402 0.08453205035164472
0.16475732611541347 -0.06606134559470254 0.08399798917388333
0.16450537047210273 -0.06542049576739396 0.08412355806637903
0.16429914110784244 -0.06477783107836187 0.0842206109280968
0.16412715734118266 -0.06414222915489816 0.08430946670509187
0.16397470385580315 -0.06351674553739689 0.0843961617639021
0.16387919105895088 -0.06165914560692853 0.08378565089429377
0.1636834846799326 -0.062323336991193586 0.08458376999514264
0.16382210151672932 -0.06291568236284142 0.08447898827035537
0.16382653920142734 -0.06101975124533267 0.08392026501305402
0.16379706609198547 -0.06034602917516587 0.08404031167618446
0.1638096309848733 -0.0596506162548249 0.08417958822560924
0.16380699248861477 -0.058955554430604906 0.08432643630151977
0.16402001470782532 -0.057569467157503516 0.08394417292807715
0.16374819057546552 -0.05833132879124053 0.08451547260874058
0.16390727197213456 -0.05612291546132102 0.08370386261336239
0.16376458386386497 -0.056976408200038166 0.08428589337362832
0.16368573127672442 -0.05471608200855358 0.0836072306223662
0.16357844258210888 -0.05555955320828741 0.08412196614913232
0.1635944788037941 -0.05318260188392829 0.08350376557798675
0.1634010866523599 -0.054112532626324046 0.08401542739022339
0.16361239505872416 -0.051486154326936207 0.08338777366186112
0.16338351257699943 -0.05249245010349564 0.08391009894129467
0.16351973916233484 -0.050149269121259964 0.08350891690504567
0.16339984886631273 -0.0508260351740021 0.08385734071805004
0.16325357025994908 -0.04985197014882361 0.08407852550873093
0.17701354130400135 -0.09712273092400499 0.08452566209063142
0.17661017755616817 -0.09654681012646743 0.0848696079042671
0.17615611253959695 -0.09582094895422177 0.08510688721667527
0.17556516646773504 -0.09493802748172474 0.08517069281804555
0.17496748484525726 -0.0939589615401022 0.08517134695336125
0.17440150933504098 -0.09298260720457224 0.0851644729038873
0.17391910823587334 -0.09197014940464378 0.08517456608258027
0.1734825031356373 -0.09096453325776135 0.08516012991510154
0.17308648535924753 -0.0899494316098869 0.08513044749472333
0.17265828903558178 -0.08893761246429775 0.08510704829357807
0.17223449655201287 -0.08794623215286003 0.08510820002570733
0.17184630104775592 -0.08696913340483088 0.0851261176576057
0.17149835040632058 -0.08602269858647232 0.08515720350084607
0.1711879327836346 -0.08507233233568882 0.08513557194570816
0.17084898517217312 -0.08404850786504985 0.08512306671768995
0.17050643085071304 -0.08304044014154799 0.08514337550856248
0.17015186054734405 -0.08205292014274923 0.08512312802633422
0.16979653146855808 -0.08103515343902096 0.08504273361841455
0.1694172473235746 -0.08000193861183542 0.08497398772025583
0.16902191109019588 -0.07902443696003969 0.08494472940098162
0.16866462940733945 -0.07807344234035478 0.08494004258265185
0.16835246091481415 -0.07712989984493787 0.08495156203596513
0.1680781809000124 -0.07620608503545928 0.0849604014422545
0.16782973394825967 -0.0752712966372402 0.08497257679515724
0.16759118440321372 -0.07431608351904072 0.08498847174819747
0.1673622304526728 -0.07335380042737533 0.08500867617810998
0.1671532068876364 -0.07239628207637945 0.08503335603175438
0.16697872750739523 -0.07145027316936724 0.08508241275159928
0.16679880135692265 -0.07055152859527077 0.08513135272264793
0.16656767764437314 -0.06972610569261899 0.08518450248614938
0.16625465202524334 -0.06899607090059993 0.0852436161992846
0.16586100667403816 -0.06834933861546816 0.08531974933478997
0.16482110176261375 -0.06666006917545388 0.08478102368011764
0.16497535595302804 -0.06721406105911756 0.08554018627786429
0.1654195297033392 -0.06776381993162374 0.08541647860774051
0.16450637689440012 -0.06605898424490056 0.08492434307254805
0.16424355582881947 -0.06544185240196321 0.08502947705774591
0.16404381520903918 -0.06481122384310489 0.08512593978727682
0.16389168373033094 -0.06417388163553475 0.08521908138590084
0.16373363272744576 -0.06355683036577314 0.08529153950187698
0.16356081512328363 -0.06170742307435112 0.08470131206776303
0.16342971444436383 -0.06235934390496645 0.08548671070917327
0.16357778442111984 -0.06295861824551141 0.08537895013280386
0.16348271613341817 -0.06106989507362138 0.08481337959326078
0.16343596991619122 -0.06039952352799931 0.08494086985057567
0.1634305611263561 -0.05968225210693931 0.08506329737814715
0.16345765759766973 -0.05900171558042083 0.08512145754094591
0.16352526881662482 -0.057796973247412 0.08490060784784853
0.1634305643336963 -0.058483247166198224 0.08519388650298419
0.16347806409014937 -0.05639754927817617 0.0846740768014255
0.16335996484187013 -0.05716015848219885 0.08513917289152154
0.1632656989779918 -0.054971580024162865 0.08454706943670481
0.16317311745554544 -0.05580992112770658 0.08511756832714117
0.16317837463838816 -0.053462921265635524 0.08443535161808764
0.16305487621393644 -0.05432336478195009 0.08496626016226375
0.1632134866653077 -0.051772307245249956 0.08435423708128832
0.16299594188739894 -0.05274831216883696 0.08487695468470075
0.1631812453195501 -0.05025040247995834 0.08432376969580531
0.16306399536661628 -0.05108946388960059 0.08482500768044111
0.16304392623148872 -0.04992487496968696 0.0847758326845479
0.1762437716397947 -0.09631448980721118 0.0857180128115195
0.1758806119108102 -0.09576621293768176 0.08598314162145702
0.1753218628047939 -0.09483223387167293 0.08602862187649128
0.17476091775608754 -0.09387504079680449 0.08601149688929031
0.17427007473930334 -0.09293205117764407 0.08604404051596751
0.17379753583168947 -0.09193591765777959 0.08605562846646518
0.1733695867193384 -0.09092449609130342 0.08604218682415532
0.17294890583073902 -0.08991596073686205 0.08601399307078648
0.172501247899803 -0.08891340464345468 0.08598648116636406
0.1720633687418088 -0.08792719138743284 0.08596610222607844
0.17168853680408663 -0.08693922033870573 0.08595986799900182
0.17132662103617793 -0.08596341749562435 0.08594831160263064
0.170981231327998 -0.08497862334681267 0.08593865172049653
0.17061538287203487 -0.08396892437170662 0.08593877662509265
0.17026021783450995 -0.08297408686496535 0.08593132478248898
0.1698973647790465 -0.08196958085049257 0.08591054163335639
0.16954891988391138 -0.08097311566930851 0.08587403009040172
0.16917135101547645 -0.07999363791116287 0.08584728895429314
0.16882641653621702 -0.07901895595009667 0.08583910175998223
0.16853034290324617 -0.07806899431190115 0.08584724115969
0.1682233173367775 -0.07713519528851674 0.08585690616806287
0.16793012531572424 -0.07619496147774217 0.08585959940808618
0.16767622754038142 -0.0752437725798507 0.08586734203954384
0.1674327670373 -0.07428059186125423 0.0858812904144959
0.16720968679089396 -0.07331695065471514 0.08590517456663747
0.1670181753277957 -0.07235378228837035 0.08593813742637743
0.1668425058033137 -0.07141444514527964 0.08598255286291862
0.1666475705905591 -0.07052671494916932 0.08602162794938428
0.1663979140058703 -0.06970832956870515 0.08607510049546761
0.16605951959502094 -0.06898483696059461 0.08612870962996941
0.16565018656463462 -0.0683434350040272 0.0862045718605175
0.16459709027330102 -0.06665235421921553 0.08568464019914465
0.16477217470224179 -0.06721511486603685 0.08642960572447352
0.16520558973839788 -0.06776344252690981 0.08630311817385909
0.16427575265947117 -0.06607910512424518 0.08581097202619224
0.16401378702951155 -0.06547338410622934 0.08592065605321067
0.16382512738185015 -0.06483758490980439 0.08601814192705434
0.1636750011113524 -0.06421415592148953 0.08609344313656185
0.1635269489826388 -0.06360001040507446 0.08617281389409634
0.16328181532386793 -0.06174857541593966 0.08559065537495154
0.16318156406794376 -0.062393377735875326 0.08635640410714168
0.16335668749192003 -0.06298783955546011 0.0862644056677513
0.16316642202532763 -0.06111188947732825 0.0857120669690941
0.16309512523235098 -0.0604183355846821 0.08585064810410811
0.16305664476672016 -0.05962254320455566 0.08598124010364587
0.163222445015705 -0.05890323111572872 0.08569574478706032
0.1631680079866575 -0.05832538864534444 0.0857441209353984
0.16287733228612983 -0.059012105374754195 0.08641889507721644
0.1632135230356173 -0.05771206652355315 0.08552504186885963
0.16307353997828294 -0.05670641861920859 0.08573156402005759
0.1630853499884956 -0.05738825522806701 0.08578830167358965
0.1629359702579095 -0.05512161975567471 0.08552424141849256
0.16284316566803553 -0.055920465857991285 0.08613127172469844
0.1628615173744872 -0.05364665088047826 0.08540241452937915
0.16275111531672887 -0.05442992203872294 0.08592815817170296
0.16289253344844423 -0.052002911695899684 0.08534615760792766
0.16271867051036726 -0.05290930282343169 0.08585806206400032
0.16291784781582627 -0.05043707031056326 0.08526764983151794
0.16278962721037066 -0.05125843053318419 0.08581346346495193
0.16283748781814808 -0.05008565924751877 0.08573312340619554
0.17617199198487296 -0.09714747941824363 0.08700155365890914
0.17605883456552704 -0.09661914786330233 0.0867747866892862
0.1756238653928373 -0.09567832392638652 0.08703767679660611
0.17509903830513165 -0.09462980154083056 0.08676789078209786
0.17468467539700816 -0.093824458562557 0.08692037291362718
0.1742316515679467 -0.09287179696460475 0.08697168278977646
0.17375281556925504 -0.09188636081164192 0.08697941294716391
0.1733167422706009 -0.09089678006729233 0.0869690617667065
0.17285641521511616 -0.0898942330382482 0.08694057251555667
0.172391374654569 -0.08889674177200964 0.08690497562969222
0.17198703078442826 -0.08790535162849408 0.0868739271886454
0.1715975536388484 -0.08691756897126256 0.08684699042191628
0.17122499151216314 -0.0859288982005891 0.08682865545372145
0.17085426634333742 -0.08493010630200232 0.08681525310482512
0.17047242225723436 -0.08392580749777324 0.08680722567922734
0.170111337988849 -0.08293558328384411 0.08679549035029235
0.16976511425096444 -0.08194621253459154 0.08677923167838622
0.16940559459814522 -0.08096432711605084 0.08675968186248023
0.16904885571685865 -0.07998780764037951 0.08674760307473288
0.1687466651771571 -0.07901840200648608 0.08675052729548065
0.16844645625354915 -0.07807398946679175 0.08675536030546907
0.16812237801700947 -0.07713076408400074 0.08675985061154548
0.16782979697046055 -0.07616787288185704 0.0867676183323972
0.16757435739689208 -0.07520771475474455 0.08677430048633869
0.16733867588101783 -0.0742394672216087 0.08679472529257402
0.1671256039054885 -0.07327530385953847 0.08681340402276269
0.16693920424605635 -0.07231445984676477 0.08684549663077559
0.16673770963904333 -0.07139143377155613 0.08687418510398963
0.1665167538944204 -0.07051070894399997 0.08690560706571539
0.16623153901617407 -0.06969870438605794 0.08694622676956221
0.1658740461488327 -0.06897957712302608 0.08699470343570265
0.1654449889400153 -0.0683478665468212 0.087060387696076
0.16439184397682446 -0.0666617461825789 0.08655658030834659
0.1645667153238927 -0.06723895588313684 0.08726052734601109
0.16499897197558572 -0.06777754077385355 0.08715242823113656
0.16406300114062405 -0.06610316706238971 0.0866763030305675
0.16382686822820247 -0.06549836390425998 0.08679944147156714
0.1636417111831679 -0.06487612678565899 0.08688381892344486
0.16348856190725203 -0.0642470349408212 0.08695007775182453
0.163337612094577 -0.0636194267591785 0.08702941775098418
0.1630122494771069 -0.061793891255374135 0.08647415069998261
0.16295568517275125 -0.06242166563342976 0.08721020055649394
0.16315674540534814 -0.06301093866200257 0.08711108844094166
0.16285478297596034 -0.06115081316165578 0.08662010425397981
0.1627538295520338 -0.06046869838878694 0.08678302156722759
0.16265790211595335 -0.059821415679442685 0.0869739343037497
0.16290594462967528 -0.05839988003937894 0.0863556686845796
0.16280310446300814 -0.05811672225876213 0.08661569949465409
0.16268597279534003 -0.058653330744930586 0.08694027480086478
0.16253887161514813 -0.05931619694894835 0.0872695128591269
0.16299681407974526 -0.05789997764923224 0.08608389439906561
0.1628147667652887 -0.05749435727968251 0.08652117616921587
0.16267392698223893 -0.056709923262764056 0.08678693849742716
0.16267447507713972 -0.055171105308157886 0.08651668802029842
0.16255296350825862 -0.05591641351448401 0.08713680669409071
0.16260599408704499 -0.05372888915491427 0.08634760906244328
0.1625207514268798 -0.054444618290509714 0.08684582754154711
0.16262460898444753 -0.0521576870242868 0.08634178949339893
0.16253015626983064 -0.05300594796437162 0.08682846698903234
0.16272480806472647 -0.05057880811420983 0.0862735277374179
0.16260571532394352 -0.05134576836891655 0.08680545751024571
0.16265356347438567 -0.0502412533243437 0.08675859180789121
0.17600835389084057 -0.09721025572773985 0.08778174791492316
0.17610351741838468 -0.09715908453293627 0.08731154563796699
0.17590761165136315 -0.09700497784270588 0.08817980088229811
0.17591253292899356 -0.09675170553143839 0.08768305802976112
0.17580313421380425 -0.09665111720206866 0.08834609067144493
0.17557629906200592 -0.09598964939257636 0.08812801596251055
0.17514778408591022 -0.09483953579889216 0.08780803826684722
0.1746513874462612 -0.09372407041830463 0.08788197638390793
0.1741851906298658 -0.09277261308153749 0.08788242340625944
0.17374936197798652 -0.09183834734567482 0.08790381356300163
0.17326753250383733 -0.0908714317962566 0.0879018345809031
