# .PCD v.7 - Point Cloud Data file format
VERSION .7
FIELDS x y z
SIZE 4 4 4
TYPE f f f
COUNT 1 1 1
WIDTH 791
HEIGHT 1
VIEWPOINT 0 0 0 1 0 0 0
POINTS 791
DATA ascii
0.1679653596706297 -0.05272224479798488 0.07230512384047802
0.18066398367011016 -0.09586125727733123 0.07516619474479581
0.18046240562055516 -0.09518831721067862 0.0749789127929125
0.1800698265195903 -0.094211972005903 0.07488253735219243
0.17952090387813102 -0.09317520765569384 0.07483170011704239
0.17898296167967534 -0.09212761110591897 0.07481753886657246
0.17839857479101975 -0.09112568934555729 0.07477592847846781
0.17785198886096887 -0.09012019546925111 0.07474314355146086
0.17735642534711513 -0.08912244148468401 0.0747053755758686
0.17690785549171548 -0.08809924315108987 0.07469560711005267
0.17648835493405426 -0.08707731282461391 0.07469420742826269
0.17613296692730585 -0.0860718607945975 0.07469294936281125
0.17581167145801735 -0.0850913185842383 0.07467806005375222
0.17550995161105468 -0.08411515480073013 0.07466777514964174
0.17525733957996603 -0.08314119222466489 0.07464889012401954
0.17501873299218543 -0.08214777022715225 0.07464292624224055
0.17478485312578565 -0.08112325375305227 0.0746646630551424
0.17454643017677018 -0.08010871400703151 0.07468692703673298
0.1743213450462097 -0.07911115736829573 0.07472584638929863
0.17406170549670988 -0.07816568919440046 0.07475719418065008
0.17374888776784722 -0.07728036084789967 0.07481242215489639
0.1733812869525111 -0.07647807449070937 0.07488813333003341
0.17293340536401844 -0.07577769834817637 0.07497982210905084
0.17231927748665019 -0.07461453601655853 0.07454983849870013
0.17247868836745953 -0.07521797055112844 0.07511226064995048
0.17168380662369975 -0.07330791843949398 0.07421943411191914
0.17180948374651658 -0.07409664963132077 0.07489659923700698
0.1713044166500947 -0.0725636675339253 0.07446739455742443
0.17103686375035 -0.07171761366319683 0.07459012799736195
0.17083591520179658 -0.07086092040870914 0.07467504010575872
0.17065004761655228 -0.0700370887047929 0.07471728194698055
0.17042830637208495 -0.06927279828793827 0.07475419476730988
0.17014649128984277 -0.06857706612782542 0.07479226428527111
0.16954010889864138 -0.06660814749367097 0.07408326247514564
0.16944554760220132 -0.06729549515636507 0.07496287820733036
0.16981485245894382 -0.06792925255519251 0.07486454560213772
0.16924902274133102 -0.06592836749164263 0.07420629638083782
0.16901893563445056 -0.06521020785737668 0.07430349122324606
0.1688290603160445 -0.06447849392359073 0.07439830466516875
0.1686702847739181 -0.06373929339006701 0.07447992478505208
0.16851573398357536 -0.06301827480996763 0.07454550543942084
0.1683482405517294 -0.0608899264607692 0.07378077686735852
0.16813430525853285 -0.061644995123499746 0.07470597623656054
0.16832038765705049 -0.062326435757935617 0.07462154724595098
0.16820696482410286 -0.06019044123443803 0.07387997687955014
0.16811546637507416 -0.05946930951384199 0.07399708683785368
0.16807083771261794 -0.05868547085937246 0.07409961592612242
0.16806227587068515 -0.05786125216209467 0.07423644104944122
0.16837176436896964 -0.05616913799614559 0.07369289827201676
0.16804072285280539 -0.05704307801585664 0.07446071606411794
0.16834735319995012 -0.054418252723006946 0.07353953182814887
0.16828596907703933 -0.0553829294515184 0.07407963246269193
0.1680611891262456 -0.05307016711965334 0.07334147499136046
0.1681872500164166 -0.05360498123960311 0.07365191636292312
0.16794749302289685 -0.05271738238305708 0.07303646146564709
0.18063469078669775 -0.09635805258517736 0.07574628389326413
0.1805145198705675 -0.09596876640528326 0.07576425977847331
0.18015649305952358 -0.0951439546244286 0.07577879474188053
0.17965643931398312 -0.09414654570358187 0.07579099691643472
0.1791256335072505 -0.09313463377110152 0.07578176395624919
0.17855492998902403 -0.09212636974586169 0.07576158016478889
0.17796768424953235 -0.091124961155847 0.07573273823549732
0.17745638209247624 -0.09013209283378437 0.07569909628357215
0.17698711888093083 -0.08911415116874481 0.07568348739472551
0.1765841188787115 -0.08809012396946458 0.07568283671262074
0.17620437586167575 -0.08706660398459444 0.0756930777356245
0.17584126887008378 -0.0860690286372579 0.0756876841524886
0.17552583073108008 -0.08508676287253457 0.07568092150735324
0.17525962034233633 -0.0841266320355821 0.07565488631281661
0.17498133170527488 -0.08315913776763123 0.07563225331352572
0.17471526752896388 -0.08215762014066266 0.07563896373900296
0.17448286590081585 -0.0811257730744109 0.07567011748937646
0.1742432035700511 -0.08011713797225864 0.07568392009104521
0.17398002595264284 -0.07911899667807451 0.07571323007104529
0.1737125397168786 -0.07816697861845434 0.075738111676362
0.17338767556437662 -0.07727875601481311 0.07577061981801665
0.17296513165933816 -0.0764651498590863 0.07578795696322085
0.17252606028182932 -0.07574585834680496 0.0757415994741284
0.17200499431478447 -0.07483568246003829 0.07548614290200595
0.17226665185906503 -0.07529450475201178 0.07564777351177096
0.17127901025133305 -0.07355711725893277 0.07541566425415237
0.1715482724559838 -0.07435384628297234 0.07570881506530187
0.1708800127968291 -0.07263414483339439 0.07553868168441454
0.170642404313586 -0.07174872244866504 0.07561724833663164
0.17046058645691411 -0.07088263190119896 0.07566970988565942
0.17026413232932963 -0.07005660182094889 0.07571089470222886
0.17003756230232533 -0.06929024099626252 0.07574979451525415
0.16975625772480943 -0.06859819517779485 0.07578579158563721
0.16910054373013916 -0.0666509466970454 0.0750703472022582
0.16902046942475765 -0.06732321260597003 0.07597181851949934
0.16939338577437266 -0.06795579961175162 0.07586628688828946
0.168798875293061 -0.06597380477399657 0.07518713821340248
0.1685708793184363 -0.06526095107918188 0.07529269790855779
0.16840693646448945 -0.06452913519727453 0.0753902803076104
0.1682506863006379 -0.0637975619502411 0.07546901758096475
0.16808502111935447 -0.06309126337170073 0.07555381814825993
0.16796139470331767 -0.060956228774413625 0.07479586343065352
0.1677115344843475 -0.061719747336943374 0.07571968789951683
0.16790306456899073 -0.06240399677827948 0.0756447732315244
0.16783510130958926 -0.06025075743335687 0.07490362711441372
0.16777290364071906 -0.05950326473677047 0.0750136794569282
0.16772221908019225 -0.05871510906906527 0.07512951821973923
0.1677085485570791 -0.057904100965922856 0.07528562093790192
0.1680550470035179 -0.05622723762355094 0.07473664267664452
0.16769222535653228 -0.05709970640979124 0.07549566745401771
0.1681676704873423 -0.05476921033413659 0.07452457420662989
0.16804013449518715 -0.05547872609089725 0.07506766970146153
0.1680237577743915 -0.0531796077574657 0.07412377056915395
0.16807626794386468 -0.053858662417715614 0.07461434255344383
0.16784260162030565 -0.052563888973201474 0.07443394944677274
0.16795767704485395 -0.05307546573006099 0.07473029045319593
0.16771075992050588 -0.05208986280290168 0.07470872042086607
0.18040118404070496 -0.09639983926404723 0.07635785099497382
0.18013894937703293 -0.09590718348921261 0.07657262470933908
0.1797243421944349 -0.0950297700984668 0.0766751053244155
0.17925020267001565 -0.09404719996271983 0.07670504521139411
0.17869712642989116 -0.0930594794425892 0.07670014076550721
0.17810315751470537 -0.0920693133513952 0.07669325035250874
0.17757740619949922 -0.09107315353611427 0.07668993567955278
0.17710451024521368 -0.09008889584344665 0.07666870184154652
0.17668663720622169 -0.0890706072148352 0.07666755666347533
0.17630023245143348 -0.08804801322649364 0.07667329933681818
0.17592892615331038 -0.08703854392788699 0.07668388782283446
0.17559445114470187 -0.08604720973753088 0.07668665368954601
0.1752902949948798 -0.08508431177651497 0.07667089896102369
0.1750159506603034 -0.0841325338167677 0.0766457397769668
0.1747189974128294 -0.08316550932528084 0.0766307847068341
0.17446046715600538 -0.08215685537200251 0.0766449076653074
0.17422372402902594 -0.08114024075047993 0.07666135155992897
0.17395655373239377 -0.08012558100318035 0.07667685757801994
0.17368429067125205 -0.07911977591742661 0.07670452113475919
0.17337998811992672 -0.07816957596067194 0.07670638539244097
0.172965468878602 -0.07727700953233707 0.0767031842924544
0.172419994060355 -0.07637510269201642 0.07670182817733684
0.1720340343433598 -0.07545506617699449 0.07624322143383516
0.1715961170201177 -0.07530163049174382 0.07670747805510233
0.17174376127156163 -0.07585861555379499 0.0771670163631449
0.17160295576419746 -0.07488380425693038 0.07623336306456448
0.1711400476581153 -0.07439422403831399 0.07648366777203768
0.17132548571353387 -0.07498810066593066 0.07677353134393843
0.17075611385016443 -0.0735355025143184 0.07649441153286773
0.17046972806569116 -0.07265789333500247 0.07655907089710198
0.17026126536886416 -0.07177115433053206 0.07661512278743783
0.17007886954605786 -0.07089739808364584 0.07666048716268248
0.16990789639648018 -0.0700665012314897 0.07669345871258365
0.1696798928169244 -0.06930253832077862 0.0767270170647795
0.16936941995141397 -0.06861210078213854 0.07677581736004656
0.16867044513070442 -0.06668287707736673 0.07607903917201114
0.16862824994478903 -0.06733955775700139 0.07697376382557268
0.16901217560195925 -0.06796895388059919 0.0768671566726598
0.1683744284536512 -0.06600555461720671 0.07620364808658892
0.16816271565225113 -0.06529346992547604 0.07629940454217918
0.16798344372965227 -0.06457340079322979 0.07638546127318896
0.1678215272595955 -0.06385351203152567 0.07647380101791484
0.16766232450924543 -0.06315182343611184 0.07655297666032092
0.16756055791622876 -0.06103677736701611 0.07582359209786008
0.1672934601560742 -0.061794532618899715 0.07672944402334145
0.1674757250831799 -0.062471073355874256 0.0766365747746615
0.16744219449627165 -0.06032021318971356 0.07592911765167434
0.16736842038460836 -0.0595669689169547 0.07603024592112582
0.16731886228770082 -0.05878728116216869 0.07616317297345658
0.16730778114090966 -0.05798361817397369 0.07631748607436832
0.16769274557831226 -0.056315723561172 0.07575413491235397
0.1673201506053442 -0.0571939968682708 0.07652066626396752
0.16796853680753343 -0.05473752279851951 0.07535223779847829
0.16771431200246015 -0.055536791521571545 0.07602616042406567
0.16787641301740397 -0.05411562109355199 0.07564824139929004
0.16786163961915776 -0.05278750291458017 0.07507631260701557
0.16785591290737437 -0.05330538254702612 0.07553803339484141
0.1676717236480428 -0.052087263383161546 0.07522113074908872
0.16770071790407023 -0.052515977000027365 0.07571155426799883
0.1799883097592212 -0.09634838920824901 0.07718726504388278
0.1796762421835672 -0.09579869984702752 0.0774828789878648
0.17928734144082073 -0.09487560208220464 0.07756059851437208
0.1787771063392819 -0.09390399877123604 0.07755634258108116
0.17822054943605972 -0.09293663380236132 0.07758314831658522
0.17771610658596762 -0.09197694416044921 0.07760274393632115
0.1772145825978538 -0.09100735225458995 0.07761363778110274
0.1767835573285741 -0.09000560043546763 0.07762428168953717
0.1764056850226598 -0.08899718113647404 0.07763315690996164
0.1760392501666366 -0.0879838217105194 0.07764721623608983
0.1756797028943509 -0.08698972307415705 0.07766073931626608
0.17535646815806835 -0.08602090347724575 0.0776618217752101
0.1750731157603924 -0.08507773768258338 0.07764797078478847
0.1747863444866168 -0.08413150378274702 0.07763156726336704
0.17448407327097062 -0.08315425392355112 0.07763349850659217
0.17423697180425105 -0.0821431811706236 0.07765011854594771
0.1739744838000596 -0.0811347359705415 0.07765645490685726
0.17367767329515912 -0.08011229742693196 0.07767335095488952
0.1733758914337387 -0.07912172939089118 0.07767224675309982
0.17300539375117066 -0.07818095128244944 0.07765468290979685
0.17254259397002303 -0.07731400898146636 0.07763495716947792
0.1720298071905033 -0.07664144788506051 0.0776981306635078
0.17136901136481822 -0.07535888834527707 0.07713645344055424
0.17105105390153 -0.07501877751941381 0.07730500397294492
0.17124848197355821 -0.07566048289046165 0.07772903413517794
0.1715661240931637 -0.07628167558527017 0.07798594999235317
0.1706588935090487 -0.07439517081125652 0.07740578181767462
0.17029894780592614 -0.07356804798827672 0.07747954282646588
0.1700568264883173 -0.07268458217102353 0.07754047415797956
0.16988560808188255 -0.07178818993089221 0.07759092106123508
0.16974094414721785 -0.07090532755325403 0.07763101824139765
0.16955378010746203 -0.07007173170818799 0.07766202493412694
0.16930818863184258 -0.06930502286476717 0.0777073234607575
0.16899062153937117 -0.06861275592377343 0.07776796783318209
0.16827744676793685 -0.06669892637231761 0.07709267380040741
0.1682176174047877 -0.06733982942034822 0.07797558411982122
0.16861206201223805 -0.06797177895295295 0.07786118196541755
0.16799957492562584 -0.06601888303204052 0.07720567198009723
0.16776882546780933 -0.0653233705529197 0.07728892419325417
0.1675822322872032 -0.06461998764669362 0.07739145649109566
0.16740703688085962 -0.06390721319308865 0.07747735028652032
0.16723376634998235 -0.06321345886337759 0.07755102219863692
0.16715406059384974 -0.0611037004884509 0.07682385205062642
0.16690373211317602 -0.06186454571518446 0.07773662817670123
0.16707210123220115 -0.06253815257532086 0.07764375089152518
0.16702659412912774 -0.0603926811974847 0.07692517060141729
0.16694410895503034 -0.059647393013577805 0.07704012551749
0.1669162614914626 -0.05887287804806547 0.07717500461770117
0.16691980845947602 -0.05808961298581218 0.077340329531576
0.1673298284417518 -0.05640848227457449 0.0767598009053931
0.16693327773372174 -0.057302902093869255 0.07753745761932432
0.16770613157527176 -0.05478979954344145 0.0762950684837027
0.16737022916959274 -0.05561428199186695 0.07701046572467361
0.16765074611268 -0.05401817246120826 0.07648216421920753
0.16757244949553082 -0.053189790160852304 0.07664013751004035
0.1675140989219195 -0.05208522602431204 0.0763114814158536
0.16744744990765453 -0.05247519203153334 0.07696366069162244
0.17951129055700082 -0.09650013959120848 0.07821677382873081
0.17912207756975618 -0.09566513823572083 0.07849473683811052
0.17883731518459045 -0.09461174138355982 0.07826513552672594
0.17835074575631946 -0.09376643237335103 0.07837635631574365
0.17783087209570744 -0.09281547861695706 0.0784173751831951
0.1773153158120214 -0.09188089146900957 0.07846942661915966
0.17685606337731014 -0.09090079962959853 0.078510631025093
0.17647249314437272 -0.08989935478610764 0.07854358681265945
0.1761027005363784 -0.08890570763347877 0.07855508383474022
0.17575541090165944 -0.08790684364139154 0.07857589098054854
0.17542895128323482 -0.08694049399013276 0.07859273349466825
0.17512988730855378 -0.08598939855178794 0.07860099069631656
0.17484516473519834 -0.08506020763526347 0.07859391574241727
0.1745432365858174 -0.08411220987936673 0.07859535017379826
0.17425643627049678 -0.08312528324104561 0.07861179707587501
0.17399881690681365 -0.08211695566225542 0.07862822609195798
0.17370124653615915 -0.0810971464567972 0.07864175378547686
0.17340192506746308 -0.0800791446531618 0.07865335849578081
0.17305791318548236 -0.07911238310064254 0.07862601704465227
0.1726072532770744 -0.07818584492884091 0.0785887692192273
0.17207400996143438 -0.07732254096246756 0.07848675821235557
0.17178051063385044 -0.07677449810148437 0.07826678825686202
0.1715045841724118 -0.07667874524996719 0.07859949931487403
0.1717473055650929 -0.07699651274511847 0.07861199184603464
0.17070658193954405 -0.07533790586877248 0.07827415448013596
0.17114350097427455 -0.07614090637017878 0.07850058730572929
0.1702190228071266 -0.0744837741833848 0.07838212774101559
0.1699024612631008 -0.07361289437236868 0.0784576383089006
0.1696936006467017 -0.07270830369298928 0.07851150680821242
0.16953377571682254 -0.07179967764406074 0.07854900118245588
0.16939848622579048 -0.07090947490672857 0.07858045341560042
0.16921408983174763 -0.07006919129885766 0.07863430609763108
0.16895642741613465 -0.06929746399644338 0.0786928681788496
0.16860464500213262 -0.06860918409639742 0.07875526221913155
0.1678701926919762 -0.06669516230586817 0.07809986324413834
0.16780914294349614 -0.0673270828422992 0.07897579012914216
0.16820872964378566 -0.0679604879469784 0.07886231324229023
0.16758983234516714 -0.0660177681801956 0.07816698323522993
0.16737464567448 -0.0653482083115286 0.07823497345225294
0.16718342528014857 -0.06466977559569541 0.07835923596218376
0.1669908174831714 -0.063965851654271 0.0784648940071295
0.1668235848608422 -0.06327029149386526 0.07854955423237077
0.16674574299239855 -0.06118537528452564 0.07782622950085452
0.16649653918775967 -0.06194216971439432 0.07872797849154556
0.1666757338893302 -0.06259750250877749 0.07863214774066976
0.1666306815640538 -0.06048456767944183 0.0779401998723518
0.16655103930383175 -0.05974280666008091 0.07805213329351178
0.1665477785702504 -0.05898238906445736 0.07819275920082594
0.16655723137364178 -0.058209635069365336 0.07836552482135227
0.16696221478546774 -0.05652337395121053 0.07777261153784992
0.166583219207863 -0.05742794120355194 0.07856143055821785
0.1673862178956288 -0.05481894001140989 0.07726070035474632
0.1669710623313141 -0.05572858020146907 0.07802654743688145
0.16733442529331008 -0.05400695370572091 0.0774872838676076
0.1672408998597768 -0.05320779756634063 0.07771646757923649
0.16725700193424328 -0.052100371551029104 0.07746409172146128
0.1671421355914333 -0.052525227432876444 0.07802600156475649
0.17909033322456264 -0.09723755077164255 0.07941632518080038
0.178753237883998 -0.09715292327439054 0.08007283553872911
0.1793185429418428 -0.09704677212605724 0.07887973375575628
0.1789310799530033 -0.09706114407305938 0.07965260947981927
0.1791347468902309 -0.0967333555473843 0.07910438081539257
0.1788781130344655 -0.09670390806849495 0.07958782131733821
0.1786984058711762 -0.09600695374724506 0.07952991162339913
0.17840190839018738 -0.09468351012813529 0.07921177786214145
0.177951352591544 -0.09356757816784841 0.07905072627928691
0.1773817099669425 -0.0927327470324422 0.07922835606234782
0.17689106509403488 -0.09173740933291732 0.0793038418899925
0.17646946153715803 -0.09076560121315162 0.07936509247833792
0.17609740252271763 -0.08978103022408052 0.07939502436794547
0.17577463105201455 -0.0887965550492656 0.07939625310012083
0.17546649226855657 -0.08783506692624624 0.07943883002473752
0.17515866200311095 -0.08688024209332294 0.0794617632878605
0.1748724197099159 -0.08594075156601799 0.07948627240415342
0.17458380037137597 -0.08501662256715005 0.07950388219809608
0.1742721292926223 -0.08404498691101994 0.07953752211341782
0.1739996344776457 -0.08304946833906574 0.07956317867406218
0.17371612428202945 -0.08204681916925277 0.07957683459567283
0.17341548612948698 -0.0810331211674499 0.07958671937987881
0.17308682569643755 -0.08005008839079722 0.07957674026673196
0.17267787036067275 -0.07910501861762945 0.07955121174202559
0.1720929370870232 -0.07816241463073859 0.07954315925921246
0.17162344765445006 -0.0772376081351143 0.07912948246931603
0.17125955271958845 -0.07713689194737919 0.079569967692386
0.17146281195109966 -0.0777067455613031 0.08002931191105415
0.17119680488304218 -0.07670712819017055 0.07911639074244767
0.17070419569522863 -0.0762370935130331 0.07930273407109897
0.17096916729165876 -0.07684540972234415 0.07961200176097356
0.17020201664428164 -0.07540305278984853 0.07930173064013896
0.16981035528475077 -0.07454558803137495 0.07936037859652201
0.16953428958736164 -0.07365066918043763 0.07941715873388781
0.16935002787134001 -0.07272994972802922 0.07946325209893482
0.16921725978093338 -0.07179878333224662 0.079500181387535
0.16907736176963126 -0.0709002578527799 0.07953524658683922
0.16887321274339906 -0.0700578699353848 0.07959505029728974
0.1685913633147641 -0.06928707857795069 0.07965543368123257
0.16822716779220176 -0.0685917437498743 0.0797353792629499
0.16740649475475944 -0.06667326426819253 0.07916844959628043
0.16743930817921024 -0.06732921766432408 0.07987883078203441
0.16781564738712318 -0.0679286799137008 0.07984042221639089
0.16722618471703515 -0.06597042505888004 0.07897524363628756
0.16698999884578256 -0.06543295964258723 0.07919541383467067
0.16677272260535167 -0.06473167231968391 0.07934455727510964
0.16659757645065837 -0.06401625920430118 0.07946422780353785
0.16643086331404416 -0.06332350893961426 0.0795419446895591
0.16634315603592736 -0.061271862744722363 0.07883112358400635
0.16611654550736782 -0.06202071302734182 0.07972827930997653
0.1662671346532244 -0.06266696638391636 0.07962313698358961
0.16624593641475977 -0.060573048099463345 0.07893674281093592
0.16617810698197294 -0.05985300531349341 0.07906457477614012
0.16617326566269722 -0.05909996891381464 0.07921106568063667
0.166197579770747 -0.05833862507709437 0.07938675682620074
0.16659327032025162 -0.0566508345166409 0.07879849714495302
0.16620274893050585 -0.05757005518825498 0.07959280032511618
0.1669971781498615 -0.05489372464294466 0.07827581436669517
0.16656827978711192 -0.055840079824102364 0.07904518303419267
0.16695740881022145 -0.05406388938486664 0.0785119691113814
0.1669054651838051 -0.05325759724292293 0.07864533870785077
0.16683327247939417 -0.052096432131352476 0.0786813659770602
0.16685738834596658 -0.052668978145050886 0.07878354171120543
0.16644316851067273 -0.051489167603536105 0.07926921386727262
0.17864681369723925 -0.09669210575334106 0.08004891989506481
0.17815973179108605 -0.09660406633892298 0.08104802227533776
0.17829971369011877 -0.09594415165834015 0.08030501413997432
0.17830589099251262 -0.0953227350412854 0.07989241348074322
0.17800329630422213 -0.09522612684746933 0.0803353369889767
0.17800319159391023 -0.09471795639752076 0.07998894084141714
0.177599667358311 -0.09377934114504333 0.07986833957295957
0.1768381437346372 -0.09255801428034831 0.08012710066488556
0.17648176791757392 -0.09151193169069641 0.07998685666972234
0.17597528351681105 -0.09064761938106439 0.080303815276303
0.17575325074963696 -0.08955631721792154 0.0800519460560685
0.17542263806598501 -0.08872214100979373 0.08018704605110488
0.1751170710992156 -0.08773507622541106 0.08022131151593773
0.1748667172614208 -0.08680563116733447 0.08024036072119281
0.17458594790417123 -0.0858994067826292 0.08030129295474686
0.17427232870500592 -0.08494843478505004 0.0803597775468178
0.1739662759465428 -0.08395063940597854 0.08041925745567874
0.17369791099940454 -0.08294641442122964 0.08044643839552552
0.17340730943447755 -0.08194118005297123 0.08045773916376
0.1731034783630298 -0.08095127697125719 0.08046537018912969
0.172734777392212 -0.08002123631304166 0.08044814700210554
0.172289971158406 -0.07914863114082592 0.08044453447167686
0.17181312378445754 -0.07850792621386055 0.08052999056409774
0.17106677691028577 -0.07722985995073393 0.07997917597008167
0.17069760893769453 -0.07691593244170702 0.08012443383903667
0.17097312214047766 -0.07757697418370887 0.08056382331398633
0.17136509371957803 -0.07820229841852286 0.08082335261139274
0.1702280599143084 -0.07629334926857174 0.08021916370407256
0.1697783653829165 -0.07547879349971248 0.08026625384845375
0.1694331239839886 -0.0745984245489471 0.0803180159405453
0.16921116248044862 -0.07368293847049333 0.08035550143861027
0.1690461493198629 -0.07273937812964694 0.08039734045397408
0.1689178303405541 -0.07179123155489213 0.08043908614459108
0.1687613736389681 -0.07088855998388255 0.08048350796366431
0.16854752871526263 -0.07004066926683723 0.08054862978415511
0.1682582427108344 -0.06926696272940958 0.08061931621381142
0.16787026287099224 -0.0685612799297677 0.08071754444333774
0.1671763545459433 -0.06692332994638453 0.07998739468588234
0.16718758929095512 -0.06726370302706644 0.08041998000500981
0.16737754466753943 -0.06780902322838812 0.08088786178451352
0.1669434247664791 -0.06632892873707563 0.08001666078407654
0.16700762209657916 -0.06694188047927559 0.08046238856706187
0.16659808826047856 -0.065504882301693 0.08019845436187174
0.16638191852107817 -0.06476402461341388 0.08033195736625592
0.16620974616647038 -0.06405731354208646 0.08043797418335025
0.1660248437700044 -0.06338341953111867 0.08052674651250975
0.16597152229957424 -0.06135750247742296 0.07982555165405124
0.16573138718400915 -0.06209238439031957 0.08069858088510691
0.16586736644076533 -0.06273076170361304 0.08061217115660242
0.16586722565365689 -0.060678864058994156 0.07994012293344159
0.16581816761075954 -0.0599675978201289 0.0800806291669148
0.1658158302572661 -0.0592220245585784 0.08022588095866767
0.16585675918540205 -0.05846739164730627 0.08040419393344407
0.16619395438646423 -0.05678050029227282 0.07981482424416213
0.16585015695863053 -0.05769694346623782 0.08059955879552558
0.16654800475946338 -0.05498962766849037 0.07929756296826782
0.166124116128311 -0.05598752285267649 0.08007552705023896
0.16649360735580931 -0.05404907831720776 0.07951204792325557
0.16661075563390568 -0.05320135668331823 0.0792598071447973
0.16650414804121347 -0.05265986998105455 0.07938636339547117
0.16624723076662207 -0.05345503787790922 0.07992004167769697
0.16636415588860506 -0.05199783134975776 0.07949511004830448
0.1660831509020648 -0.05112752757025764 0.07976748468745092
0.16620268919604259 -0.05148228054244675 0.07969218253543756
0.17801811979592289 -0.09719019595564898 0.08196322358137524
0.1778168636949757 -0.09688696143484656 0.08207417515861991
0.17777954575366806 -0.0955114898623508 0.08089840183236505
0.17739648040050343 -0.09584359498094723 0.08185068734421322
0.17714890454285198 -0.09466727122253403 0.08127161140073244
0.17661094475217412 -0.09459830289179151 0.08209774632120931
0.17757396500875447 -0.09457941412087195 0.0805353574377307
0.17666989641230596 -0.0939005199270632 0.08144623323751898
0.17697564218471745 -0.09362311012419479 0.080781503042562
0.17645496589385465 -0.09322356788650882 0.08126676513668096
0.1764639466322671 -0.09273107481731017 0.08086701253979689
0.17617341671742853 -0.09181541573455944 0.0807116834391835
0.17582273180209348 -0.09118789247393508 0.08092913379366798
0.17557321377763135 -0.09113389358164924 0.08132125583289326
0.17577521534477566 -0.09162900486027442 0.08126421059839149
0.17561172427721963 -0.09067070741234917 0.08098770798376802
0.1754140154852029 -0.08976353733704236 0.08083556062479057
0.17494321158881332 -0.08855322372867966 0.08101675334566287
0.1748001666632271 -0.08753457809556622 0.08082315054320334
0.17452173263687096 -0.08677693820921306 0.08096158351531396
0.1741974683039316 -0.08584001021955232 0.0810602406178825
0.17388623759081295 -0.08485329891413958 0.08114947146831217
0.17357040856575817 -0.08382134360734818 0.08122388256382664
0.1733061578608349 -0.08279786203668704 0.08122431425312629
0.17305007325841804 -0.08183017698704717 0.08121869890654936
0.17272803970399533 -0.08090328980565857 0.08123946078070635
0.1723173332081579 -0.0800005836346649 0.08123608887730611
0.17187911324741081 -0.07919027759526595 0.08121559188940039
0.17162310598863956 -0.07869112606802335 0.0810702139597723
0.17134742432223013 -0.07864377526702908 0.08139257148439168
0.17160896685601737 -0.07892153920138366 0.08137498348501795
0.1704012464407873 -0.07729622705249128 0.08110211131046276
0.17091758058114503 -0.07812674450169659 0.08133765508678933
0.16981331435175037 -0.07642374459283392 0.08117916008672495
0.1694098560630145 -0.0755468211833582 0.0812183658166069
0.16913466580516937 -0.07463790123545855 0.08124863706302315
0.16892636799107288 -0.07370003805172513 0.08128197552996988
0.16876819425895076 -0.07273220499115537 0.08133235904665446
0.1686349863913918 -0.07177566315098308 0.08137526993653386
0.16845486969238121 -0.07087331752477949 0.08141868612124992
0.16822897940125583 -0.07002349320783374 0.08148544317252811
0.16793384367399436 -0.06925767685245653 0.08156526518811565
0.1675706515362261 -0.0685827328999783 0.0816870700712244
0.16704105623099252 -0.06727547001508716 0.08089693974782955
0.16678302879783372 -0.06686020602852297 0.0810057330776808
0.1668993637297537 -0.06747839895699959 0.08171432682768853
0.16722450620696003 -0.06809604305213393 0.08190465176615541
0.1664879480521255 -0.06621942995458721 0.08107039634807736
0.1662156690937841 -0.06549753117363104 0.0812051202066758
0.16600284392126902 -0.06478777713120372 0.08131040139164847
0.16581188345320347 -0.06410594206804483 0.08141276361109569
0.16564393055484727 -0.06344079995781086 0.08151105269519002
0.16558010082154717 -0.0614542133481128 0.08081169651261506
0.16533436527809148 -0.062175487635497045 0.08167346681549138
0.16548747677061892 -0.06279654553778756 0.08158525712169738
0.16548152841242905 -0.06078131920357068 0.08093723801291065
0.16544631530098033 -0.060078932406053935 0.08107490502290313
0.16545136329557203 -0.059352812868423054 0.08123198661259658
0.16548781133144297 -0.058596985803631964 0.08140088033830514
0.1657919499477443 -0.056927547471224256 0.08083348448632498
0.16546929684261888 -0.05785464874310212 0.0816078280840479
0.1660493996641207 -0.05511496724171259 0.08032501003267184
0.1656627882488494 -0.056128246211611055 0.08110650577483744
0.16599432965263314 -0.054244957278596705 0.08048439605819775
0.1659460162805016 -0.052841920578233094 0.08025596459522844
0.16593015102389277 -0.05364336454506215 0.08047073733513437
0.16603900171302483 -0.051961483871549835 0.0800159421034882
0.16573873217624566 -0.05155270058295169 0.08037913945965751
0.16577378691978367 -0.05226398491826304 0.08044167668434422
0.16568060083609612 -0.0508483519843802 0.08030487469047139
0.1653584596781937 -0.05055924696864877 0.08070626863663447
0.17776781323531968 -0.09739786015716478 0.08275011092777651
0.17742637950138335 -0.09670668611906426 0.08275121356499487
0.17686831961677227 -0.0957091625878004 0.08278665536528235
0.17631578695495667 -0.09486014394700125 0.08291802925111373
0.1761909250704256 -0.09343520697038986 0.08181947036891835
0.17588158071628252 -0.09376643638019748 0.08265293811391178
0.175716885688307 -0.09276332852706588 0.08209024870713355
0.17528568109523185 -0.09260504816776087 0.0827193311650833
0.175980753919327 -0.0924455304215493 0.08141637465034988
0.1753676410421934 -0.09162779975134674 0.08190149446229862
0.17477383862928333 -0.09149203732251594 0.08277953179092022
0.17480083925621004 -0.09054769963334826 0.08216669398198063
0.17429823804281894 -0.090376382839544 0.08291145223649996
0.17525807345949787 -0.09055367076799484 0.08148522864869635
0.17448179648237785 -0.08976802392830464 0.08228693423321752
0.17483245761407692 -0.0895716024997441 0.08166416847924732
0.17445106692443035 -0.08915858481563917 0.08208649269382451
0.17458102816400936 -0.0887106705672491 0.08170238173058848
0.17444662854825965 -0.08777684697802185 0.08152693650688825
0.17406158573120076 -0.08672922655271345 0.08166987392906074
0.17373615021021396 -0.08572993845334041 0.08178923824797826
0.17338861749757284 -0.08470997448993232 0.08190501003565336
0.17303448073170175 -0.08357062792677462 0.0820241729526107
0.1729301990666805 -0.0825636423618907 0.08180014922496302
0.17263945242137269 -0.08177697762521852 0.08190752100621351
0.17226951950643896 -0.08084556344004848 0.08194550025881707
0.17182075309936076 -0.07992841813341639 0.08196426569929341
0.17150674819689612 -0.07918547380725767 0.08179028016740307
0.1712324204509699 -0.07935740262414707 0.08234129213122267
0.17150514651204862 -0.07959464342170751 0.08220268998346883
0.17105600526779283 -0.07877048339080389 0.08193845310356823
0.17048287855892638 -0.0783243278397012 0.08218937247611711
0.17084744815593028 -0.07906866025497833 0.08251164710017818
0.16988574824500333 -0.0773945505699581 0.08212925143408815
0.16942426165577776 -0.07648925962128504 0.08214753886809642
0.16909935029147946 -0.07557908332342765 0.08216580783070021
0.16886008502564723 -0.07464426240737349 0.08218770859315844
0.16867693139057027 -0.0736815010506647 0.08222179997931367
0.16851847262655115 -0.07271094535617018 0.08226111197376533
0.16834756458598882 -0.07176734727874017 0.08229149717214983
0.16815335211875282 -0.07085993511749514 0.08234372763757973
0.16792445265240585 -0.07000753203714352 0.08241922841731691
0.16764577913781292 -0.06925099699053283 0.08249816174205263
0.16730445114088968 -0.0686132482089385 0.08259566380022484
0.1664554769606754 -0.06684215264466073 0.0819045003823802
0.16651991500271804 -0.06742586270208686 0.08274277008108823
0.16692965124613954 -0.06802686273864735 0.08266384236819849
0.166119465395392 -0.06619186376902939 0.0820361690199566
0.16583744458630856 -0.06551087798350645 0.08216176980779867
0.1656153930362245 -0.06482219730345766 0.08227053465446317
0.1654332525639884 -0.06414786409841235 0.08236778525599706
0.16526182049066107 -0.06350105263491027 0.082453158036479
0.16521137209732747 -0.06154243669192483 0.08179467975598764
0.16494238319511945 -0.06224742604649367 0.08263191157184088
0.16508836190111287 -0.06287281205537244 0.0825398541466393
0.1651151824371751 -0.06087958956569534 0.08191762898647405
0.16509326090722395 -0.060186978206321726 0.08205771748814045
0.1651000130501865 -0.059461628840119234 0.08221040818525428
0.16510949360646493 -0.05872796965454371 0.08237973299654476
0.1653639988874012 -0.05711441115768552 0.08186219768038275
0.16508241451166084 -0.05800386198877316 0.08259328759874593
0.1654565814148913 -0.05520332743047726 0.08141383688551362
0.1651987111254196 -0.05637112788211058 0.08216734590863425
0.1655093810181749 -0.05392004272799315 0.08110762707121587
0.16502969305725895 -0.053829318938230904 0.08181586179683394
0.16496755212204553 -0.05471792946581881 0.08208796849970973
0.1653215174721781 -0.05279050256010344 0.08116256714260972
0.16483224409947508 -0.05256920187933072 0.08183200509081491
0.16473459250082498 -0.05336691574706531 0.08215487521085507
0.16510334322334863 -0.05180328274872956 0.0812680639035254
0.16487710755785784 -0.051186359635226414 0.08150814965200431
0.1646398132385693 -0.05192927252364241 0.08203324985539305
0.16530852901293291 -0.050943877157230456 0.08084202769475242
0.1649326319437158 -0.05060655999727906 0.08139618567055215
0.17769724852039515 -0.09779750532512645 0.08345394288933519
0.17750332730764384 -0.09740505717553335 0.0834826090418129
0.1770676097484332 -0.09655900046940076 0.08353589007512172
0.1764973224428446 -0.09562226262372153 0.08356841352636082
0.17593143724381363 -0.09462435630030538 0.08353813929719685
0.17536378615696827 -0.09356783389046207 0.08348931289771745
0.1748460756187526 -0.09249177076203453 0.0835112909297463
0.17437203177407704 -0.09146388909855278 0.08356722260068118
0.1740162018194856 -0.09064384327647336 0.083683885678075
0.1741471315372744 -0.08929522903604709 0.0825990133253475
0.1737776754601276 -0.08956525293658926 0.08341904801366695
0.17376417981449954 -0.08847316839627196 0.08279432133581426
0.17332779559119035 -0.08844028153089815 0.08352453134417935
0.1742143064570422 -0.08850171160220305 0.082157984951577
0.1734150033320376 -0.08749584484934564 0.08291181443296836
0.1729815654099205 -0.08743215132575857 0.08360262505514099
0.1739007014603352 -0.08759768513646063 0.08223635817453087
0.17308399393573995 -0.08651758292229532 0.08301983126770841
0.17263224340030106 -0.08645019539843246 0.08368656884351013
0.17355734990418917 -0.08660525571816595 0.08235964010020055
0.17273902388238313 -0.0855623091928131 0.08313438757494764
0.17226457373306703 -0.08539629713512796 0.0838038849940393
0.17323109507657114 -0.08561716674310378 0.08248395569839274
0.17246851253444706 -0.0848005187920983 0.0832345336247257
0.17283143512249044 -0.08458678524630182 0.08265899739116113
0.17247183705378846 -0.08416290799788397 0.08306614354911585
0.17264137967788318 -0.08369809589614952 0.08270178584908135
0.1725401769184505 -0.08276539526986976 0.0825003653022415
0.17213848271382645 -0.08170086551986752 0.08258800720969911
0.17178581946973415 -0.08076679335325342 0.08259186497889867
0.17141128147764134 -0.08001377273053106 0.0826104360637117
0.17112080325285603 -0.08025221490306739 0.08310521458281277
0.17139664160921644 -0.0806682819644308 0.08305129850056915
0.17097844323758554 -0.0796680420781679 0.08286104830180346
0.17046607622903875 -0.07932100943398064 0.08315775057675842
0.17079591243583284 -0.08009694870406892 0.08335812490628995
0.16992659657593406 -0.07836832696860362 0.08309594024269791
0.1694774690992548 -0.07744368061773614 0.08307633250461353
0.16911674765862073 -0.07652282721702565 0.08308795858787678
0.16883505819858116 -0.07558321003004821 0.08311232103984707
0.1686320797431408 -0.07462842709043668 0.08313891309258743
0.168443257805841 -0.07365434063896285 0.08316645442107128
0.16825758783002268 -0.07269646758063585 0.08317832936809312
0.16805836874179117 -0.07175572973283631 0.08320749616744116
0.16785456207194946 -0.07084245245501405 0.08325927320384859
0.16763982009909445 -0.06999256482843136 0.08332764216402636
0.1673689032996201 -0.06924451198897366 0.08339912480457214
0.16702137142318493 -0.06859450868450126 0.08347585194946872
0.16610846059253814 -0.06681982307552424 0.08286083069230835
0.1661952808846206 -0.06740846311248354 0.08367328737307365
0.16662480646256386 -0.0679913375892951 0.08356690465927688
0.1657506918595878 -0.0661971419371143 0.0829815725401555
0.16548537602745952 -0.06553298937068254 0.08311707313950777
0.1652767913369807 -0.06485085741570208 0.08322689323670057
0.16509208636447872 -0.06419423221650475 0.0833041327226663
0.16492249315614507 -0.06355791527130317 0.083394228220383
0.16482670389615797 -0.061621209557649596 0.08274479013844535
0.16460085127014346 -0.062309944309170355 0.08357281282221914
0.1647585788978641 -0.06292787151482031 0.08348681685237909
0.164746093480762 -0.0609732867379144 0.08288256994684014
0.1647179108281117 -0.06027722777357619 0.08301685638542065
0.16472754997657943 -0.05956663770198379 0.08315890073624421
0.1647110951285562 -0.058853627752702524 0.08333305424717893
0.16495912293898884 -0.057311791064118864 0.0828620083535971
0.16467255803842515 -0.058158111022404 0.08354230367220658
0.16487891641505636 -0.05572690177683009 0.08258524706162573
0.16470609899778535 -0.05667593409762293 0.08320496577308344
0.16457786729490853 -0.05428200835385232 0.08259227325584116
0.16448976866355958 -0.05518441119910672 0.08305190545080321
0.1644270949442372 -0.052828166639969344 0.08253916794071124
0.1642408148127347 -0.053752823946069096 0.08300655452676846
0.16444626841717136 -0.05108540367729175 0.08226493924401268
0.16422291825632157 -0.052133439232258154 0.08288252216812211
0.16445066267485328 -0.050367845644597196 0.08220471016683775
0.16416638259443397 -0.050088699262843206 0.0827076899576528
0.16412715224969773 -0.05048868606797629 0.08286953109897932
0.17751332569626296 -0.0977561919601583 0.08400967012388741
0.1772067618829026 -0.09725062895961069 0.08418771359475483
0.17674005875166943 -0.09641180082213578 0.08429507509739857
0.17617533453809853 -0.09548336760882001 0.084332619161651
0.17558246537215152 -0.09449131427777664 0.08432151100638591
0.17501289498790196 -0.0934697601298177 0.08430921281221344
0.17451725532719917 -0.09244375681494651 0.08432114398983827
0.17409621058339395 -0.09145141536287128 0.08434345972551736
0.1737306192577497 -0.09045907850196137 0.08430281125504548
0.17336446421092122 -0.08941431785999872 0.08426400271121173
0.17295907581802336 -0.0883852183582912 0.08428846379308705
0.17260468673274842 -0.08740090573658513 0.08433097643077768
0.17225330268171354 -0.08643274094977384 0.0844036426834671
0.17197184046259165 -0.08565500791127287 0.08452112977915187
0.17217234730243602 -0.08431838691447577 0.08353515199774544
0.1717840941011976 -0.08461012619969215 0.08428730396464242
0.17182889077953198 -0.0835020256630249 0.08371922296683476
0.1713980520631878 -0.08350183098208774 0.08439782907895933
0.17228710174298792 -0.08348746902018296 0.083134033204117
0.17147372838017239 -0.0825531118960946 0.08382049603030207
0.17106643851114664 -0.0825320522112403 0.0844394495755871
0.171966545355976 -0.0825746459740282 0.08318606097608497
0.17117428027904613 -0.08178915070735823 0.08389906613148275
0.1707749886969976 -0.08156803822677774 0.08434351471823844
0.17157027604804045 -0.08152857671380925 0.08327046744706651
0.17103567407675463 -0.08088374250450378 0.08359013661468413
0.17044770197196524 -0.08041787664040648 0.08405853347284535
0.16996192239478963 -0.07936787655337867 0.08402770374905492
0.16954318085785136 -0.07839976573580314 0.08401036902217313
0.1691844209006009 -0.07746348742784322 0.08400813597505957
0.1688863156987116 -0.07652838871822124 0.08402144836147712
0.16865018712877577 -0.07558288672563247 0.08404731247069419
0.16844354860145688 -0.0746185955557 0.08406873459166621
0.1682302681851195 -0.07364387719329833 0.08408690523405246
0.16801010993270216 -0.0726845808375194 0.08409578040194225
0.1678106874150784 -0.07173144422981322 0.08413258314185944
0.16763450960513376 -0.07081572106805843 0.08418372603962224
0.16742594950149295 -0.069974690995863 0.08424856457371939
0.16713535133333546 -0.06923231620099354 0.08430657119851086
0.1667669197162265 -0.06857714650724817 0.08438501423523743
0.1657710253729421 -0.06682601262052147 0.08379034425965107
0.1659017718168625 -0.06740506470651955 0.08458869961809255
0.16635034324758272 -0.06797226166551792 0.08447916596380889
0.16543401713858552 -0.06620667897468027 0.08392626903778073
0.1651785333605319 -0.06555018535172734 0.08405069555401233
0.16496648383880594 -0.06489066792871546 0.08414731369199349
0.16478619629453012 -0.06423813467617318 0.08423557862473596
0.16462461765548836 -0.06359650368682834 0.08432093589636146
0.1644858597029336 -0.06169006210288633 0.08369179141533703
0.16430984959173292 -0.06237129286992327 0.0845077555937258
0.16446154321763298 -0.06297897609075095 0.08440320873807765
0.1644171600771975 -0.0610371671107665 0.08382551384202654
0.16437187230563918 -0.06035047824225736 0.08394585135841741
0.1643668174182579 -0.05964324487324838 0.08408462022184233
0.16434761712230142 -0.0589382323561008 0.08423154671562798
0.1645217942495362 -0.05753653846940186 0.08384023575229715
0.1642742795211074 -0.058305502266545996 0.08442277662813985
0.16437944432861068 -0.056077521675237 0.08359774269501795
0.16425810767295138 -0.05693707256509117 0.0841879750061069
0.16412784707024872 -0.05465747616369275 0.08350293910263525
0.16404279911304148 -0.05550630957549846 0.08402512927957843
0.16400080691740485 -0.053109250896064615 0.08340214596829025
0.1638329331271552 -0.05404474822727672 0.08392058274130035
0.1639734656754229 -0.05139838549023861 0.08328750254076114
0.16377387569582133 -0.052409164206125486 0.08381712634651954
0.1638437650182801 -0.050049571421661186 0.08341220024091796
0.16374288749153815 -0.05072847152022464 0.08376628677907116
0.16357085507185243 -0.04974446246503714 0.08399225741875968
0.177271099004946 -0.0975521482317708 0.0844949432088572
0.17688227481242996 -0.09697770398848711 0.08484397003960581
0.1764461485698928 -0.09625285531578155 0.08508573907797669
0.17588082573554212 -0.09536962081943764 0.08515362576536586
0.17530968238578956 -0.09439044112317085 0.08515783038787295
0.17476908424604917 -0.09341318015413957 0.08515409877365748
0.17430756536647343 -0.09240087775230808 0.08516591071304076
0.17389064631103743 -0.09139416480189848 0.08515313981411145
0.17351330373628243 -0.09037645438887497 0.08512440839651836
0.17310555993022617 -0.08935997593925138 0.0851021579714453
0.1727026662264049 -0.08836241157077149 0.0851029798557223
0.1723327504727684 -0.08737942959205004 0.08512136143723374
0.17200098317608384 -0.08642747980712501 0.08515257870729807
0.17170662366041176 -0.08547070130212542 0.08513053485696134
0.1713841870015251 -0.08443994813952203 0.08511593186851531
0.17105670724652494 -0.0834252459381098 0.08513550135981873
0.17071723059160032 -0.08243064221792913 0.0851135575102557
0.17037682146304042 -0.08140500489774534 0.08502959910198943
0.17001129560402484 -0.0803633291891731 0.08495772879699515
0.16962896571658415 -0.07937580460679683 0.08492858800034213
0.16928244752345867 -0.07841437965114714 0.0849246485244249
0.16897909526561797 -0.07745977427070165 0.08493704370563822
0.16871384531534597 -0.07652346280187378 0.0849462472963614
0.16847290397308134 -0.07557536362416718 0.08495828184471667
0.16823983145269655 -0.07460651388963027 0.08497355504131242
0.16801517770979404 -0.07363031918595238 0.08499188391008224
0.16780938153280256 -0.07265984134185322 0.08501382116150107
0.16763609420490097 -0.07170260891749837 0.08505835367106017
0.1674575775842304 -0.07079486780791157 0.08510304960109823
0.16722843407557586 -0.06996155935509661 0.08515317116599334
0.16691899637993868 -0.06922280984558336 0.08521045893276577
0.16652981887157503 -0.06856598395732948 0.08528611878122648
0.16550055583519965 -0.06682668974718343 0.0847276641352476
0.1656534904923635 -0.06740287274730376 0.08550621905871812
0.16609324401288555 -0.0679680978806078 0.08538315121761454
0.1651851591504814 -0.06620937436381542 0.08486910321366012
0.16492000414454 -0.06557478322717238 0.08497385982379912
0.16471394147084178 -0.0649264536640482 0.08506996898364445
0.1645533018913779 -0.06427218445027176 0.08516175309174928
0.16438668758482383 -0.06363813984144218 0.08523362873300189
0.16417447728743934 -0.061741731014782315 0.08462465058705033
0.16406025479724168 -0.06241059924853645 0.08542768453605491
0.1642200065636475 -0.06302414436174193 0.08532071689111066
0.16408239806976857 -0.061089455594700054 0.0847360783923566
0.16401950543606975 -0.060405697948977016 0.08486292851295656
0.16399679501325537 -0.05967596103872915 0.08498409821250195
0.1640052379058035 -0.058983826534596946 0.08504106277634649
0.16404320932627472 -0.057764521200697645 0.08481447151826536
0.16396503154928707 -0.05845805375104062 0.08511330881417249
0.16396351608524615 -0.05635069222303813 0.08458520654713905
0.1638662520580171 -0.05711977216164618 0.08505825631222826
0.1637204542003572 -0.054909915775058674 0.08445975094570926
0.1636484216869408 -0.05575509915301509 0.08503859385482364
0.16359540451899157 -0.053385056072534146 0.08435018672059816
0.16349471864544954 -0.05425173826994324 0.08488831755522508
0.1635842661695151 -0.05167870585166904 0.08427058127812319
0.16339564038528603 -0.05266034908599129 0.08480072220293278
0.16350960901519923 -0.05014450473142809 0.08424130483589821
0.1634136964336291 -0.05098745282878447 0.08474962067654118
0.16336194530790876 -0.049812825516749135 0.08470188225563238
0.17652175770276404 -0.09674563623932782 0.0857028996322008
0.17617220029105435 -0.09619749567471572 0.08597320619592143
0.17563898568541927 -0.09526387941699052 0.08602288901094599
0.1751039808109894 -0.09430691324800307 0.08600984359660842
0.17463553041835714 -0.09336364509840293 0.0860452016488702
0.17418389589576241 -0.0923675328186989 0.0860590052701651
0.17377507169791437 -0.09135533629333405 0.08604737532377227
0.17337337241322973 -0.09034424596115807 0.08602131449212432
0.17294623353846636 -0.08933722316214131 0.08599519987593572
0.17252839153837202 -0.08834527010665517 0.08597597793208782
0.17217045153676638 -0.08735213278381648 0.08597020327991378
0.1718253792446887 -0.08637039714840973 0.08595908247770105
0.17149699792848339 -0.08537875069411995 0.08594808165057022
0.17114753553143186 -0.08436220479131885 0.0859472305513374
0.17080777743046205 -0.08336045060925486 0.08593949085845877
0.17045972186853134 -0.08234874576648303 0.0859169544600199
0.1701252718740021 -0.08134432857393306 0.08587866673296166
0.1697621057999091 -0.08035531410303032 0.08585084664073761
0.16942810822828486 -0.07937155599816666 0.08584365983887397
0.16914215742475427 -0.07841182105922345 0.08585137961527897
0.16884554873994445 -0.07746606480862808 0.08586097302272876
0.16856061829742827 -0.07651350628759714 0.08586546423134948
0.16831333292278283 -0.07555013662725976 0.0858736380840078
0.16807498768065246 -0.0745742024652456 0.08588699504079673
0.16785651584607172 -0.07359737729957905 0.08590784653510572
0.16766798746407408 -0.07262221874660676 0.08593690947464147
0.16749478608583349 -0.07167219663862613 0.08597621080167571
0.16730276530316793 -0.0707756674384373 0.08601117920921034
0.16705597076004944 -0.06994903322361361 0.08606136629098174
