# .PCD v.7 - Point Cloud Data file format
VERSION .7
FIELDS x y z
SIZE 4 4 4
TYPE f f f
COUNT 1 1 1
WIDTH 787
HEIGHT 1
VIEWPOINT 0 0 0 1 0 0 0
POINTS 787
DATA ascii
0.06200607624815949 -0.10970540388537738 0.05894949143519937
0.0617551211973827 -0.10907255865525828 0.058835253857786506
0.06162822270420372 -0.10849589864952172 0.05902987358679285
0.06127950167988339 -0.10752309622011998 0.05809922198869355
0.061439958140491836 -0.1076778450983396 0.058939276958378105
0.061204223398777985 -0.10676163281935334 0.05828427141640669
0.06132697206809252 -0.10662253649013215 0.059291061367455496
0.061148413227014704 -0.10594764751984248 0.058512212934317555
0.06102473651039356 -0.1049116274518862 0.058344935553465524
0.060930066547432694 -0.10388149248832838 0.05817908313934738
0.060911336855667936 -0.10313318998658788 0.05834324256284128
0.060884279969672 -0.10228685485005903 0.058455387506086434
0.06081778791542054 -0.10141615445058455 0.058558098268825284
0.06071099886489598 -0.10045970658861503 0.05867968962419909
0.060609390235259214 -0.09964761964164838 0.05892493206275862
0.060230337548853506 -0.09835039883899706 0.05773034677837682
0.060384822245967876 -0.09853217137752295 0.05878924816355201
0.06011330944152226 -0.09767485745897031 0.0579585007639675
0.0598481456363787 -0.09653902996133931 0.05776542024372275
0.05955790651012853 -0.0953884688861906 0.05760463860033936
0.05933382188615985 -0.09457213112023356 0.05779625219773199
0.05905580824106604 -0.09365493150262268 0.057934334861019926
0.05883194816053568 -0.09277779694195815 0.058116042758460586
0.05863991809203587 -0.09187452960002121 0.058225304596861094
0.05849357329744099 -0.09105032719892533 0.05837181375941256
0.05838463325471593 -0.09067195808649889 0.057756558981086066
0.06467631824548563 -0.14654260401360303 0.05868683095608091
0.0649992426371477 -0.14581416951533233 0.05879800270645325
0.06542106398902066 -0.14485009853492736 0.058911077396594944
0.06569830431076722 -0.14407645457858864 0.05906955638761402
0.0653824437895542 -0.1445382006946069 0.059449099208631805
0.06565163882232973 -0.14378430221202085 0.059586163116351676
0.06604368772611835 -0.1432602625794725 0.05891962740825123
0.06609261954000474 -0.14275306663688808 0.05956320950856261
0.06643907979913294 -0.1422122160061178 0.05878086299920071
0.06657694386384098 -0.14157059415687592 0.059388168036490184
0.06701316267672155 -0.14043152577381632 0.05945225454498796
0.06738457848593417 -0.13928561793567637 0.05947815047902651
0.06779834288311544 -0.13809589627525778 0.0591998783568433
0.06806655177790444 -0.13712266165555662 0.05908179720334606
0.06818480689191166 -0.1364602582852631 0.05907264900696362
0.06814198291227598 -0.1369098072288166 0.059617012478076555
0.06827625237773007 -0.13610588302408624 0.059498755236253885
0.06843169775500271 -0.13513607557895116 0.05951000326651767
0.06854173000039339 -0.134211248508867 0.0595263871433573
0.06861815740032552 -0.13337752986349474 0.05955869429233987
0.06866288262411609 -0.1326786589421271 0.05963304981565664
0.06868789026976865 -0.13220979622097037 0.059818081921738014
0.06849305177535328 -0.13151610255510673 0.05964973501982628
0.0684635829421219 -0.13072824584866807 0.05997006412996685
0.06800893578587938 -0.1299740855324997 0.05932196464446091
0.06799149608533904 -0.1292850224678268 0.05966477313059719
0.06795488915982345 -0.1285794084540556 0.05996417552476602
0.06752795471001696 -0.12781794012106432 0.05928400492909195
0.06750394297416386 -0.12705326756693175 0.05948765634560182
0.0674268904070537 -0.1262305414030411 0.05968728358538338
0.06718912190239965 -0.125510638974248 0.05944308498596419
0.06744956962093768 -0.1256882160550946 0.06013501065501618
0.06709636836462875 -0.125017130944228 0.05955499790564869
0.06691937991135219 -0.12437524078836719 0.05966666420726833
0.06670538511365318 -0.12374282975945089 0.05977343272486445
0.06653110619102387 -0.12327216856652551 0.05989198785068803
0.06615425320591457 -0.12260826583721711 0.05965125437545422
0.06588608986639519 -0.12191277376500043 0.05986763721263618
0.0656717048821993 -0.12131595113995867 0.060129087512194805
0.06515275186455097 -0.12057888978533814 0.05953262256742576
0.0649528216132281 -0.11989675410677965 0.05983007205085398
0.06472912722376757 -0.11917037314031585 0.06008931392770653
0.06453434279871297 -0.1184330926881845 0.0603061474010854
0.06402306047370547 -0.11763778213112701 0.05957389148877794
0.06385518757159553 -0.11684018296496905 0.05971220558631154
0.06370440357060868 -0.11599024179082126 0.059791812846124566
0.06355916314078446 -0.11510297899226989 0.05983966272365604
0.06342368439814317 -0.11416603558316767 0.05983722173055381
0.0632723371271348 -0.11319921836672103 0.05980230738343371
0.06307412459636155 -0.11220832533435754 0.059780120354816293
0.06277313477168907 -0.11110906884973956 0.05987378101223073
0.06231084550079386 -0.11020582604092347 0.059378709206408156
0.0625176321344812 -0.11036378060379917 0.059976053313107944
0.06214861087741825 -0.10965859238024024 0.05956878464281547
0.06186753742106323 -0.1089783491396542 0.05945293507042429
0.06173203251699928 -0.10839526061006827 0.05968471063434402
0.06158044522702573 -0.10758069194408006 0.059916498826459365
0.06151013611417542 -0.10686336717652009 0.060210428832521146
0.06119932842610673 -0.10567749261861335 0.05911905535100584
0.0613749555601769 -0.10586911741940543 0.060104722408530244
0.061182938741618426 -0.10506648328333303 0.05934731112288669
0.06109784085817402 -0.10405275410213569 0.059192125668536794
0.061021777385925555 -0.10300729101248157 0.05908047589716455
0.06100899457906104 -0.10227384843009472 0.05932512126206585
0.06093729848655601 -0.10135645284973255 0.0594763165877235
0.06083498992036988 -0.10042387047597369 0.05959202299298542
0.06067903764587558 -0.09950098433334623 0.059673404076392815
0.06054194884291136 -0.09870547888306314 0.05983362594901648
0.06012012597314434 -0.0974138176408185 0.058606752975448456
0.06026121348392141 -0.09759715907584808 0.059662605611070486
0.059989088099526376 -0.0967300108575933 0.0588473973683651
0.05969574847347394 -0.09560519080681026 0.058696650266853466
0.05934495384327827 -0.09444248271454922 0.05858334976708543
0.05910860453172239 -0.0936453128001133 0.058853907804949195
0.058886905956004806 -0.09269041036575223 0.05902334254414155
0.05870062633447324 -0.09176683047358306 0.05916484147680204
0.05858975582479357 -0.09098354653755825 0.05936399668131564
0.05846143139493712 -0.09058485846422165 0.058709856336848706
0.06432620396514382 -0.14670680385759138 0.05926028329395589
0.0642249552071632 -0.14653302338641888 0.05985301260866815
0.06451382455857961 -0.1462893172506038 0.05933574878718978
0.06452217557107288 -0.14587136108764434 0.06006715561476932
0.06495577210172733 -0.14537806492824193 0.05944862198408391
0.06510609762169166 -0.14469523916136529 0.060106527034900575
0.06562635696037857 -0.14349102838617475 0.06027242367441382
0.06612946377296407 -0.14235955728468128 0.0602637029517789
0.06663351561701103 -0.14125131943633293 0.060219090521535644
0.06703803562577457 -0.14024119373469518 0.06020740102263718
0.0672735900233659 -0.13953933168867097 0.0602922235114255
0.06705322877410416 -0.14006854869761556 0.0607811402735033
0.06732853888760887 -0.13936427464173357 0.0608406631025537
0.06758468390615255 -0.13873533657263046 0.06008126131075869
0.06773448851059344 -0.1383571968588138 0.0607193527522043
0.06794614266305808 -0.13773390621577686 0.0598714490851436
0.06809909291973694 -0.13715002762225634 0.06044375987072502
0.06837901090252857 -0.13604220604934986 0.060445806654116835
0.06859575719954654 -0.13505992569240374 0.06043148731951299
0.06877141433705176 -0.1341334866381142 0.06039565825203585
0.06889703758604432 -0.1332923088110325 0.060379152747070244
0.06886900154975406 -0.13264910826534146 0.06022522725665607
0.06899393169892842 -0.13292788331086988 0.060733394750274526
0.06890498610005585 -0.13229287408708276 0.060572619885691716
0.06887098010543885 -0.13150846141457467 0.06068935757304571
0.06885036942156851 -0.1307824771085915 0.06093045748287554
0.06844595439796324 -0.1300298462101479 0.060279215975574944
0.0684072523609696 -0.12933929958647983 0.060597805159989096
0.0683582352023371 -0.12862815069858752 0.06089417125471896
0.06793377880452424 -0.12785157796384566 0.060215792375606925
0.06787969524402454 -0.1271078146152061 0.060455920793721585
0.0678316806478446 -0.1264246353462974 0.060696597419243006
0.06778123618374694 -0.1258308962135104 0.060969109272946895
0.06738363679143439 -0.12509603827142715 0.06039706914205647
0.06719458513101019 -0.12436172250685934 0.06062333820382879
0.06685182163663539 -0.12368074434879328 0.06036212767279434
0.06710255383708084 -0.12380979374744948 0.06106397459499048
0.06665929546015358 -0.12319201342279529 0.06047796688093988
0.06639381649833495 -0.12255755655505332 0.0605890515087999
0.06614285189638026 -0.12193188976308918 0.060706516171903396
0.06594879402092922 -0.12143974233303277 0.06083250192976059
0.06556006914892275 -0.12074998971839485 0.06058911603148643
0.06529231041315521 -0.1199496828523695 0.060809887200012916
0.06506377625973196 -0.11919858019133091 0.06101731937860489
0.06485530903276411 -0.1184468597436851 0.061209956724508234
0.06435391641534312 -0.11766402004786054 0.060487304965352366
0.0641847087143018 -0.11685281607622007 0.0606187748707638
0.06403887871725944 -0.11600542383530016 0.06071075000468331
0.06388982299644633 -0.11511601106287662 0.06076758380342445
0.06374750368510741 -0.11418855215661405 0.060777580820562074
0.0636010846725558 -0.1132452485100229 0.06076411860801598
0.06342840220368434 -0.11232646498811077 0.06079088096577157
0.06330202989905341 -0.11163956853016477 0.060975380393539336
0.06247080631473307 -0.10999946809492533 0.06033134485253185
0.06292227391348913 -0.11075862473126 0.06081775571620051
0.06267418011540977 -0.1099117128119598 0.06107630975272153
0.06215460485521762 -0.10919982385578027 0.06025726625970893
0.061932743804724494 -0.10833109600103742 0.060549341387869084
0.061761017021097 -0.1075220068991066 0.06078113621376162
0.061649595239580274 -0.1067182626127852 0.060928467046011216
0.06160574061390892 -0.10603856396900595 0.061089346011487515
0.061278162675493665 -0.10488110233400268 0.05995346872886091
0.061496243587053634 -0.10517287866423183 0.0608603239012499
0.06131626957590403 -0.10433308320699083 0.06023140612098859
0.06124120949884921 -0.10337628013848099 0.060084124172180155
0.06121992575832991 -0.10233899212683961 0.06033530562065606
0.06111636919679474 -0.10133429686552645 0.060420506464098724
0.06096853595299998 -0.1003624018554943 0.06046834331693792
0.06080008031545355 -0.09944308118394435 0.060531972702596484
0.06060340902624149 -0.09852371251085534 0.06057719739463739
0.06041385635872933 -0.09773042652755932 0.060718165734660275
0.05998858880078779 -0.09649334452857462 0.05949787333019742
0.0601173377553221 -0.09671377015836734 0.06048821494283103
0.05982453435894645 -0.09582592266145974 0.05979170764839619
0.05951121884209825 -0.09473434159134625 0.05961148503915419
0.05920101195426697 -0.09357515621113849 0.059827835057834795
0.05895909449090189 -0.09261000701458921 0.05996289045202552
0.058804093166696596 -0.09174238791669749 0.0601490801674167
0.05875706581940923 -0.09095878095756517 0.06034714547771767
0.058603320036953975 -0.09052855815586025 0.05970046167240627
0.06372527322725924 -0.14685161778103276 0.06171825146156422
0.06412416498294247 -0.14632843418478278 0.06080603634492584
0.06408699928042146 -0.14617266008510268 0.06163426187364827
0.06456762265835525 -0.14544859080894276 0.06088406023185939
0.06465083001642985 -0.14512090309059886 0.061720950342889346
0.06515875066041946 -0.14429927223018085 0.060983963924344686
0.06523777507829141 -0.14397973724547022 0.06180050179708417
0.06569143773074454 -0.14315392539741134 0.06103381667978
0.0657997905246213 -0.14283869041329025 0.06181686764269793
0.06621870266399482 -0.14202591859477465 0.061009628880660416
0.06631717076136727 -0.14166032747574295 0.061770744751500455
0.0667233446405193 -0.14091189167091803 0.06093697538376386
0.06687091424822755 -0.1403430349834512 0.06156658884870969
0.0673870067000638 -0.139146638759373 0.06155030698845929
0.06782222540125646 -0.13802206218667326 0.06144436290955766
0.0681743872680303 -0.13692794868292069 0.06135615647482934
0.06848580542445165 -0.13591977185565768 0.061317420236067136
0.06877373080319248 -0.13494227798763683 0.061346527540111585
0.06896947035035916 -0.1340057086079428 0.061100982656198115
0.06905094316730961 -0.13341526627430042 0.06104138099825398
0.06907738074802165 -0.13380339992026538 0.061571559395922466
0.06909432658169884 -0.13310806510363454 0.06145319489835493
0.06912254984552178 -0.13228738378963473 0.06150778465947658
0.06914010745432753 -0.1315293245445679 0.06162680334734988
0.06914161489840746 -0.13087690539658328 0.06185649771630456
0.06881543884164525 -0.13011457408015473 0.06125298888965453
0.06874213192803263 -0.12942359981046214 0.06156684210691605
0.0686669702722573 -0.12870096451900104 0.061833139298437985
0.06829273847896868 -0.12790523058983824 0.061158115341521976
0.06823109836852344 -0.12718263987468495 0.0613849006725002
0.06813594997496053 -0.1265019002632344 0.061531201918115105
0.06804002594056233 -0.12598437208605562 0.06165553504398732
0.06774677327266407 -0.12528055764627916 0.06141502818486988
0.06755850003176929 -0.12452686716135346 0.06166303795391428
0.06738662565808734 -0.1238763412470048 0.06194010587687774
0.06689421785963946 -0.12318994154740096 0.061302307556308014
0.06664012466989125 -0.12246798626039004 0.06150326636210135
0.06626690006170918 -0.12182746024352115 0.06129205572306568
0.06653199779705292 -0.12192083392702413 0.06194472864087134
0.06607660225163856 -0.12132395325093787 0.061404680399043655
0.06582961228224733 -0.12065819588837344 0.06152289280115417
0.06558901714931756 -0.11993496633488247 0.061716154775390615
0.06537328401732156 -0.11919911538152163 0.061902962398343114
0.06518245442373824 -0.11845401142312867 0.062087662624140186
0.06466921457738638 -0.11767163185390887 0.06138139913382398
0.06450956739137341 -0.11686281954794082 0.06151839008710025
0.06435413216441334 -0.11601373582277451 0.061624045515621534
0.0642044074844533 -0.1151207788957356 0.061676351957589505
0.06406675213459252 -0.11420185226718313 0.06168213415699155
0.06391387352239342 -0.11328171862545293 0.061672787126528836
0.06374988864025712 -0.11241483219540183 0.06170851595312123
0.06352028705387415 -0.11155850175743841 0.06175313683596644
0.06324105194950722 -0.11066162932560848 0.061860465786749606
0.06293796961215802 -0.10974631503974641 0.062017603748446365
0.06239736708988419 -0.10903951736078539 0.0612561879283573
0.06214472654546864 -0.1081841329039371 0.06143377240678715
0.06195507878783287 -0.10739330631522447 0.0615773981673351
0.06186633277859473 -0.10663858389679648 0.06171819966357707
0.06180176287702577 -0.10584938549743986 0.0617609483039646
0.06175904637095551 -0.10505318366043678 0.061742178746261145
0.06152740599729699 -0.10429154108109973 0.061033670454475254
0.06160878149262459 -0.10349809354744655 0.06137475361797176
0.06148140828276622 -0.10233983231668833 0.06136485047826364
0.061314099477331706 -0.1013062314855179 0.061359887843640847
0.061114173442151296 -0.10031324380130639 0.061360181208002934
0.06090903841599568 -0.09936151866556625 0.061390382755384415
0.06069288899796557 -0.09843385596258483 0.06144607682444465
0.06046026765136964 -0.09748867146287357 0.06150266204436281
0.060189732242413765 -0.09639442109009645 0.06165732721378874
0.05980503378157621 -0.09558201880339053 0.06064840337265325
0.05954568250795578 -0.09445424276549984 0.06083122111212308
0.05924469043304899 -0.09339640557089618 0.06065983737481909
0.0590947771320916 -0.0926497276044041 0.06094395355313495
0.05899518157133306 -0.09175502964678942 0.061144904656726645
0.058954892275205256 -0.09093752870727664 0.061247947834954374
0.058811794357595946 -0.09039728625523037 0.06072018479147353
0.05897655281728621 -0.09001316441616447 0.06143132127495069
0.06348394189104062 -0.14724781756423952 0.06230061903781924
0.06370364006339162 -0.1468339203735519 0.06234928171461628
0.0641896294616409 -0.14592029984895996 0.06245732874554577
0.06477252918486882 -0.14484353758000323 0.06255300921548973
0.06536070449050978 -0.14372518025840023 0.06261050411953144
0.06589282647112304 -0.1425781920291458 0.06263259851279629
0.06640084063584227 -0.14133095624691808 0.06263960930813227
0.0669804245887475 -0.13999090847708467 0.062394758543141686
0.06747431727215823 -0.13883512071564488 0.06229612578822086
0.06788331147845643 -0.13775640840834733 0.06221155928027231
0.06824835915546694 -0.13673234102320914 0.06214082189225186
0.06857529253589516 -0.1358333989665306 0.062080980013557774
0.0687941173242419 -0.13520765792278835 0.06212955972052672
0.06865106781199697 -0.13572306601089001 0.06262334636861477
0.06882406471884953 -0.1350676200378406 0.06263841364279817
0.06895655176962653 -0.1345062138264162 0.06187069781709875
0.06904122815552503 -0.1340548888721786 0.062376441886295694
0.06917550535293947 -0.13310049418662784 0.062385204427789005
0.06926249358886703 -0.13226771381609126 0.062407100843334264
0.06932959584050608 -0.13156571467676653 0.06243891423780894
0.06932125987891234 -0.13107582539604645 0.06257250044942206
0.06910695090786723 -0.1303286337366716 0.06233141414361077
0.0689925838854394 -0.12950212742302283 0.06250992388987384
0.0688991177911236 -0.1288185918281919 0.06274360607858345
0.06859456353622127 -0.1279947890082063 0.062114538863298534
0.06849809821859598 -0.1271777655404381 0.06236720686342761
0.06827640093093193 -0.12642419248002987 0.06212444284091085
0.06847816261046766 -0.1265814921001375 0.06279803872291724
0.06816704628122637 -0.12590616578197372 0.06223130980693587
0.06802035828620447 -0.12525433325536417 0.062350752127609745
0.06785119235571263 -0.12458374496712311 0.06258013558013673
0.06765808909348985 -0.12393099559655417 0.0628350094173146
0.06718523308302855 -0.12322516780936787 0.06219570682851427
0.06700216276422659 -0.12259765004808006 0.062485922402463735
0.06680509506857137 -0.12198279286357541 0.06278465453227698
0.06633244266309359 -0.12131334255158999 0.06218433335017742
0.06610326219439575 -0.12064447284897416 0.06239541400939306
0.06586731857111486 -0.11993161266435678 0.06259108273999084
0.06565451016866637 -0.1192078393211561 0.06276729559269421
0.06546451456542271 -0.11848255563438147 0.06295190366748972
0.06500213063180003 -0.11768673123169329 0.06226179573731347
0.06482950676939858 -0.11688323134061626 0.062416948143358686
0.06466151759900084 -0.11602052174235461 0.06251654869526077
0.06450431914018458 -0.11511515676825583 0.06254697394367198
0.06435266283538131 -0.11419429808744219 0.06254359237275846
0.06420230419076585 -0.11328097681522549 0.06253766809500681
0.06402298011271647 -0.11238223689603687 0.06257062217471704
0.06379789551552745 -0.11147486947309918 0.06267408928869868
0.06354290182717319 -0.1104768731633402 0.06292803818576716
0.06315095705051384 -0.10954925958516754 0.0628083113838716
0.06265074745666485 -0.10880442091236411 0.06226277703289033
0.062314703317208946 -0.10796182280468353 0.06214431528121356
0.06221357264118275 -0.10730472843640348 0.06234411524446363
0.062125522731007576 -0.10653886814357837 0.062467531435815085
0.062094794923542626 -0.10571637612513542 0.06254123750927632
0.06198052414083734 -0.10497386225237415 0.06231973023567917
0.061780471869893945 -0.10443561465400837 0.061818033961865325
0.06206350664157988 -0.10447594032779774 0.06255099396208787
0.06193192851563033 -0.10338117683519128 0.06240598749959734
0.061756570391975484 -0.10230907651265421 0.06232639565918728
0.06153745981835124 -0.10127992759179281 0.0622805129769075
0.0612941551451096 -0.10028202002035468 0.06226492032404634
0.061055714863349486 -0.09930878153627822 0.06228560605235447
0.06080497999950294 -0.09834285224896233 0.06233416690894556
0.060584314129188487 -0.09740469674838707 0.062441439922347006
0.0604303734365559 -0.0966579865482677 0.06265105425010217
0.05987608657330217 -0.09536897641350847 0.06148448426229402
0.060167577962518225 -0.09570964320451913 0.062458255485708825
0.05979909485314899 -0.09479203671777439 0.06183379814281207
0.05952432658972978 -0.09378975058833264 0.061703359970603076
0.05938913956622461 -0.09274559230919202 0.062002080399753176
0.05930596262953175 -0.09171362034366397 0.06220219305464986
0.059092890308787775 -0.09081036306503713 0.06187442484528844
0.05896137154288735 -0.09037631893845822 0.061382458077280835
0.05912787667506272 -0.0902803077548961 0.06200451849432653
0.059214692341639466 -0.08984331503243456 0.06223288859275383
0.06350333733694334 -0.14718370499051736 0.06291225057259911
0.06381685007497451 -0.1466340730506087 0.06315200144945722
0.06434176338678493 -0.14567187750894497 0.06330450762216078
0.06493269152062409 -0.14462238541738665 0.0633830252672982
0.0654550171567536 -0.14353791432631324 0.06343916799433753
0.06591526472664082 -0.1424553683364401 0.0634976008894515
0.06627269355664156 -0.14158284886367462 0.06343309501492564
0.06606896523194129 -0.1420642016969703 0.06392090392728603
0.06630746622717436 -0.1413838044865357 0.06394205400107215
0.06663919395776041 -0.1407090265836253 0.06322621935049093
0.06667714125837718 -0.14043097456872713 0.06388513950771241
0.06706304931692586 -0.1396368126938837 0.06310497958397575
0.06710165525045232 -0.1393811576437841 0.06381503671629665
0.0675212310566288 -0.13856417215821706 0.063018421355605
0.06755843119362494 -0.13829742927272548 0.06373426330488328
0.06795108870828771 -0.13750677171474934 0.06293161640400453
0.06801280932878562 -0.13720468197173388 0.06361551101075819
0.06834313257685155 -0.13650198392750695 0.06281033317503434
0.06848796720604997 -0.13602365226394386 0.06337632123206087
0.06880578991975836 -0.1349435903001216 0.06334911720264455
0.06905265876137955 -0.1339494557413759 0.06327302421779227
0.06922923934076718 -0.1330466074919179 0.06324224465869126
0.06936413003932478 -0.13220640555133528 0.0632203793512411
0.06941384277624836 -0.1315467091656657 0.06299738905132633
0.06941721696927079 -0.13182228130736834 0.06351303968691198
0.06934967173281574 -0.13114669606958038 0.06328246297858113
0.06922757512208293 -0.1302966858722267 0.06327506212397967
0.06912279134338616 -0.12954850530258985 0.06333461971440575
0.06903942002318716 -0.1290300811915594 0.06347319209995644
0.06886318810971373 -0.12823779665404975 0.06320664067251239
0.06874972980457203 -0.1273872016826997 0.06341610951450136
0.06868381865207837 -0.12670197597255622 0.06363853991356441
0.06839858253483805 -0.1259579693986205 0.06301400161539915
0.06826799614419048 -0.12530267183506572 0.06322624710579278
0.0680868545251091 -0.12463973815052079 0.06345534927195383
0.06789345164491851 -0.12400587299898384 0.06369569810260903
0.06747030413376195 -0.1233017312368756 0.0630956871112935
0.06725927221680683 -0.12268299300935163 0.06337587866122392
0.06702788426215522 -0.12206255775716264 0.06365028180989749
0.06658036228842788 -0.12134549085180227 0.06303997837955551
0.06632822732718928 -0.1206656112058855 0.06327194106257275
0.06609260320490602 -0.11994959770330514 0.06344828874427323
0.06587884879965784 -0.11923874162196693 0.06360130476522047
0.06570108354204149 -0.1185735722408853 0.06379151969173037
0.06530297941460146 -0.11774852999759448 0.06315719750439755
0.06512527269423464 -0.11692896333136554 0.06332192530692696
0.0649323406636858 -0.11602357724531537 0.06338432819233734
0.06476564279472012 -0.1150994670338726 0.06339581285355793
0.06460944729049464 -0.11416144957635092 0.06337995965124801
0.06443887026731433 -0.1132360059821588 0.06338497055572138
0.06426301016213457 -0.11231894635388982 0.06343892109276067
0.06407475033922096 -0.11143135473234642 0.06357851044335198
0.06394981931490787 -0.11071004527729314 0.06383017928561241
0.06306544878645964 -0.1089927850925591 0.06311183324683695
0.06358948840507762 -0.10971504375324415 0.06376408121916523
0.06323148748459227 -0.10877299513319945 0.06367775638545903
0.06272130050868527 -0.10809124494132731 0.0630311892675174
0.06245250197882297 -0.10718042334359293 0.06298183937578519
0.062458725001434554 -0.1065258230017397 0.06323030060744468
0.06237141283433941 -0.10583540139058219 0.06319328315838875
0.06220956003297236 -0.1052835353992673 0.06285398326637642
0.06250660287125111 -0.10545218516993402 0.0635205601778954
0.06241198076394606 -0.10441545610942622 0.06344348338721582
0.06224868234503571 -0.10335477834880168 0.06334809028404127
0.062022711091633105 -0.10231552353755526 0.06327289472909056
0.06176779065654539 -0.10128305627363951 0.06321518630271497
0.06147763735068064 -0.1002720500459533 0.06319326511331427
0.06120013143507614 -0.09927878757592377 0.06320752483775645
0.060947887546151776 -0.09831541476575835 0.06326164128729936
0.06074149008744393 -0.09741057229461303 0.06335749125172488
0.06054017918490698 -0.09652220928359402 0.06342125459382197
0.06037947700223554 -0.09561982767443662 0.06350525146974101
0.05999411709843852 -0.09472334959833777 0.0626743430249225
0.059863238174540485 -0.09379030687490819 0.06285839770545064
0.05975955833500673 -0.09287832592348533 0.06311540556561566
0.059747804294896886 -0.09201126971138522 0.0633871139572281
0.05936724272594365 -0.09100078334886527 0.06264275001893899
0.05941890475340981 -0.09026998997370021 0.06285760366471989
0.05951153646152013 -0.08960031262269433 0.06316886865466963
0.05961733059286708 -0.08905713770679995 0.06352126670659919
0.0636382134547294 -0.14701367831003662 0.06372799538005026
0.06397269108562186 -0.14642821325449787 0.06400850466492347
0.06451415830679896 -0.14549248005731782 0.06413346468698963
0.06504161841239152 -0.1444762257707839 0.06418637904831305
0.06547422888853316 -0.1434780955495 0.06426163189951539
0.06581031321775418 -0.1426768349504272 0.06418175338843024
0.06563163086941323 -0.1431132361800435 0.06466307156521532
0.06593051704171088 -0.1423041504857193 0.06459167352463288
0.06624992705299572 -0.1413091391025261 0.06464789611998664
0.06667055703041563 -0.14025780134275964 0.06461519232688531
0.06711133069441307 -0.13915013327376735 0.0645642053813539
0.06756532346266692 -0.13802181475701597 0.06446670786164206
0.06805331708290728 -0.13690475806489863 0.06431325513850915
0.06847675409971517 -0.13581482197233635 0.06419897389753583
0.06879322414589142 -0.13479399665907457 0.06412066174988956
0.0690561393652069 -0.13385369488156312 0.06405364194945454
0.0692610785377828 -0.13299048889967272 0.06403745933195233
0.06937226054862836 -0.1323182092756302 0.06387420085659776
0.06928302114517114 -0.13265479876454467 0.06438417239356607
0.06933443569835485 -0.13197471602336494 0.06418808809414106
0.06930456075916007 -0.13110539718019806 0.06413809704567858
0.0692601513533171 -0.13023545644730872 0.06409660566389629
0.06917514347004737 -0.12953461057359403 0.06388824923195353
0.06922081218041144 -0.12982617823213832 0.06438279369853554
0.06909870196186378 -0.12911738305339995 0.06416672174720606
0.06897910124040664 -0.12824217628001613 0.06417530303452003
0.06888963795909214 -0.12747502371744673 0.06428360679156074
0.0688135908106028 -0.12683257041971452 0.06446782015464346
0.06858504747394513 -0.1260622446060584 0.06388304246891834
0.06842470912138067 -0.1253880909423326 0.06411315105222057
0.06823469604968657 -0.12470723997865105 0.06429117187252553
0.068030872580344 -0.12411578330844342 0.06451607846909456
0.06767642779905676 -0.12340760594339788 0.06398276732250426
0.0674323440366726 -0.12279288365478484 0.06424906820181653
0.06717596258734121 -0.12218861333012249 0.06450321674338283
0.06677855329331862 -0.12142856645345083 0.06393166966439288
0.0665093770854105 -0.12072334436528451 0.06415222520079944
0.06624634643032147 -0.11997500901123721 0.06428091601942955
0.06602379681395909 -0.11928589159002168 0.06436047362984959
0.06587094762389598 -0.11877671850954127 0.06447954686128045
0.06557111390494658 -0.11795642269391174 0.06418542131856911
0.0653243677764507 -0.11695339585271644 0.06423272957972125
0.06512633125839758 -0.11600500579693471 0.06424155539058533
0.06494256536094566 -0.11505063691643848 0.06423230842725296
0.06477871285235103 -0.11408627608235151 0.06419762805780994
0.06461354640189648 -0.11314142449099879 0.06420078035786596
0.06445091517402425 -0.11222388280255666 0.06427200414779743
0.06428788365838711 -0.11136727693637738 0.0644047395300104
0.06410523016312336 -0.11053185311460981 0.0645168841598304
0.06395702844332125 -0.10980592456863171 0.06468956847642836
0.06312488142593567 -0.10820489602696604 0.06387061308586203
0.06359882619315191 -0.10881045535642855 0.06453893963074499
0.06323384652907647 -0.10788624129917875 0.06430973330420955
0.0628279370634874 -0.10742254371241872 0.06367935908920407
0.06279242273103816 -0.10678256796441914 0.06386091843608455
0.0626224624320502 -0.10621392614621143 0.06365553248291321
0.06297418346414563 -0.10648429064459149 0.06431883242897463
0.06288061611367943 -0.10545339918113028 0.06438694056724587
0.06273926565177104 -0.10441500188136643 0.0643564269037978
0.0625417325762949 -0.10337007198807367 0.06428639026998001
0.06227975637450683 -0.10233233840287925 0.06421448788556537
0.06198392005020129 -0.10130424461053338 0.06416508706712633
0.06167568550608238 -0.10028903600906831 0.06414503286912898
0.06137905733521693 -0.09929052727108906 0.06415849484024372
0.061117141340365944 -0.0983294239492709 0.06420843468433432
0.060906548551218104 -0.09739263916267786 0.06427315565472226
0.06072521302346036 -0.09648509045877926 0.06435261069504834
0.06061381928347615 -0.09563305799665335 0.0644676412371563
0.06028615022198863 -0.09474610194629539 0.06368107318852363
0.060235068678116115 -0.09393344253116681 0.06394653767633197
0.06018676865923908 -0.09308978055515 0.06422554210668421
0.06016615910885748 -0.09219094461267424 0.06444504221216123
0.05976655956333853 -0.09115396692635713 0.06362162446147408
0.05976552216489377 -0.0902857060759927 0.06382603253648214
0.05977233968385836 -0.08939781414842661 0.06406284002133482
0.05972175549157133 -0.08890995903912359 0.06391090008128507
0.06375820242275844 -0.14686817610368544 0.06461940684885
0.06411006185128443 -0.1462794656691286 0.0648710203131491
0.0646619204937114 -0.1453203232201607 0.06492816672079839
0.06508810068239598 -0.14439969094578767 0.06490256589547043
0.06538674989675314 -0.14372496427614806 0.06492671233251196
0.06514703294497498 -0.14424921017302259 0.06542548139873966
0.0654955701912408 -0.14337757677741575 0.06537540403250947
0.06583471568089817 -0.142318784515847 0.06544321901373795
0.06620955589373478 -0.14123185979324027 0.06545094225838437
0.06664248739758911 -0.14009090863008966 0.06540345636279703
0.06707917724256203 -0.13894333928356295 0.06539080034000644
0.06759537526954021 -0.13771726347524593 0.06516442967326869
0.06804254966370916 -0.1366287189549809 0.06503472496369722
0.06844682023269819 -0.13560355945859012 0.06492872411158251
0.0687868226938813 -0.13462493577631657 0.06482160827403183
0.06904196935504764 -0.13377150898364484 0.06471927877311658
0.06917633231956785 -0.13317515998358537 0.06469514888620406
0.06899116966300003 -0.1336295415505887 0.06518459566627376
0.06912655549104833 -0.13288785655155405 0.06505688551691419
0.06920851614548268 -0.13198113520968757 0.0650204881231583
0.06923195148644747 -0.1310755129473367 0.0649704064300503
0.06924790878214049 -0.13034431598289292 0.06475065501758347
0.06918826524483374 -0.13069487221004297 0.06527893287075973
0.06914912405576397 -0.12997356289012962 0.06506118506536326
0.0690737532087234 -0.12908720606494348 0.06501137168211579
0.0689941033390457 -0.12824681507560529 0.06500259755973534
0.06893249880889864 -0.12753723124013638 0.06502228035311215
0.06885645741210163 -0.1270429201636776 0.06513553637731725
0.06867198256720887 -0.12627728520624618 0.06486734597674444
0.06846307717458024 -0.12543272932458904 0.06495180596022576
0.06826986702488959 -0.12475904104782874 0.0650266372944767
0.06809294869049633 -0.12429884931377702 0.06516202898216568
0.06779765666167532 -0.1236131734664845 0.06493065403795388
0.06748688087913463 -0.12288570110159006 0.0650364021262114
0.06726325689576104 -0.12239379287064944 0.06518408399929582
0.06692538023865757 -0.12163511299443593 0.06492988521446699
0.06658364259063844 -0.12075207322496594 0.06501884208575298
0.06629902560646932 -0.11993110560199072 0.06506909166531136
0.06607264875768454 -0.1192663124526921 0.0648878022008425
0.06617908673273004 -0.11954631464875713 0.06535996271272335
0.06593467150614539 -0.11884118321530489 0.0651455530442256
0.06565507148123854 -0.11788661007880784 0.06510709395153068
0.06542530728251746 -0.11693028189139208 0.06510016998784945
0.06522275418597903 -0.11596083465369851 0.06509052043260803
0.06503219739980641 -0.11495621684046664 0.06503770999982797
0.06485915682750136 -0.11396360566406907 0.06498167411727183
0.0647031554005941 -0.11300484951119905 0.06500009082437638
0.06454555405424718 -0.11206733515445857 0.06509090751104718
0.06439187907929404 -0.1111752313933441 0.06516696594685584
0.06424565248834582 -0.11036406410460062 0.06525572017398024
0.06406773481404289 -0.10954871823780907 0.06535427055409954
0.06390459408372612 -0.1087601564700412 0.06544271902847461
0.0630682839230075 -0.10726061468987919 0.06427607376502129
0.06352553109582988 -0.10769860682006843 0.06505897563713045
0.0633648034475242 -0.10649036508096475 0.06523888734369823
0.06321928684150874 -0.10544571954901462 0.06529089532507289
0.06303163876521276 -0.10441450865802278 0.06527204515476866
0.06279383721021355 -0.10339033409455828 0.06522213651840397
0.06250827657087313 -0.10237209016037843 0.06517402074969897
0.06218796536204629 -0.1013459988787144 0.06513518226343495
0.06187568051536763 -0.10033308531712724 0.0651233520099272
0.0615710131001121 -0.09931877317478385 0.06512831860513636
0.06130926193247137 -0.09834040929929441 0.06516540750146665
0.06109357409509798 -0.09739951017732898 0.06522970736325737
0.0609398279651681 -0.09650110817623783 0.06530916581971451
0.06082647150980804 -0.09567864917285909 0.06534687110827853
0.06055901383969179 -0.09487399021246395 0.06466281261871992
0.060601528477274354 -0.09420825862546736 0.06511565248067741
0.06054627190590508 -0.09322700304128924 0.06529356385330572
0.060494242167361725 -0.09230310906313972 0.0654740951917572
0.060149042899261894 -0.0912861102255869 0.06464585089155508
0.06012963632543397 -0.09036593197387359 0.06486375810302633
0.06010229201422214 -0.08952204304607173 0.06519005710084916
0.05989202208505216 -0.08898530470704213 0.06459943144112004
0.06351543646680693 -0.14736566434519005 0.06647004138521881
0.06376426722389716 -0.14689960508290525 0.06565805683684309
0.0637763135607332 -0.14690070764700613 0.0664989533902706
0.0642374434272805 -0.14612529560016893 0.06570146091174692
0.06430451677626685 -0.14589793708520177 0.06648199248224236
0.06475207775032515 -0.14510970938892528 0.06563279920800764
0.06492282148952791 -0.1446116622485736 0.06626216380263465
0.06537525986219411 -0.14341363352251552 0.06630947337367947
0.06574763260016367 -0.14229630593922235 0.06632443800279195
0.06613707246140044 -0.14112435635079382 0.06634565541804555
0.06657843735149907 -0.1399768450000678 0.06610856250357337
0.06684587459130524 -0.13927179085653288 0.06613154270939635
0.06655918473269268 -0.13984844387662035 0.06660642278680988
0.06680405591248015 -0.13916241988076453 0.06666750206476303
0.06719498324414236 -0.1384355160068863 0.06595833146982948
0.06715343899609923 -0.1381970896721873 0.06662333156924416
0.06759080726917001 -0.13741070694205496 0.06583964836875923
0.0675538592894098 -0.137169774825577 0.06653599594718951
0.06801759546685353 -0.13637948160726696 0.06573085625198875
0.06798768817856372 -0.1361227997587449 0.06640779067059727
0.06842436852126638 -0.13536840383852908 0.0656013474326453
0.0683702432415478 -0.1350863466956981 0.0662309188424553
0.06874856689156482 -0.13439644510094578 0.06543122025782833
0.06875066835311024 -0.13393711764983457 0.06592861525235748
0.068947213359098 -0.13291591949723586 0.06589338736948991
0.06905114194803007 -0.13198135807886766 0.06586006448299969
0.06911988210471086 -0.13124575568331295 0.0656553113881686
0.06900466638055049 -0.1316278699237252 0.06618158970360455
0.06903974248425028 -0.13089429949452172 0.0659620972226587
0.06901160494389018 -0.12997076916004355 0.06589472990179226
0.06898386889327644 -0.12905410331258121 0.065796220216911
0.06893795897619213 -0.12819790198889355 0.06572857415546521
0.06890348015615541 -0.12753038232192446 0.06553190060975682
0.06885181740495737 -0.1278292096009084 0.06600638030116206
0.06874448172307862 -0.12711826981521432 0.06579206751661491
0.06854977588069716 -0.12620013183693798 0.06571804263200384
0.06836204352052692 -0.12536239735215118 0.06569228335207959
0.06821583759601084 -0.12473827135723688 0.06553318150824483
0.06818842239177691 -0.12499914239875216 0.06597594038752363
0.06797811316668492 -0.1243613051836902 0.06578614129871876
0.06764278886554437 -0.1235319186633968 0.06576079607634466
0.0674194271002632 -0.1228711744460524 0.06558588774667204
0.06742073183032876 -0.12314133094376489 0.0660522113263315
0.06717181361512534 -0.12246183096769962 0.06584755494202284
0.06682765272323216 -0.1215857775094113 0.06582878389458248
0.06653012139238602 -0.12072923027244253 0.06585998140550267
0.06633018215990087 -0.120045260923468 0.06569846406260284
0.06638804327035822 -0.1203791121049495 0.06618553185346535
0.06618046516573352 -0.11968994401379676 0.06600566056445226
0.06590340344271652 -0.11879851025872028 0.06598542545700219
0.0656629695003208 -0.11786817387972764 0.0659636186907035
0.0654358316590345 -0.11691734465108432 0.06596085429216812
0.06520400670451984 -0.11589855467176835 0.0659968929221686
0.06500241898881945 -0.11477426567534406 0.06578403980925174
0.06483400821681558 -0.11379232145729819 0.06574277019705897
0.0646891232630631 -0.11281890504402925 0.06579909888409477
0.0645474467290602 -0.11177637861579306 0.0659570193159569
0.06442281903371416 -0.1108928814169176 0.065788026941739
0.06431136930951803 -0.11015841069635549 0.06600384341812393
0.06416186814792871 -0.1092837229978601 0.06610319289627464
0.06398235705406966 -0.10838812717249532 0.06607358196175232
0.06380030640257395 -0.10740896116098032 0.06608606161725829
0.06364209857361616 -0.10639930718992736 0.06615920968818348
0.06346771214202966 -0.10540583268347402 0.06619826410082666
0.06325090657515522 -0.10440946215720157 0.06619290316803773
0.0629884411563019 -0.1034167587307094 0.06617263564761139
0.0626915087620168 -0.1024123354932824 0.0661468942719261
0.06237803975801874 -0.10138001475168 0.06611175840313531
0.062063919395357395 -0.10035750219278754 0.06609854797684965
0.06177037385088077 -0.09935171213479092 0.06610956873180798
0.06153197590570515 -0.09837921201755043 0.06615313564446794
0.06132229211625031 -0.09742226742404272 0.06621645017410886
0.06116447047492359 -0.09643149359072871 0.0662798906707372
0.060956457881147647 -0.09559399307364258 0.06595447716819194
0.0607750798659471 -0.09507412532231069 0.0654288790363524
0.060937053779620394 -0.0950109956434181 0.06606538138473572
0.06090417636542186 -0.09419757054763114 0.06616931390307633
0.060848921181837226 -0.09328493848636432 0.06631197644550794
0.06080010869075364 -0.09238775190017802 0.06648002675603502
0.060478112024105087 -0.0913997499223647 0.06567853853596851
0.06043730831410574 -0.09049524970309847 0.06594793125430978
0.060394009117386065 -0.08955514937461242 0.06636027544654644
0.060131046260114306 -0.08884778985268284 0.06565272356893576
0.0602455454255159 -0.0881702575014631 0.06627546816718717
0.06350590611740779 -0.14735297640471018 0.06715642111492161
0.06379235778019422 -0.1467521620476741 0.06733166942283458
0.06431977697155634 -0.1456895582694752 0.06731089657163851
0.06484731734471472 -0.14450197759009337 0.06724081839857855
0.06527950054437079 -0.14338011426987288 0.06721335436304299
0.06565080489770726 -0.142284413630448 0.06723768893883611
0.0659231844691354 -0.14142599894039665 0.06712908100284444
0.06568774444447761 -0.1419291437045125 0.067649432372632
0.06592310173726813 -0.14125108898740948 0.06759904916332092
0.06623474662967488 -0.14062903238608382 0.06684611183938025
0.06633862005431883 -0.14017211806382313 0.0673691517203385
0.06668141350216136 -0.13909492237851148 0.06740790566078435
0.06706142954960256 -0.13802943734032014 0.06737176828101177
0.06748609922337565 -0.13693742364990846 0.0672549595829793
0.06791766883469823 -0.13586903763811564 0.06707611065979933
0.06829249047471224 -0.13483192927414298 0.06688448825947825
0.06858534134980326 -0.13382890483038795 0.0667409958501718
0.06876597179142442 -0.13291803707873806 0.06670431730077506
0.06890270542543288 -0.13219354525887775 0.06653822641626071
0.06872600504578136 -0.13260116140652986 0.06705139271478801
0.06880897410863682 -0.13185910222113953 0.06686126250219793
0.06881460507271364 -0.13092778023663423 0.06681050772749687
0.06881428824964157 -0.12994214178764651 0.06675071085321788
0.0688476126929092 -0.12894990501724501 0.06642875632237781
0.06882805653746411 -0.12833932438320492 0.06632957138468482
0.06870953386918388 -0.12876507625893618 0.06683566374890669
0.06865096550034491 -0.12802500746095505 0.06667145525909801
0.06844982223794384 -0.12704098476047232 0.06664518375126872
0.068346683712415 -0.12607030576810171 0.06636308827405976
0.06822777276918403 -0.12547090204668668 0.06627731865759633
0.06812615709573992 -0.12586461933525184 0.06676053156567763
0.06796942353206406 -0.1251567978584284 0.06658086183901228
0.06767819336432256 -0.12430499486725749 0.06653411955309751
0.06750299167315053 -0.1236314405253831 0.06637405864104291
0.06742186407138032 -0.12395967612636703 0.06684764506007161
0.06723983909463474 -0.12327900581105211 0.06666872006721469
0.06694039309358554 -0.12242147315870086 0.06663903426074866
0.06667145182866134 -0.12157348725800009 0.06665530461157886
0.06650350911900745 -0.12089345569654758 0.06650657044057061
0.06650761572967429 -0.1212486239400654 0.06699517712887758
0.06632949624263451 -0.1205653958296431 0.06683636195438462
0.06607625535011455 -0.11969357419839456 0.06683257223224486
0.06583313785339213 -0.11880065793937589 0.06682083506399025
0.06559707950824395 -0.11788836518097269 0.0668115310593065
0.06536552766703987 -0.11697172562616306 0.06683460782543799
0.06519525868447912 -0.11623372780147413 0.06675573762328064
0.06523062868091828 -0.11669871551798866 0.06722815881597731
0.06508056798518116 -0.11612522873000586 0.06723343683222485
0.0650539489600897 -0.11548247576359104 0.06655642304580188
0.0648941612220602 -0.11531373077737675 0.06719144170742294
0.06488698049587041 -0.11456015482871293 0.06647398021903346
0.06471335443129227 -0.11439541570379147 0.0671926164108981
0.06472435910676198 -0.11360851968632012 0.06649316082086945
0.06454468164099154 -0.1134146407332602 0.06726193789762122
0.06459336386555409 -0.11263670925352622 0.06659562697816818
0.06440257906544296 -0.11234261967450647 0.0674252471669144
0.06450243837656847 -0.11183718680568717 0.0667444596959896
0.06443005336126018 -0.11095323077075445 0.06658311509353806
0.0643054750052519 -0.10983071203607903 0.06691321066691643
0.06418302618070243 -0.10892674478115491 0.06674674620578255
0.06408882700646262 -0.10814149831431115 0.06687997639272053
0.06395799763783735 -0.107228476819168 0.0669540416427387
0.06382500199518334 -0.10630532384486954 0.0670423908620256
0.06363967692086467 -0.10535395210447739 0.06709056502662512
0.06340192732851602 -0.10440381651156186 0.06711830081440788
0.06314131096937203 -0.10343125672138218 0.06712362454339937
0.06284061257157984 -0.10242199744961607 0.06710669574547155
0.06252694761427499 -0.10140397796580415 0.06708918520294348
0.06224050000367378 -0.10039301778681754 0.06708674542295177
0.061973049289424785 -0.09940116310056567 0.06711143908230804
0.0617522735656357 -0.09842647208695107 0.06716161049366777
0.061573845375483605 -0.09746074037837729 0.06722517916766825
0.06144656906346812 -0.09660641440092146 0.06728105181763808
0.06118185609073886 -0.0957993699260696 0.06666429789488149
0.06125656429115071 -0.09517404917280861 0.06705599360306114
0.0612203126149051 -0.09421318508302629 0.06715860979967575
0.06116751507919687 -0.09330720231463054 0.06728886239520526
0.06109904262671839 -0.09243282073802372 0.06743547825163121
0.06075175603132729 -0.091514356926728 0.06669477529304299
0.060723855852719756 -0.09068942760849556 0.06700876801151799
0.060721282965449055 -0.08999437071732248 0.06737045943533611
0.06028636091088856 -0.08865733936154271 0.06637675232720454
0.060549859537687274 -0.0889924512428743 0.06726712029387769
0.060364408705996186 -0.08819916940917326 0.06679778202816651
0.06038097512470177 -0.08773136924841449 0.06702139732825997
0.06348308680634505 -0.14724262102377406 0.06801204473603041
0.06374630223932412 -0.14661945438392618 0.06821578548087084
0.0642490115739854 -0.14554503490435028 0.06818845047577936
0.06475355632670192 -0.1444164541111977 0.0680887278305565
0.06518975488260904 -0.14335260089318966 0.06808282514846473
0.06546038926937377 -0.14253168861614784 0.06795914901920068
0.06524835321680562 -0.14297797630453216 0.06847940475236164
0.06549189049105182 -0.14218929714450443 0.06834466742981204
0.06584390565378634 -0.1411684215148494 0.06831455835586867
0.06620779633994416 -0.14008497853695234 0.06825703374489295
0.06653935730177181 -0.13899995588604705 0.06823985344587792
0.06693117626135917 -0.13785188265540935 0.06823222743420682
0.06742960095561684 -0.13665818929141507 0.06793083476199911
0.06783805663939169 -0.1356188557931298 0.06773108461035358
0.06817050070548046 -0.13464456147549536 0.06755824228923499
0.06843556292635881 -0.13376922649835296 0.0674097997045636
0.06855894015362779 -0.13315809482229943 0.067367313096133
0.06832578708134955 -0.13364113923256085 0.06788347889079499
0.06845077247542532 -0.1328744901825662 0.0677556778705227
0.06852207149598986 -0.13193466431929363 0.06772865492259686
0.06855115456508593 -0.13100193726811277 0.0676834605276446
0.06860498687124052 -0.13024589215912652 0.06750528389545997
0.06844071658602587 -0.13070851326320407 0.06802754429457139
0.06843062129377903 -0.1300844745302686 0.06791650730461278
0.068669372532903 -0.12950261624467857 0.06716817807425317
0.06844360127956964 -0.12908023591123186 0.06758347840663194
0.06829257358907262 -0.12808995510259952 0.067529960806121
0.0682038672358256 -0.1273191085430342 0.06737560736198306
0.06804774757535503 -0.12778038127915747 0.06787258019583291
0.06792150943058162 -0.12715595192619886 0.067786852654151
0.06816586050108915 -0.12658182762619524 0.06706743721608996
0.06776628154627722 -0.12611594833282108 0.06750259539302046
0.06760311449322985 -0.1250870203170668 0.06722052472045706
0.0674482618466824 -0.12447119635487845 0.06714623051861683
0.06729660684731348 -0.12489339686808705 0.067644627704435
0.06715478668468451 -0.12415005023053068 0.06748339505944324
0.06691901493794467 -0.12325909762326745 0.06741878352008722
0.06669143111552535 -0.12243088843473948 0.06742884344359393
0.06656553649910484 -0.1217655266362801 0.06731133212069836
0.0665108855344515 -0.12214027430831424 0.06779497235063087
0.06638186287689847 -0.12146115532161122 0.0676632945858782
0.06615714219306984 -0.12059920243627814 0.0676822205624101
0.06593803759405782 -0.1197159912979307 0.06767974742836864
0.06570748719257125 -0.11882851537392485 0.06766999723119775
0.06547531022589391 -0.117937818280053 0.0676582320478378
0.06531205870732212 -0.117235398338851 0.06751142632157323
0.06532069440287815 -0.11761818248985904 0.0679956166379079
0.06516115484191104 -0.11693441900229369 0.06787216710428308
0.06492600062415714 -0.11610038766519828 0.06789920720341176
0.06469592844083187 -0.11521388005865077 0.06790772320103625
0.06448606342757 -0.11425089684358415 0.06795700408069623
