# .PCD v.7 - Point Cloud Data file format
VERSION .7
FIELDS x y z
SIZE 4 4 4
TYPE f f f
COUNT 1 1 1
WIDTH 786
HEIGHT 1
VIEWPOINT 0 0 0 1 0 0 0
POINTS 786
DATA ascii
0.06726537594032518 -0.1218315927143402 0.049860508125428006
0.06730375159562986 -0.1210600309996131 0.04983215670590938
0.0672727955660545 -0.12026343708573649 0.04979356088385372
0.06715239378153162 -0.11942264042828449 0.049688871797781364
0.0669296647522709 -0.11854164810578192 0.04951057765105289
0.06652203703443327 -0.11767105871792613 0.0492957376928174
0.06604504840523377 -0.11678937009451322 0.04909210769843501
0.06552945549874789 -0.1159328212488519 0.048952043394410595
0.06502120611240332 -0.1152408462195533 0.04873821348232406
0.06567097290797035 -0.11570721257879339 0.04939624006353742
0.06532881262268275 -0.11512571258556685 0.04926039736031629
0.06441811768103131 -0.1145279283884542 0.04830487010801818
0.06470185330924506 -0.11418354091214555 0.048865610982518376
0.06435237056123978 -0.11324815707877728 0.048787545922643234
0.06398218956787799 -0.11232389697748275 0.048686220862935906
0.06363112189464161 -0.11139533780358428 0.04862034619316755
0.0632043311695824 -0.11045628180746656 0.04852495816720484
0.06278969338519023 -0.10950552861179681 0.048429523991256766
0.062429974859779434 -0.10857530649205822 0.048376696027425316
0.062208641996371855 -0.10767086143115406 0.04840813098737062
0.062065630215602186 -0.10682826386020189 0.04849253682133665
0.06202425265549411 -0.10612055856813551 0.04864925622945072
0.06210048394516804 -0.10551160121815961 0.04891827063831036
0.07018616794933606 -0.13153892713896187 0.052363207906659194
0.0694075012789487 -0.13105151035414964 0.05175103787838931
0.0694184508246851 -0.1305613884531394 0.05178192636494355
0.06970988022393217 -0.12987791182761102 0.05200341834201152
0.0701081674790411 -0.12913753882835372 0.05227710574297995
0.06925629998817277 -0.1286397443699739 0.05158181634456445
0.0696746584324077 -0.12793451342038445 0.05171251964706159
0.07017246154747785 -0.12731109188682774 0.05188900876781525
0.06935612661547333 -0.1260751588349858 0.05114212860545651
0.0700964978595889 -0.12660863095880898 0.05169401613987818
0.07047167433053728 -0.1258009959764381 0.05183108077123854
0.06929087248696143 -0.1253883917876397 0.0510533569636284
0.06971900244411848 -0.12473200714137495 0.05133281333164914
0.06864705593305187 -0.12345511753592935 0.05076023047388157
0.06958704604859481 -0.12400997639629942 0.05132463100032457
0.06938719553474454 -0.123272111053017 0.051321555893290724
0.06840525936726131 -0.12263850769714091 0.050709779858775506
0.06814662882244853 -0.1217433684379396 0.05054983733821793
0.06829321465004036 -0.12109708036822774 0.05069632580901002
0.06826076938250032 -0.12028609404895099 0.050696104074390486
0.06810477812561114 -0.11943601535468563 0.050577404286749214
0.06775066736684046 -0.11856521280359929 0.05039983667521804
0.06725894816787119 -0.11769430356973365 0.050176885651451605
0.06676964342831027 -0.11685012168542525 0.04999470709086611
0.06623465779654206 -0.1162048263424159 0.04976511962408639
0.06690815775557137 -0.11659641685094402 0.05035016006613704
0.06637817317207977 -0.1159597130730028 0.05015743980718773
0.06591788919362955 -0.11510888110974236 0.050034218511947566
0.06548620686077855 -0.11419408546336343 0.04987629994401276
0.06510979457486414 -0.11325730599026859 0.049767066791581854
0.06473362277346854 -0.1123211725681947 0.04968083087971687
0.06435991579914176 -0.11136111482362472 0.04959065201511852
0.0639640624619667 -0.11039991283644243 0.049496021046410696
0.06354489488508386 -0.10943867755163973 0.04937229897545784
0.0631881808057976 -0.10851910812733734 0.04931892944993318
0.0629009468230453 -0.10760176932088614 0.04927295455559753
0.06269693284511539 -0.10672303452553988 0.04927888787664047
0.06252427721973504 -0.10588438616581612 0.049315926570489874
0.06237933983422582 -0.10513393702926349 0.04946696600941083
0.06230247804924355 -0.10450487316718064 0.04977290721175416
0.07182347894270552 -0.13253077406321506 0.05330192445599424
0.07099749040451958 -0.13204106382796466 0.05285727486484891
0.07109880883947785 -0.13152088302662424 0.05297754135989117
0.07025760349473532 -0.1310397459010665 0.052415709633269664
0.07062187122437986 -0.13035941414701535 0.05268742737228197
0.07107487863343101 -0.12961744151819177 0.05297553125172621
0.0714705058963566 -0.128886692260411 0.053210260847330194
0.0705342312161353 -0.1284017428636663 0.05248478824217344
0.07096993163889996 -0.12769840947968655 0.05259727682857232
0.07129425982833915 -0.12699759351050788 0.0526590618289851
0.07169276315287254 -0.1262162305378402 0.05273927704655122
0.07158535575229716 -0.12555332534472682 0.05251700234191294
0.0707777327001497 -0.12507341978442055 0.051983162770616896
0.07053944699923659 -0.12448449592645751 0.0518825432371265
0.07082545881416294 -0.12406471101801557 0.05217044313666881
0.06964122361990188 -0.12280860984447306 0.051596428720922106
0.07052714909708376 -0.12341541220845564 0.05208777381774839
0.07059712415550076 -0.12267626702097797 0.05227515524827575
0.06930894355808019 -0.12202098504525148 0.05144465454628334
0.0693553056683111 -0.12115085409368179 0.0515874724854134
0.06921274825608469 -0.12034104586160627 0.05157631374354699
0.06894228510788403 -0.11950370072909529 0.051482999334014935
0.06856093177247956 -0.11863287451810091 0.05135574710661294
0.06788632240706313 -0.11769707477380896 0.050926885376577656
0.06750610715701394 -0.11711668535636285 0.05074996613493024
0.06816234982506741 -0.1175952537435934 0.051399733909773156
0.06761870662065089 -0.11689863901679437 0.051162174443427536
0.06713128479723074 -0.11603932943442981 0.05109250127612579
0.06663885246005208 -0.11512505795730883 0.0509335543668055
0.06618908310212578 -0.114193642359422 0.05080294790986418
0.06577561925012901 -0.11325064092405462 0.05071437067888792
0.0653691714313492 -0.11227968522322271 0.05064377649335845
0.06501179347877849 -0.11127284060367201 0.05055130395511164
0.06459688803688224 -0.11028351181459402 0.05040803563387504
0.06422792774009828 -0.10936282810904878 0.050263850836869746
0.063906007721849 -0.1084765375381883 0.05020430296969988
0.06366223658170898 -0.1075746453609222 0.0501557483291187
0.06339954431682245 -0.10666132357090993 0.05013323314176657
0.0630510794951895 -0.10574362738347454 0.050112233506930094
0.06272503993397996 -0.1048658838401224 0.05014091798822258
0.06254686522812099 -0.1041397577676131 0.05034086026373423
0.06246959164974413 -0.10351492737678811 0.050639591721553245
0.07341494409048974 -0.13519876999715097 0.05388787767714399
0.07280107603876688 -0.13412702186311895 0.05369316306395885
0.07242867057009468 -0.13374758780772064 0.05347133283061146
0.0724835548983423 -0.13313875036301442 0.053595573565009866
0.07273235613878176 -0.13246731745710866 0.05388720546223203
0.07192223519825472 -0.13199967801670115 0.053468761734038084
0.07245788216049168 -0.13128948277557065 0.053847957825037464
0.07158083554473768 -0.13081383170557564 0.0533097324594119
0.07203536890422162 -0.13009478233918698 0.053625827106252175
0.0724149966696347 -0.1293847071833285 0.053894115082916305
0.07278354048890966 -0.1286839400038958 0.0540743340235169
0.07184379948583734 -0.12817314179802367 0.05337552948378788
0.07222662854466948 -0.12747357430513992 0.05347029082581575
0.07261157030024351 -0.1268078279475469 0.053526368921198844
0.07294937867984798 -0.12626317861756484 0.05366533005857112
0.07198428455625375 -0.1251301577348302 0.05278699808340549
0.07272071735074676 -0.1256486733023016 0.05337938722741647
0.07288849380916711 -0.12497362895794423 0.053456247283310776
0.0717086814030924 -0.12454650650487985 0.05264236367851777
0.07180060803824852 -0.12389049976164154 0.05284169206533767
0.07174353025412078 -0.12326305930835221 0.05297965772257588
0.07165731240594693 -0.12263041415763776 0.05309019509950882
0.07049979289350712 -0.121949968981671 0.05236896190081611
0.07037277840992807 -0.12121370428124252 0.05244434526853206
0.07013576785551932 -0.12044159371241683 0.05244724282410321
0.06981744804592079 -0.11965446893765837 0.05238228422797548
0.06938787170316812 -0.11899873663992055 0.05220564744856284
0.0699829957474041 -0.11945049224755953 0.05275462009378247
0.0695941710879803 -0.1188998703501445 0.052654219588334286
0.06874099528990857 -0.11830847092026278 0.05182914812079832
0.06882221284027576 -0.11795071438038968 0.052251052609450274
0.06825197189888449 -0.11701425130142803 0.052129910350791175
0.06772543726162504 -0.11607771312793307 0.05199403382744631
0.06720621230979036 -0.11512580002141475 0.05181872462474268
0.06676716680964015 -0.11418188798836709 0.051681222652422934
0.0664440912838652 -0.113242595150492 0.05168840266147036
0.06596217743739204 -0.11215726521696409 0.051526653689093975
0.06561765193635907 -0.11106834665844573 0.05152076547750159
0.06504576344550196 -0.11007356040182968 0.05109530501790873
0.06484747325778731 -0.10931842792715765 0.05110115063844553
0.06458358641352324 -0.10843204411070388 0.051021154716594366
0.06433178568894302 -0.10753986320123628 0.05102364422783013
0.06402547667231948 -0.10659217406135228 0.050995510385971506
0.06363441273920858 -0.10564472283436066 0.05094945462469864
0.06323405900989047 -0.10474167964626085 0.05094287867683639
0.06291908446541807 -0.10390241618601426 0.05102026079469076
0.06260452240698294 -0.10313600968450543 0.05118896271246527
0.06226276558287569 -0.1022820730697242 0.05143208497059904
0.0620073537237167 -0.10164469219733271 0.051562358800697004
0.061112489961359845 -0.09949881947195333 0.05188935261327853
0.07413403513034525 -0.13717981550763256 0.054134951104698584
0.07384591401054015 -0.13613716918807403 0.05406361903285002
0.07382412951979453 -0.13560591171954933 0.05410970104340928
0.07396910174148769 -0.13504747654593002 0.0542871178249482
0.07340561313315516 -0.13464286563329467 0.05397360173266761
0.07365490332499022 -0.134015447775108 0.05422398733724123
0.07297245762703214 -0.13361025646612462 0.05385786328565482
0.07351921146040821 -0.13289689200018667 0.05427669675061579
0.07411388937580471 -0.1321801354643857 0.054716036916512
0.073330659082748 -0.1317456624005663 0.05429960368289806
0.07386958523379136 -0.13104090299988527 0.05469847463451765
0.07295709724797872 -0.13057285367260588 0.05420792783296502
0.07338850941597706 -0.12988336418233015 0.05448765808921447
0.0737270619350743 -0.12921033034547152 0.05471626310334622
0.07402885642663462 -0.12854611966984458 0.054884149524943304
0.07314368619380955 -0.12800212063548053 0.05421038868312757
0.07348493223028146 -0.1273301662052114 0.05428664414089107
0.07373245411017937 -0.1267098991930503 0.05433175764781203
0.0738248053461489 -0.12609802529997674 0.05429510102709508
0.0738488201444444 -0.1254786624956735 0.05423583339416635
0.07390207124002628 -0.12488217208432889 0.054261129242433696
0.07289836921258819 -0.12436764871486675 0.053517568691036604
0.07283515102202297 -0.12378856360391086 0.05365276671417466
0.07271573045243263 -0.12323041367055666 0.053766377629005796
0.07259159620680883 -0.12271625714719994 0.05387866818578261
0.07155504546333653 -0.12201583433805951 0.05321444286714634
0.07129875811259587 -0.12134276681780667 0.05330105138709474
0.07094000758466923 -0.12059039892521177 0.053292114321111056
0.0704925483537409 -0.11994427548364234 0.053082374107537834
0.07101432565328256 -0.12033901353505413 0.05361124319264884
0.0705113324052939 -0.11970675614436328 0.05341131898117594
0.06992570969600581 -0.11890225412624317 0.05332403450682854
0.06932680282855777 -0.11800923349840313 0.05316563356222335
0.06878409967544827 -0.11707235548743479 0.05302174179486684
0.06829983138036567 -0.1160837086882982 0.05287961105700133
0.06766462579957871 -0.11504195562900354 0.05255813639013196
0.06727233148538951 -0.11420439066602037 0.05241502827141232
0.06716178836272456 -0.11367118606984869 0.052499335885870725
0.06766092099643091 -0.11422758148770046 0.052973250725701734
0.06750226293503228 -0.11371015158032519 0.05311220733905413
0.06682379128324965 -0.11297238503946004 0.05239907270773564
0.06722045874225631 -0.11291815882621646 0.05317261674845655
0.06650133708778834 -0.11206222665065765 0.05237526774048657
0.0669788011581512 -0.11196988583600535 0.05323345398703015
0.06629255108362309 -0.11128036909419044 0.05241764621685816
0.06579624860127808 -0.11025384982401842 0.052068922578034325
0.06532466715768169 -0.10919356075121014 0.05174576592943421
0.06517487525951615 -0.10844209289350679 0.05186310726523117
0.06493183907902174 -0.10748516789992558 0.05191871074414152
0.06455779361362625 -0.10649315038451096 0.05185936242799471
0.06414151874239805 -0.1055562399880478 0.05177427811415604
0.0637511722561348 -0.10466428391191553 0.05175848479176304
0.06333568283280105 -0.10376794815825233 0.05177157417168519
0.06288381406041543 -0.10287588698260584 0.051819040004140844
0.06243788420967122 -0.10200420644348035 0.05188457771189844
0.06204879965774467 -0.10116891821183714 0.05202124067793812
0.06153132524913159 -0.10005194709634559 0.0521267909772355
0.061287092490138965 -0.099486105936498 0.05224336005681627
0.07378880024034734 -0.1397695234508138 0.05374619862964666
0.07406497848298982 -0.139067827106386 0.05397524489454816
0.07411973531364154 -0.1384116546683061 0.054004279096465324
0.0743510765431794 -0.1377271524568714 0.05417796171296835
0.07461897066924722 -0.13704679533527023 0.05444150268329404
0.0742314454162247 -0.13658260100506778 0.05426001828174398
0.07442941794267796 -0.13596246769707987 0.0544615631010963
0.07470753324414588 -0.13532863231804512 0.054699555720609076
0.07524433110328273 -0.1347179807118057 0.055012095621949586
0.07447122525211414 -0.13438987491055596 0.05465158225972433
0.07509305641135873 -0.13367837009066297 0.05511581658233323
0.07425585413690695 -0.13329965824746726 0.05465682198117642
0.07493901711596881 -0.1325817427418175 0.055109045963269675
0.0755325268221829 -0.1319046474810374 0.05555853669161653
0.07468024327764941 -0.13149493806654194 0.05514728474869635
0.0751436941897119 -0.130854379485017 0.05550954670528898
0.07428966832407592 -0.13037839604734916 0.0550490375911657
0.07458295067774473 -0.12972916653814118 0.055322113335505595
0.0748904472734731 -0.1290996810183047 0.055482726178045824
0.0751733727200205 -0.1284884560970134 0.055616525792011734
0.07434237376255352 -0.12790329511246665 0.05498368138147206
0.07459671356904324 -0.12726636645103812 0.055058040013542225
0.07474963412744787 -0.12663778267324716 0.05506642943957501
0.07484193250964713 -0.12600707672128314 0.055017760905355394
0.07483651807433324 -0.1254057619224842 0.054990275835049104
0.07479542613670706 -0.12488641369092948 0.05503343614721943
0.07388804089069868 -0.12432540927616424 0.05436496808606399
0.07375972688740905 -0.12378241977688693 0.05444058396760538
0.0734873318073307 -0.12326847284528131 0.05445147043979009
0.07326989284160293 -0.12290623707977552 0.05452281827825095
0.07253718771154466 -0.12225481105713287 0.054196790045893374
0.07197904028375825 -0.12149490949480124 0.05418290593474296
0.07147866586118141 -0.12086764610781979 0.05400077391874225
0.07197278509998846 -0.1212515373201472 0.05450614010783989
0.07147533901702414 -0.12059712546833645 0.054282736475723764
0.07092967522046077 -0.11981976030029573 0.05421526939261731
0.07036627049398757 -0.11898688211710423 0.05413756983622855
0.06980052072836897 -0.11807063970513383 0.054058653804310595
0.06918115503748612 -0.11708267347613574 0.05374149282782893
0.06895665934012368 -0.11648208552830527 0.05367196630482703
0.06947876901051127 -0.1170388471349523 0.05420538284123316
0.06925470513515711 -0.11649300554048658 0.054190994996495004
0.06852398777220942 -0.11577704548990937 0.053409797288262534
0.06882554939283644 -0.11568671328775038 0.054055772502578245
0.06803157574757948 -0.11492189832238604 0.053183333926866604
0.0682707879735772 -0.11466206324647596 0.05379127225568545
0.06795068400369544 -0.11378875207042444 0.053873619861124544
0.0676582482191216 -0.11296377932646036 0.05393418798006247
0.06747325026950002 -0.1122728377073003 0.054069267554382246
0.06650998536345867 -0.11103240111643094 0.05288826107768122
0.06703171219409854 -0.11122970604667223 0.053785901171478856
0.06638308746434066 -0.11043989133059544 0.0529704860638815
0.06595064920014784 -0.10948067376502997 0.05263559915132209
0.06572509409355236 -0.1084238103312417 0.05276575557713535
0.06546495729914803 -0.10733364896828261 0.05290453416095693
0.06492776175058607 -0.10629619221294608 0.05254702688827159
0.06462943033567639 -0.10551621951872239 0.05258403970767181
0.0642329230642968 -0.10461538235717839 0.05256169929368631
0.06378785578935572 -0.1036986651801692 0.05257284492117593
0.06333332338431619 -0.10277629967807456 0.052591541035573855
0.06283972869985022 -0.10182829679328312 0.05260055166993904
0.06230786868463578 -0.10086370584551235 0.05264799475925724
0.061830480366683656 -0.09995747310292759 0.0527340402240372
0.06153006087620196 -0.09924691647812228 0.05297584606747953
0.061402014513001035 -0.09862471244287148 0.05332147817341719
0.07321952863913993 -0.141116546833276 0.05374718384187528
0.07355697068970701 -0.14043280415616308 0.05378874907550605
0.07405208690315117 -0.13965326049050308 0.05396936408932157
0.07443416575553674 -0.13904117232510385 0.05426862551778474
0.07455421950973716 -0.13834927568772226 0.054360543473170445
0.07493593552859133 -0.13751991648880668 0.05466667128692273
0.07521591135392369 -0.13693953593910865 0.05495844015418811
0.07514277402867721 -0.1363640201306238 0.05490976242654194
0.07548303092442003 -0.1355954085963231 0.05519109586003953
0.07587758747487447 -0.1349740545393566 0.05539140243334043
0.07630583160446208 -0.13452648014224458 0.055633332242030924
0.07610316007502944 -0.13405700841522528 0.05558308440724065
0.0766669043372492 -0.13332827629441785 0.055966954723577544
0.07575567581280471 -0.13296451376572088 0.05552858037085433
0.07637668604907322 -0.13230290676513926 0.05594173763358271
0.07688768477671358 -0.13169063244167886 0.0563323084967679
0.07596972711496044 -0.13129470733265974 0.0559430767577143
0.07630634934368813 -0.13070474496076723 0.05631730707659772
0.07546660845502369 -0.1302336500637682 0.05583810763424696
0.07573013847491625 -0.12962288533941832 0.05607320439209334
0.07595880283518898 -0.12903424921158363 0.05621733068184177
0.07621321112120816 -0.12848265017376673 0.0563221541824689
0.07546056210571939 -0.12787877790499985 0.05573755256846153
0.07568092548678275 -0.12725304807999377 0.05580141270622962
0.07579615490027666 -0.12659547520547815 0.05576907360484204
0.07576538222106936 -0.12595612941046594 0.055731501856512024
0.07556862772662253 -0.12540265979699675 0.05567094771949529
0.07542164654594725 -0.1249955337459405 0.05565496093665907
0.07483724530866036 -0.12442562257295682 0.055278098684505575
0.07442781985597915 -0.12377652402566433 0.05519742821281166
0.07388052307536917 -0.12328185461522122 0.05493609224314385
0.07435206979223322 -0.12349492663224938 0.055394011920740886
0.07374172469115359 -0.12300432719581983 0.0551385474752329
0.07307879829479313 -0.12230942251303276 0.055047731736094854
0.07249577082175111 -0.12173669345943755 0.054845619235836855
0.0729767846465714 -0.12204905279436125 0.05531476223781913
0.07245108432175837 -0.12147490877290931 0.0551279903414602
0.07194553833031292 -0.12071278937074946 0.05506264284611445
0.07137972284991972 -0.1199283352555575 0.05500583698473422
0.07082253495564796 -0.11912177035852799 0.0549636812721229
0.07036678456341025 -0.11843853064546916 0.05480861456826688
0.07087228447468659 -0.11890349647861262 0.055301213212153616
0.07055485430239476 -0.11835277452118491 0.05523087649549816
0.06989962364848473 -0.11774097316940445 0.054502462166519564
0.07003824124187102 -0.11744033627965372 0.054967310093863596
0.06964240870879958 -0.11655420449099865 0.05491560839377575
0.06920267976227698 -0.11564337813327726 0.05479307467372652
0.06880451900398021 -0.11471543669766429 0.05468094987855552
0.06840824560586621 -0.11385087910191238 0.054672465098346716
0.06805088587559867 -0.11301544559341188 0.054694463979857125
0.06772112604693063 -0.11215916142689637 0.054674083012366946
0.0674790875990251 -0.11138900457989839 0.054686799594470994
0.06657916220766272 -0.11019363933217913 0.05346240537863234
0.06700401636377586 -0.11038560420747826 0.054334010322730074
0.06640154774566111 -0.10937328827212667 0.05356470045701219
0.06673070860840573 -0.10930283041759253 0.054441175243903676
0.06617220556049307 -0.1083890924970331 0.05369191498794627
0.06647748739500413 -0.10825642998218694 0.0546047687127776
0.0659874793681947 -0.10757075012036334 0.0538293454706503
0.06546300717372268 -0.10650714903715028 0.05354878279493047
0.06491838201132914 -0.10540820953537712 0.05327751696000128
0.06462853773755706 -0.10460821409274118 0.05341248394152748
0.06419713883854691 -0.10361627410153511 0.053396151362236056
0.06371813316119751 -0.10266269564156841 0.05337528609710916
0.0632317149407434 -0.10171929296483632 0.05340205638600166
0.06273156666624058 -0.10077373781630902 0.05344495466272335
0.062227529777809654 -0.09986165650630648 0.05351378723349298
0.06178714937648448 -0.09899931972713172 0.05363907586632935
0.06145353263107103 -0.09819667371342201 0.05384266115862838
0.061090100636030105 -0.09728829819485625 0.05409950561460366
0.06080469824323417 -0.09657565399500763 0.0542310106031447
0.07306266480454388 -0.141440095451608 0.05378376935634059
0.07292373961482078 -0.14166912778855212 0.05391793070060445
0.07322531504120246 -0.14114137219175926 0.0540278581048229
0.07389373629779558 -0.14013027182698365 0.05418793870737892
0.07441217133280995 -0.13943293338827734 0.05438315376683437
0.0742983932207438 -0.1396441858661827 0.05467354739448794
0.07473822398865243 -0.1388496815979322 0.05482440317926904
0.07526747585504072 -0.13788147957627206 0.055086953664674296
0.07546271566280001 -0.1372400023923506 0.055158081976032294
0.0757329733133869 -0.13731757436907413 0.055504694059946263
0.07581996332168434 -0.13670435415091048 0.05552504505927748
0.07619858067896286 -0.1358861578970913 0.055737358367206634
0.07661857487177132 -0.13512455562557732 0.05594974749832305
0.07674759105043032 -0.13468130831615585 0.055895783555144074
0.07723385621025936 -0.1346784542659139 0.0562870407305592
0.07724225514277273 -0.13426181355109015 0.05622116873436497
0.0775529060943012 -0.13362921925009297 0.05642027509932747
0.07801606985282139 -0.13304037876438013 0.05672294245999801
0.07722583736794472 -0.1326815897685543 0.05637913459622613
0.07775419151948987 -0.1320758126075657 0.05673601021901901
0.07811820942796215 -0.13149746846363847 0.057097480706296944
0.07722164127302077 -0.13111449713888734 0.056719381145934444
0.07749146761771016 -0.13055472167707702 0.05705341966774344
0.07660417002668657 -0.1301106032555007 0.05661240991444032
0.0767963440265333 -0.12951479669080895 0.05683509065827552
0.07696045760364588 -0.12896017187541658 0.05684961307029373
0.0770900494387466 -0.1285341828957409 0.05684663586435388
0.07668683556406738 -0.12794794882764013 0.05653324308484705
0.07675506979923144 -0.1272314661863577 0.05649559250339243
0.07672215609342857 -0.12657082003883327 0.05647975282184557
0.07649895623083737 -0.12590356253619003 0.05645220727769348
0.07600554077482838 -0.12535017991868377 0.056124642019027796
0.07659775720890068 -0.12552182843240725 0.056684027334305935
0.0758323918321227 -0.12496795934968088 0.05613886695752478
0.0755031140706883 -0.12442621566088233 0.05610083685392903
0.07491386723794856 -0.12386898962464223 0.05580716089612887
0.07551024090104054 -0.12413333309200168 0.056398210872481064
0.07469662179027117 -0.12357065621376344 0.05589642187280105
0.0742097138204289 -0.1230722957490666 0.0559284478509471
0.07354038717032761 -0.12248088984637355 0.05567827986644482
0.07413898985059177 -0.12277797631077188 0.05625598352350857
0.07334449317016228 -0.12214448020444275 0.0558093564945618
0.07292763766576629 -0.12156897815739492 0.05586120014361487
0.07242221997610737 -0.12082281289594181 0.05583128156798692
0.07186771631051245 -0.12006889727366782 0.05580088523061179
0.07136367148751692 -0.11942624026476686 0.05561777967636244
0.07181822445427215 -0.11981781602338218 0.056116517276760154
0.07136576306267692 -0.1191578441924117 0.05592654713599936
0.07091006316779619 -0.11835053209023327 0.05587072655450893
0.07049122931189199 -0.11748054899423037 0.05578217949184362
0.07010147615057741 -0.11658090814508722 0.05568314253818159
0.06969344654676063 -0.11567020288490994 0.05558772577194567
0.06925488939872372 -0.11476801566940872 0.05550843825509974
0.06881843421763596 -0.11389439758318401 0.05548549322836737
0.0683958376664244 -0.11299432685059464 0.05544643187073129
0.06798966209162653 -0.11208432911439764 0.05542299444810044
0.06757823319692248 -0.11110649160801862 0.055279274627552076
0.06717582292065685 -0.11013177514788638 0.05517188200009945
0.06690464200613565 -0.10920600802563624 0.05525967778758954
0.06672014214906287 -0.10846427207345279 0.05542003990373348
0.06611767466792451 -0.10730704546164638 0.05434574859083559
0.066419576137507 -0.10746915781707583 0.055236165483197056
0.06593382645382914 -0.10669973397576285 0.05447763262501276
0.06542362888547222 -0.10570251194605042 0.054191835056663744
0.06500211092647111 -0.10450587429518748 0.054366544655947174
0.06442351719251867 -0.1034233933337509 0.054065847325962126
0.06406426107869954 -0.10260096750080447 0.054207714462224485
0.063545417260395 -0.10161091067994311 0.05424098250754444
0.06304256492263921 -0.1006639085502771 0.05424189780252224
0.06253190301487024 -0.09976282491457161 0.05430672291835629
0.06207226715232271 -0.09883861805564755 0.054379603535210035
0.06157699933995577 -0.09789849342303308 0.05447150223000692
0.06111795517883906 -0.09696326462365523 0.054577060836595796
0.060786373940259306 -0.09608139406385735 0.054796183644622125
0.07156098068935958 -0.14316318281954576 0.05462931232340248
0.07198984614675902 -0.1428398481019416 0.05433603470495184
0.07201292946284013 -0.14262886137343628 0.054574583804484246
0.07260917766481732 -0.14203952958845148 0.05424352762735369
0.07254482168792734 -0.14195209786692584 0.054648817369658
0.07303662490549093 -0.14130090733720188 0.05457371289626843
0.07279044283882372 -0.14144536246041717 0.05499553611906387
0.07337690501283509 -0.14064669823872222 0.05515037837045357
0.07367381521643679 -0.1403957983981533 0.054634422946435994
0.0743352880610661 -0.13949633835722905 0.0553313180008572
0.07518058965962811 -0.1383671665986295 0.05549459867814345
0.07563224991871481 -0.13770559448128972 0.05563574846802106
0.07550800165157319 -0.1379046771860063 0.05598455993641261
0.0759545629827618 -0.13719228855186577 0.056068533284477265
0.07647977666520854 -0.13629875328856703 0.056261589513154395
0.0770846418373161 -0.1354928255191624 0.05645143664144228
0.07734025266812163 -0.13494556146342127 0.056487941189000655
0.07769405454110244 -0.1350465489627592 0.056801761405059145
0.0778552636544013 -0.13454401202602162 0.05680491573605998
0.07823303987753276 -0.13388463566323228 0.05692980112025896
0.07858114909896403 -0.1333497283540467 0.05706911583387246
0.07887688315433451 -0.13294692853053006 0.057254279353539335
0.07865863599807633 -0.1324871924352236 0.05718166678902617
0.07895400031375673 -0.131856363139272 0.05750617034809656
0.0791508972515576 -0.13130576780459324 0.05782360636266023
0.07836308587754036 -0.13095061876675942 0.057435707147451165
0.07854497466757583 -0.1304255818629068 0.057783663434450815
0.07768892343981694 -0.129984113799528 0.05735380751543541
0.07788621521229629 -0.1293585803770175 0.05752808355112595
0.07763655378305978 -0.12883220436003642 0.057269356058099935
0.0783934133525389 -0.12887630604242947 0.0577931898194745
0.07774504396225344 -0.12840570302579332 0.05726938556582589
0.07774204356400002 -0.12781957703563668 0.057220303306994416
0.07768718178858929 -0.12720398645811606 0.05719475440542246
0.07754592530205577 -0.12658319407212895 0.057200592107330576
0.07740139976357065 -0.12604832875287292 0.057180098640957376
0.07732645353775348 -0.1257118226514595 0.05720792140679265
0.07670416832346515 -0.1251857927077072 0.05690765934345662
0.07638277295022046 -0.12470257752935318 0.05689743701737587
0.07615680493955838 -0.12438828765007662 0.05696674694530314
0.07544046641685576 -0.1238499074439207 0.05668882442409507
0.07498054359499512 -0.12338815160397698 0.056740149025637315
0.07470045587077881 -0.12305008863312021 0.05683954331562485
0.07402215660343525 -0.12241995759172425 0.0565834590918615
0.07346981669625444 -0.12169687976355612 0.0566405395425735
0.07288522996696559 -0.12091502577214595 0.05661339431718605
0.0722750565940171 -0.12030189410332656 0.05643721776935487
0.07274172884161098 -0.12058639932761561 0.05686290352748397
0.07221700838718985 -0.11997969140384446 0.05669425076606254
0.0717889439424763 -0.11920626528505844 0.05665683491160514
0.07137772107661398 -0.11839774924981493 0.05661985343492813
0.07098252474486845 -0.117529765236266 0.05656124067340506
0.07056175880255255 -0.1166291536872392 0.056487681569270545
0.07016044246227893 -0.1157055768868256 0.05639823752526627
0.06971387076028993 -0.11479266701229418 0.05629968637336248
0.06924100737961317 -0.11389079777549355 0.05624832844664715
0.06873405997994052 -0.11297155455067709 0.05623310279876599
0.06822028837662422 -0.11188074793441165 0.05628574681350715
0.06763178540884061 -0.1108054841942688 0.05584045971890609
0.06733719370514325 -0.10998821235804758 0.055931892527482555
0.0670341321955951 -0.10908959973194558 0.05598200755428779
0.06681755474183113 -0.10826779187538611 0.05599539610895504
0.0666467921849401 -0.10756876863927121 0.05609159608339512
0.06601959883929724 -0.10644293802536683 0.05499516696524851
0.06628114503951427 -0.10663124019421819 0.05586252008813643
0.06569564524054043 -0.1056055421119569 0.0551394723219628
0.0659186411571141 -0.10547335646251883 0.05606030537389971
0.06541823354399195 -0.10476755793041213 0.05528966437270309
0.06484813083670246 -0.10370560354040216 0.054998410127040764
0.06433356911190292 -0.10246422990543931 0.055211000325274276
0.0637225567230647 -0.10139137991641858 0.05494085357669604
0.06332457207402904 -0.1005812392349393 0.055047251726713965
0.06281792352555052 -0.09965621919992365 0.055092267359019065
0.06233610419323505 -0.09871174093325771 0.05515453869384316
0.061809543301186494 -0.09774597815497252 0.055232349398314666
0.06129922732298513 -0.09674776572362406 0.05535467153839433
0.060808139112106016 -0.09570451163203818 0.055605804700940266
0.060536556643990234 -0.09533179855571262 0.055137126091741415
0.07121060699878425 -0.1432742185511275 0.05499243628168326
0.07107134169758948 -0.14293981845029388 0.05550938411626444
0.07153455044774377 -0.14286662537113895 0.055016420263874946
0.07174080765844582 -0.14221808643712383 0.05557595531857851
0.07221910732460034 -0.14208246269233404 0.05505762613336076
0.072685836218527 -0.14118994950415187 0.055590600750741
0.07360703923750145 -0.14011219656931276 0.05578359282651679
0.07434827685377299 -0.13936208504018047 0.055998576307128324
0.07388712123518805 -0.13964295716948205 0.0563025368613022
0.07462887676822884 -0.13889990278751027 0.056506659384703964
0.07499761478821626 -0.1386256836226886 0.05602026380723009
0.07550462631040676 -0.1378112310302494 0.056639029309822043
0.0763760821575963 -0.1367790413431283 0.056749065861209994
0.07711059452798304 -0.13595903901809087 0.056854772057433244
0.07762403799294312 -0.13538643235875084 0.05694438052215181
0.07757749427846682 -0.13562823459659323 0.05727241184984984
0.0780065030696412 -0.13499652456799435 0.05730103657499506
0.07856801271296435 -0.13425762844388747 0.05745125581368409
0.07902988318041888 -0.13357893964670806 0.057553427987938624
0.07922381539921074 -0.13315190686457246 0.05747932085756752
0.079534564187028 -0.1331976294777775 0.057817650080676554
0.07954453335163808 -0.13277450540987704 0.05775838875324223
0.07971859686409238 -0.13217358044092212 0.057934000172305385
0.07987727489521138 -0.13161478138964897 0.05818543570046939
0.08006777085668473 -0.131134724012044 0.05845489629492249
0.07938457258959897 -0.13079359600840676 0.05813246103961165
0.07959378034461069 -0.13030227196782243 0.05841470882144741
0.07874565168240148 -0.129897422998586 0.05805342256103192
0.07903017480996721 -0.12938135605578657 0.05827337049524939
0.07932119642635903 -0.1288680178455548 0.05838820168345143
0.07860080014404702 -0.12835746560101613 0.057852740947218866
0.07861456742495654 -0.12778150495531493 0.05787565770434123
0.07854587173760694 -0.12719863282350918 0.05788632701461961
0.07840631601982606 -0.1265843588803242 0.05789714824438597
0.0779519433682055 -0.12607423391838682 0.05761974519885783
0.07855443699588065 -0.1262522861705925 0.05812701038047011
0.077820263136919 -0.1257485480386746 0.05765147945818583
0.07748412010136402 -0.12524472525124974 0.05764386364302129
0.07681199924331769 -0.12476258720504867 0.05737878959074644
0.07741870229146362 -0.12492297161226781 0.05791129812793822
0.07651346897916775 -0.12441551752853082 0.05743145212505274
0.0760271887705375 -0.1239335053793357 0.0574626999763261
0.07528904589676223 -0.12344622864004612 0.05725032236110934
0.07585757505096438 -0.12361623369258973 0.057792974543214054
0.07497797712131644 -0.12305162031669076 0.05731296460554587
0.07451285738898578 -0.12246995003154335 0.05735465746520058
0.07395729522320724 -0.1217617301719564 0.057474476553530295
0.07330927944818937 -0.12105834404789129 0.05722406236875041
0.0738392892332758 -0.12131623250518295 0.057832926372971
0.07306322602965029 -0.12063687197101598 0.0573335080651108
0.07267742305835023 -0.12000775223267726 0.05738019033282693
0.0722652455932342 -0.11925611974674527 0.05739993793466555
0.07184807587213352 -0.11845712448416791 0.05741103155098331
0.07149791363712688 -0.11757488694177172 0.05735014052561293
0.0711228304130867 -0.11664685920893707 0.05725418505373266
0.07070212281232112 -0.11571603578729342 0.05715194689379065
0.07021644032165283 -0.11480771316561446 0.05707804972697048
0.06964370851503254 -0.11390923520093323 0.05704593170464649
0.06905331333621803 -0.11303920390153771 0.057081742516608795
0.06866411246078499 -0.11235207935700857 0.05704706152307893
0.06899169320308823 -0.11278275525825411 0.057450894301416824
0.06873904753440953 -0.11221498599341953 0.05751620121440283
0.06834417558422323 -0.11177340527748278 0.05692701625872005
0.06789860046426216 -0.11093690947791568 0.05662373725337813
0.06751342806542654 -0.10978774963957467 0.0567782014098498
0.0671097822174037 -0.10884863455100165 0.056564952245086966
0.06694056895290915 -0.10814932577969469 0.056672058960821545
0.06668216453703305 -0.10732731502427617 0.056672655836912895
0.06644219697707163 -0.10645641046263289 0.05672885400373276
0.06622325808547432 -0.10569897114118526 0.05688859352364702
0.06544527120347274 -0.1044541581034068 0.055807282428292464
0.06577622482462067 -0.1047002655062179 0.05669551191869163
0.0650961964131231 -0.10360045840376084 0.05597670408184789
0.06528811782651595 -0.10350672590712531 0.05696305439342686
0.06474876275412345 -0.10272312239133671 0.056171295079127784
0.06411036917178405 -0.10156198163210546 0.055953841461674994
0.06345477422239909 -0.10041790593229644 0.05576158832177624
0.06306975124911726 -0.0995944276747335 0.055902701494216736
0.06252258495959541 -0.09861885195348297 0.05595448501675154
0.06198472400313322 -0.09766659687331722 0.05606818044958716
0.06147815775286616 -0.09668970637912029 0.056213425706854635
0.061104236243547216 -0.09590480923340791 0.0564367886296345
0.060481352756784366 -0.09494539122188748 0.05563481450770375
0.060666873246786414 -0.09501928517444755 0.05633328606550939
0.06042420746019091 -0.09454488310371699 0.0560697176349456
0.06991774000600842 -0.14312947876182144 0.0564010794960488
0.07044455040887267 -0.14300403989401775 0.05605635205788523
0.07034270979801435 -0.14271582739834865 0.05648753791285532
0.07107082698356519 -0.14242637902355848 0.056068212324707545
0.07124902472143152 -0.14179522843372405 0.05666887381460297
0.07205173843214666 -0.14142119289624927 0.056212157580460616
0.07236913855010595 -0.14063531757824047 0.05691136608695311
0.07306177262270268 -0.14039349898999787 0.0562958061511689
0.07369579871426951 -0.13948864393940255 0.05688687720200996
0.07475763014840019 -0.1384647887173489 0.05709652406433279
0.0753773235978737 -0.1377464673061421 0.05729582981299225
0.07487976986748983 -0.13813402431452967 0.05756631102718413
0.07555325120732767 -0.13746490720813234 0.057730251252369025
0.07605099340977899 -0.1370944284278404 0.05726795069586913
0.07651651378926863 -0.13661828552004104 0.057804519752107916
0.0769399480977306 -0.1362913903061533 0.05730513027959282
0.07758945699398916 -0.13565999479738095 0.05779722552839285
0.07851202017348179 -0.13475546075803516 0.05792551037309526
0.07915744799081008 -0.13398223119274055 0.058032466577506804
0.07951963051807977 -0.13347764039445315 0.05800875638115229
0.07956428573286163 -0.1335945340117507 0.0583345846926108
0.07983689484227706 -0.13312585210941058 0.058309755420452185
0.08014514771670946 -0.13250424803905392 0.05843101016060145
0.08041651983891819 -0.13193611596449928 0.05858716788759532
0.0806426785417127 -0.1314159450751402 0.058755251567728026
0.0809194777168621 -0.13098623698647266 0.05895920891441214
0.08034534288832326 -0.1306752413545231 0.05872853604279918
0.08065564253430611 -0.1302157133959692 0.05895986310314821
0.07984867727937571 -0.1298267172694467 0.05863962076606755
0.0800786904361954 -0.12934211255665595 0.05881133620954886
0.08018063744884753 -0.12882971993573114 0.058962718713455514
0.07943062874484948 -0.1283315898439676 0.05847672480923754
0.0794160616618966 -0.1277566749371309 0.05852654005264558
0.07934806264565705 -0.1271996082235436 0.05854035973993023
0.07921406329040132 -0.12673186258256622 0.05857060154950779
0.07910938992779697 -0.12641118635423743 0.058613820425031715
0.07857610295570094 -0.12593783115884546 0.05835926253427726
0.07827356731396047 -0.12545978437231173 0.0584212686584418
0.0780205137868972 -0.12510394039532505 0.058566351902973386
0.07713936156447092 -0.12456117727722274 0.05808561949097249
0.07681811982836591 -0.12417532219325304 0.058265145705667126
0.07646437921554534 -0.12375708110447318 0.05847636433694717
0.07551291354476569 -0.12315225421610007 0.057965316519711124
0.07510424123266496 -0.12260354130780016 0.058128810484503246
0.07473031763398288 -0.12204428278167646 0.05835639144429975
0.0743996317640917 -0.12144393863391514 0.058556771809426665
0.07352176534718292 -0.12074464194871608 0.05800642462649886
0.07313596435396624 -0.12006022505378529 0.058113186753988466
0.07274931926714501 -0.11929288292857422 0.05815051264470107
0.07237341600281401 -0.1184841721153901 0.05815469601768232
0.07203863731513246 -0.11759825884868436 0.05810507380298203
0.07168255946476317 -0.1166678980113599 0.05802369183190481
0.07123921580382908 -0.1157385150981293 0.05793867655354607
0.07065816398956565 -0.11482271469265186 0.05790867225368865
0.0699847076163092 -0.11389875010992195 0.05782778757982381
0.06937642196511921 -0.11325150076422061 0.057658011187382834
0.06979235025883863 -0.11350726481816706 0.058031007733899895
0.06932495301230202 -0.11294374717078871 0.057937903996919816
0.06904993444762288 -0.11243465824030446 0.05808882134603004
0.06830332507547639 -0.11148012922074461 0.05727771516464719
0.06861873770502193 -0.11167017952170229 0.05800039210821747
0.06805755481851182 -0.11075663243841705 0.0574133703868707
0.06827118445559902 -0.11066676654219748 0.058279635531297454
0.06782571329504297 -0.10997601335439754 0.057581255630434654
0.06738963170467019 -0.10895733974494123 0.057419883112555165
0.06700235328328412 -0.10794065282578269 0.057257735858602624
0.0668129958582898 -0.107214757620998 0.057384191285573934
0.06659734662613205 -0.10638091373108223 0.0574563544739611
0.0663131601054748 -0.10552479937826033 0.057524533323860594
0.06595431622965663 -0.10458586610649775 0.05761721777299694
0.06563606734179293 -0.10379359576309846 0.05782537051966635
0.06474226385571015 -0.10244878628743041 0.05674514132486105
0.06505249431213285 -0.10268116654007348 0.05769654496931384
0.06442999441712373 -0.10178652714778359 0.0569493819602805
0.06380744275010604 -0.10061841192793892 0.0567631182922843
0.0631508410796932 -0.09942642890962941 0.05660234714737316
0.06266784823718478 -0.0985803767284832 0.05676761612511699
0.062085746073311444 -0.09762231608099914 0.056888068112338014
0.06159543178085771 -0.09669563245677376 0.05704872125212962
0.061137601705109276 -0.09572022815817202 0.057144697083507404
0.060736594836328296 -0.09483849433747639 0.05727585894734729
0.06048625384738173 -0.09443394145125485 0.05670184457447148
0.06967196836132333 -0.14292853383567025 0.056895613437901504
0.07041748310550434 -0.1422008345079727 0.05705901246422379
0.0714101560972569 -0.14126140294701453 0.057259820628175494
0.0721184457718124 -0.14048675835788618 0.05746769327791965
0.0715290731532698 -0.14086465699002468 0.05772723734111511
0.07221685765863059 -0.1401267795618933 0.05791602520776799
0.07295475934301215 -0.13977012238852699 0.05746150585034601
0.07331083637798246 -0.13917486984449703 0.058021246031242764
0.07401438610355324 -0.1388545185637601 0.057524019902781054
0.07459148724084101 -0.1381615827863652 0.05806401217623662
0.07581090355616489 -0.13714011294349077 0.05826341898607524
0.07688406701791207 -0.13613070670906013 0.05842384719319809
0.07807448967001258 -0.13522752550266812 0.05840100294479505
0.07889509244028105 -0.13446447557899754 0.05844458796930026
0.07930991715750614 -0.13392314177037884 0.05850101546916649
0.07913412267384841 -0.13419781806761813 0.05881143151771002
0.07961842018622653 -0.1336035901132537 0.05880696957450179
0.08021618770972967 -0.13292865256292813 0.05892264597824242
0.08067947078044362 -0.13229810497805825 0.059030154112447955
0.08105670943549677 -0.13173364599316664 0.05911146441505771
0.08133106529754687 -0.13126363414882827 0.059193183195475355
0.08151809677242729 -0.1309471335102228 0.05933041152382553
0.08135545771030737 -0.13060698247152464 0.059290456626124075
0.08150645773008927 -0.1301219615124475 0.05949852407944031
0.08083206980019077 -0.1297456901491752 0.05916060303655287
0.08090469403226389 -0.12928225480377548 0.05935924179846545
0.08091066939992304 -0.128775476851269 0.059509127617785686
0.08018409436463085 -0.12829258053390016 0.05906732554486308
0.08015717433693716 -0.12774047761179205 0.0591157006234676
0.08001217574145641 -0.12719238623789014 0.05918521325375174
0.07959120189014258 -0.12671695602376218 0.05898651824746546
0.08006473441937309 -0.12681804615995748 0.05942867280750877
0.0794224206415903 -0.12639101530459945 0.05900572696302018
0.07911006595827341 -0.1259801495168334 0.05901652728113407
0.07877735881144034 -0.1255441414953505 0.05903112538135689
0.07849442573651187 -0.12523462090643128 0.05907458394083097
0.077845954841366 -0.1247742581200734 0.05886494646780629
0.07738886124006265 -0.12427112009069612 0.05896458673308404
0.07701283094782867 -0.12383078397503376 0.059131919893312616
0.07611706224955193 -0.12326684747430892 0.05869125070194223
0.07573951409029271 -0.1227174099832079 0.05889287581144874
0.07531874100637762 -0.12210823885071226 0.05908716684866199
0.07492116528181259 -0.12146350609864337 0.059238486604134846
0.07402739033571008 -0.1207892059237391 0.05870218082406685
0.07365552993978275 -0.12007195258035223 0.058803618586025154
0.07328366886212599 -0.11929392888814909 0.05884482612938951
0.07288955819767722 -0.11849236720279142 0.058868973982200784
0.07254614688610304 -0.1176129155242115 0.058854153973986946
0.07218856674334241 -0.11669413756600759 0.05880148814731374
0.07175014010177014 -0.11576561179918043 0.05874370435090764
0.07113766599391284 -0.11476927623057384 0.0587985665035118
0.07032286371670952 -0.11396426241129966 0.058383989322134365
0.070648937369348 -0.11412560342259964 0.05887946870469237
0.07001246959180574 -0.11348723320864416 0.05853823910457195
0.06949608624738063 -0.11288225446368615 0.058444033601384025
0.06919468589344623 -0.11236811442673211 0.058645637015634584
0.06884318103018167 -0.11161624590189718 0.05884679725551246
0.06862309697243858 -0.11093302138020958 0.059088008161812144
0.06787532063636653 -0.10974238390596214 0.05810434418068865
0.06821670555326059 -0.10995402952219363 0.05897557473391799
0.06773153664338745 -0.10914794193823552 0.05829680519887054
0.06735658255221698 -0.10813991736159412 0.058142229768840356
0.0669907198974701 -0.10711364972106162 0.05802341227022667
0.06681760264171915 -0.10639301299522247 0.05822253344866041
0.06650606786787064 -0.10549943401729746 0.05833873219262599
0.06616068145132174 -0.1045833926440836 0.05842502981785842
0.06572747921818925 -0.10367666129776226 0.05848749478193828
0.06536069173183147 -0.10289144912817189 0.05862434079620574
0.06441523102269602 -0.10154704007973593 0.05753259797833448
0.06470159418450691 -0.1017663556702784 0.05847124192862028
0.06409066126510493 -0.10085833626498045 0.057741717109300594
0.06342677970986063 -0.09969531937541201 0.05759878213965628
0.06268315700895223 -0.09846839432809736 0.057487251377731294
0.06218498530185981 -0.09763208925827689 0.057731004651302584
0.06168058724734536 -0.09660584126167762 0.05788235845504435
0.06121001353850362 -0.09560902265637017 0.05800644939023731
0.06085617837377322 -0.094779024241037 0.05819106059009085
0.06057403758634032 -0.0943507639823625 0.05758890217544981
0.0691844576720667 -0.14298755844024885 0.0573592019589948
0.06914942431966406 -0.142762171532957 0.05788648494247976
0.06960678702697574 -0.14258172636723562 0.05746304760446861
0.06982690336710895 -0.1421002111728459 0.05812224199995288
0.07059566264591091 -0.14168903496835433 0.0576473942230946
0.07111180111986233 -0.14094941450003792 0.05825591835668658
0.07235695030945645 -0.13977033903963587 0.05849749899547896
0.07360576681950701 -0.13872477991285848 0.05860297425528348
0.07490313723923192 -0.13773926454069738 0.058688014284775686
0.07599456058295427 -0.13683518536957834 0.0587959450753361
0.07666925826883403 -0.13620697553593927 0.05892853122377828
0.07609826631490246 -0.13658298776759314 0.05918256361064863
0.076855561338271 -0.13598744591898934 0.05929568804438594
0.07750640913115281 -0.1355796568316366 0.05887604839242764
0.07794127556714488 -0.13517831436684016 0.059320680462058455
0.07852295056959428 -0.13481875470598617 0.05886923319081444
0.0789779327176789 -0.13424394610251428 0.05927280800225271
0.07984375599052992 -0.1334161630727117 0.05939716899850313
0.08054495059865678 -0.1327330416481817 0.05948863897856491
0.0811256586922007 -0.1321150384824452 0.059545005465083796
0.08159463175709082 -0.1315650288005859 0.0595864411034324
0.08171669491520352 -0.13115941312373647 0.05953558961010166
0.08187059423378705 -0.13127696476649575 0.05980857024080413
0.0818978183071437 -0.1308988842533937 0.0597352217641164
0.08205961728371329 -0.13045609216084605 0.05981568935050113
0.08217395369309423 -0.13002925662330506 0.059952578494429726
0.08161719306412081 -0.12966291102881664 0.05965681692465042
0.08163339294528699 -0.1292041117701341 0.05982939969358768
0.08159033305697853 -0.12872405591795846 0.059978698883310026
0.08090268609922079 -0.12825532637518297 0.05959442373828219
0.08081009990149167 -0.1277433764821757 0.05969410670202885
0.08073549593351358 -0.12726656113756657 0.05978574019137161
0.08063925904288659 -0.12687425771512303 0.05990743228371059
0.07993566630242419 -0.1264332193220393 0.05952422507090199
0.07960933541254318 -0.12595078955044284 0.05961361186354992
0.07904083661055425 -0.1255024672533769 0.05940259734229683
0.07944807176934335 -0.12558012421657622 0.05986188443185779
0.07871938399945924 -0.12516794689179953 0.05945599627798799
0.07825760223092432 -0.12472229240213913 0.05949551439487812
0.07780779891108552 -0.12428441841979179 0.05954019181130097
