# .PCD v.7 - Point Cloud Data file format
VERSION .7
FIELDS x y z
SIZE 4 4 4
TYPE f f f
COUNT 1 1 1
WIDTH 790
HEIGHT 1
VIEWPOINT 0 0 0 1 0 0 0
POINTS 790
DATA ascii
0.066693817623186 -0.10620622203643647 0.06594207095986145
0.06628672813155122 -0.10527581392333202 0.06597358439233424
0.06583061261158714 -0.10429880978901081 0.06598147505750282
0.06535607424984988 -0.10331027330946922 0.06598616450221208
0.0649196193399811 -0.10232373832163029 0.06600456224470927
0.06450306223298716 -0.10135298364454641 0.06605408295823788
0.06413876934696727 -0.10039260681577238 0.06612826552746007
0.06381275930965977 -0.09943151460371805 0.06621055138044558
0.06355847467705845 -0.09857344016467458 0.06628477041592133
0.06316573057635698 -0.09776257756289633 0.06572851216027914
0.06317262287461906 -0.09711970831133025 0.06610529198666369
0.0630138036248584 -0.09613355055996277 0.0662168515524932
0.06284159605411799 -0.09520003373481788 0.06635371228155906
0.0626562291382586 -0.09429718800442595 0.06650494260840091
0.06215244427721645 -0.09334901930358286 0.06582150220861549
0.062023188073927114 -0.0924921771254642 0.06612733938562546
0.0619388916646065 -0.09176924726534175 0.06647597812196793
0.061279517055290895 -0.09036711297557208 0.06554625889145942
0.061621496770929485 -0.09072562672180053 0.06638860403536018
0.06131556333883618 -0.08989361303632502 0.06595081698485862
0.061276320446451385 -0.08940955925533323 0.06616768645407288
0.06541925855881782 -0.14550837202608394 0.06656063835612354
0.06582050795025962 -0.14489314914132173 0.06673109605644119
0.06659862847749053 -0.14382087992450845 0.06667052168078921
0.06741151226705047 -0.14269970995398487 0.06653865852357888
0.06813211715300878 -0.14164273094683 0.06647999855427729
0.06860248621599059 -0.14082105571320253 0.06632942377673069
0.06824564771316863 -0.14127766663742902 0.06682136170746908
0.06868708561202294 -0.14050517216895556 0.0666679703951273
0.06931075635653286 -0.1395226886546027 0.0665907621591096
0.06995102698992851 -0.13847599311792222 0.06648287663681901
0.07053492943110001 -0.13744214943262165 0.06641567817646936
0.07121098033175827 -0.13637523369463292 0.06635607386176011
0.0720478462085845 -0.13529595710186013 0.06604621614988646
0.07273341682927639 -0.13437932947572037 0.06583541754648678
0.07330818502197549 -0.13353897793079067 0.06566503983786759
0.07377428005312361 -0.1327987163701128 0.06551238441497029
0.07400787895416645 -0.13228375400011452 0.06545871766545912
0.07359587111214004 -0.13270693568775707 0.06589629806406315
0.073861291159497 -0.13205725080441874 0.0657819154551629
0.07406421424131378 -0.13127711453754023 0.06575305277109585
0.07419182025811488 -0.13049654959927443 0.06570462873263073
0.07433424835964268 -0.1298680891428498 0.06554308829293205
0.07403493343748782 -0.13026654943534402 0.06597317460624694
0.07407255065573572 -0.1297446916918663 0.06586595385803592
0.07449744988059973 -0.12924939398126678 0.06525575939273162
0.07417781709226982 -0.12890924960970288 0.06557303244333838
0.07402364408991047 -0.12809195699884043 0.06548841509741071
0.07395063244980844 -0.1274450403323801 0.06535217726986195
0.07369778915590652 -0.1278383153843647 0.06573406008070855
0.0735643191013963 -0.1273180129176318 0.06566060620626944
0.07394249849067293 -0.12682390609837538 0.06511369372267141
0.07342120335809406 -0.12643071799800285 0.06544436206601904
0.07324325665310748 -0.12555798772345864 0.06523144181312929
0.07305834509290407 -0.12503170432929525 0.0651934849331079
0.0728469603467167 -0.12538611838791006 0.06556892339455839
0.07267549263180127 -0.12474254181513339 0.06547977521557719
0.07236451380042354 -0.1239615154303124 0.0654597105523844
0.07205703075146579 -0.1232217600456589 0.06550108468322431
0.07187163084120574 -0.12262928716330457 0.0654362151039132
0.07178810208249378 -0.12295234363323197 0.06581297275641362
0.07158812690246896 -0.12235709560519806 0.06573648466996586
0.07125775295391837 -0.12159426639730138 0.06578812496071208
0.07094379514163104 -0.1207915737612485 0.06582568758042324
0.07061364389039164 -0.11998091791154027 0.06585089867918416
0.07028248867951159 -0.11915333096231182 0.06585983095498171
0.07005676142337855 -0.11850309892927621 0.06575184889272949
0.07005846330326666 -0.11885232694324424 0.06615006995363022
0.06983522337234274 -0.1182105886836105 0.06606275324826488
0.06948544340207195 -0.11742630814462486 0.0661031620998509
0.06914534836728209 -0.11659505723876774 0.06613382194305323
0.06883523011374863 -0.11567736671439133 0.06620765520007678
0.06855974224671657 -0.11470598646946605 0.06631952119615145
0.06835709985523819 -0.11385541784945412 0.06649758235913533
0.06852903819535537 -0.11298019854279036 0.06571986872134959
0.06829854772743744 -0.11294809832605417 0.06640375538182536
0.06835037898883763 -0.1122068890234534 0.06597388238136365
0.0680961348531976 -0.11187729390309761 0.06674788788006067
0.06819655526748117 -0.11143014059569208 0.06624653243257721
0.06804386336648705 -0.11049902721725223 0.06625240461759847
0.0678594815654857 -0.10953054787297717 0.0662320355003667
0.06768225907751034 -0.10877168755514546 0.06643925328320086
0.06745067329976642 -0.10790849336082796 0.06656123996714253
0.06714845507812356 -0.10704588890512352 0.06667868155308715
0.06677376651554345 -0.1061626332011936 0.06676758383011899
0.06635981107638436 -0.1052498785987286 0.06682872644762025
0.06591611739497423 -0.10429771530388995 0.06686312802957119
0.06548094539475814 -0.10333643526347536 0.06689405743159754
0.0650871879138437 -0.10236724169485488 0.06693141238678252
0.0647159187026451 -0.10140035917315643 0.06698961873961325
0.06436165473890396 -0.10042275325478103 0.06707581523973237
0.06404090999163296 -0.09937568894261693 0.06717905162792334
0.06369479395673149 -0.0984867912136448 0.0668724735143627
0.06342973838762143 -0.09796222706718025 0.06638439140874765
0.06357203208511668 -0.09785280845035393 0.06694721930206887
0.06343654747735822 -0.09701129842633575 0.06700311964069416
0.0632967616906956 -0.09610336287752838 0.06712349516987282
0.0631148884234184 -0.09517338442964396 0.06724879576637789
0.06291702492639975 -0.09428875208923643 0.06731103791598958
0.062485559792478 -0.09345945513610421 0.06670714156408007
0.06241029046784895 -0.09271614637980186 0.06713244343906892
0.0621183873875144 -0.09164256837283236 0.06727839260964229
0.06185377199102058 -0.09061314930390446 0.06746392894084996
0.06148187197424864 -0.08977306053267088 0.06673635896633422
0.06140361604778357 -0.0889983523516499 0.06717634386419455
0.06141713948233987 -0.08835650369737735 0.06775002924793076
0.06527766610530207 -0.1454656736247986 0.06738659837022491
0.06564688722967037 -0.14484172181333815 0.06760854069756762
0.06651923598108346 -0.14367057908135095 0.0673673313886769
0.06729500202163484 -0.14265293405182994 0.06718240075655413
0.06780071410889481 -0.14193241573653775 0.06712452348055328
0.0672715715343467 -0.14248941158269143 0.06762727178965616
0.0678240348283812 -0.14161401755583666 0.06749778553032768
0.0684262712766135 -0.14055914148946372 0.0674518295985791
0.06905263874749111 -0.13948925180035787 0.06734846536566756
0.0696652624617554 -0.13846462744700058 0.0672566975131373
0.0702111242797362 -0.13744983196709673 0.06719686995397911
0.07071931145991597 -0.13668173117002794 0.06705899777602538
0.07022198897851858 -0.13714603414669946 0.06754253500221048
0.0706207134768161 -0.13658068936982365 0.06749215390981707
0.07129280336993993 -0.1359450860967582 0.06679952889160608
0.07118150586843418 -0.13577965025779695 0.06734055916552541
0.0719555831906775 -0.1350763275317066 0.06658437114546091
0.07179162849397579 -0.13493429639077328 0.06717156857632288
0.07256439346318228 -0.13420702332260045 0.06639229654616756
0.07238043562497799 -0.13404417406776067 0.0669517531178505
0.07313291799191037 -0.13338664382327092 0.06616950123721153
0.07302477402446333 -0.13304033452552466 0.06662426327822624
0.07334796164553209 -0.13216099182483565 0.06655766891423323
0.07357052284923128 -0.13135997222456464 0.06647873157361618
0.07379806633713187 -0.13073857281143086 0.06627450624871231
0.0734403906728331 -0.13109167356554802 0.06672512045550238
0.07360450908800051 -0.13048913446414537 0.06650952235935186
0.07361170000466924 -0.12972893064760493 0.06637569634365101
0.07358374159697349 -0.1289561861933546 0.06622756763328592
0.07359683908650451 -0.12832672285411098 0.06601133998457365
0.07328975121114913 -0.1286895156329421 0.06644013748550737
0.07323056511187503 -0.1280745469539363 0.06625693244143345
0.0729689109061622 -0.12731827710137483 0.06618300012344751
0.07286367599552941 -0.1266616830537489 0.06603047282863472
0.07255744626788768 -0.1270555449458191 0.06642320905768687
0.07241384659522333 -0.12650939284166507 0.06636751068349431
0.07287034423424732 -0.12602238320594214 0.06580090228620628
0.07229878627641434 -0.12560320507322828 0.06621186400925828
0.07214508561157335 -0.12465934146442113 0.06606421318275273
0.07197513672444394 -0.12392029933237925 0.0659989690154092
0.0718135230478864 -0.1234128959177255 0.06601236750598476
0.07167741572159651 -0.1238131272627205 0.0663992522538698
0.07151463019351778 -0.12317527085103516 0.06636146496607416
0.0712395351640125 -0.12239032847467239 0.06644318256689899
0.0709696714220255 -0.12159537311478584 0.06649314344919956
0.07068497341356758 -0.12079701848919082 0.06653472834985004
0.07037811491524756 -0.11999133814845304 0.0665446263613752
0.07016752604176567 -0.11934238061660243 0.06641160253571807
0.07014934135621108 -0.11967813704279194 0.0668362893154708
0.0699172801727181 -0.11903489991872683 0.06670757695321632
0.06956983789618963 -0.11822061181787247 0.06672670096426504
0.06919216691406456 -0.11740065844677228 0.06675350544584158
0.06882829154189382 -0.11651875329094834 0.066816612599098
0.0684704175124833 -0.11552336411325814 0.06694994448387573
0.06823353946412768 -0.11443909929931631 0.06695178358971882
0.06803262533481262 -0.11337949514237573 0.06711919156975114
0.06801061685638275 -0.112504732996517 0.06705916158681659
0.06786969601763132 -0.11188850628121139 0.06737701269928324
0.06804781921039517 -0.11107411354531356 0.06675398619760092
0.06782910617862285 -0.11102929806574376 0.06749163626150581
0.06792288977527129 -0.11047454494048627 0.06704554468883818
0.06780209542264719 -0.10954052111419954 0.06709223575428873
0.06762541408829571 -0.10854957052353406 0.06710237710552212
0.06741398709256002 -0.10780933627890746 0.06732708975728714
0.06714706374463227 -0.10696096101504457 0.06746014960915458
0.06679261522490383 -0.10610472676245636 0.0675815630381569
0.06639493893831255 -0.1052191962614911 0.06767631567082022
0.06600271163838742 -0.10429711989591689 0.06774551278053136
0.0655960178499681 -0.10335417128720875 0.06780216325602074
0.06522373159427385 -0.10239452614079246 0.06785760430640342
0.06488530047554998 -0.10143411971778227 0.06793100185593304
0.06457320331148632 -0.10046879940480655 0.06803562122534881
0.06432544277262363 -0.09955603427812137 0.06821865557417121
0.0639288986413597 -0.09863562972810645 0.06756112232287537
0.06380070418539288 -0.09783556110182531 0.06773739051416122
0.06366495725684555 -0.09696914943245578 0.06788233784907696
0.06351266077696456 -0.09604156609965388 0.06803129363107972
0.06329428789166529 -0.09499980537602572 0.06817172509099394
0.06300345530728539 -0.09411353265638038 0.06787356055340023
0.0627340583445906 -0.09360908221310545 0.06738937709372134
0.0628122958776946 -0.09343002564515564 0.0679573359176098
0.06259022871628211 -0.09252577269423727 0.06804237124773668
0.062324145921166224 -0.09151279083138912 0.06821708867365936
0.06204557149037159 -0.09045975846774376 0.06852098287545254
0.061642348591306614 -0.0896065896369263 0.06770781078790424
0.061508582597113955 -0.08871513348931113 0.06813187007050125
0.06144751463501474 -0.08806417475383593 0.06843202516459565
0.06503142701878635 -0.14552471411117648 0.0681638850226316
0.06513283396333161 -0.14520789568584194 0.068373705318833
0.06478710405705576 -0.14554568790590788 0.06877959551194719
0.06501123565351875 -0.14509960503372807 0.06885645832558669
0.06569010530488172 -0.14444754003636326 0.06816249854176262
0.06565557542400224 -0.14418198591269182 0.06871704955949405
0.06654561916030538 -0.14340205318396002 0.06792028235757372
0.0666715653305541 -0.14287988944459595 0.06841207275731605
0.06742929312491638 -0.1416738718311924 0.06835724150850107
0.06813463875237664 -0.14055148974572929 0.06824883281348913
0.0687576190201528 -0.13950158800405613 0.06813846320218299
0.06934934989536186 -0.13850812795326917 0.0680530432951531
0.06981914431847769 -0.13771273546107263 0.06785420211046557
0.06943018307704715 -0.138180198850288 0.06836772430180048
0.0698722701347562 -0.13745583527634828 0.06819835521617011
0.0704280378987111 -0.1366135321184008 0.0681391955839051
0.07099798484214125 -0.13573623744358246 0.06800515947109918
0.07159324002816987 -0.1348592895478122 0.06782415932273386
0.07211490777280996 -0.133938271803843 0.06761315038740584
0.07256101826230583 -0.1330655941961531 0.06743875898361044
0.07286039356118429 -0.13221791024163074 0.06729746437884218
0.0731333357152071 -0.13157030356059818 0.06706899437921306
0.07275403704941931 -0.1319216876091781 0.06755661351614599
0.07298424472870267 -0.13130526136758414 0.06732192286564334
0.07306592938627704 -0.13055010437199008 0.0671777688062904
0.07306437982652966 -0.12979100126075654 0.06702259570839524
0.07312374998075881 -0.12917636592119716 0.066767067381601
0.07280367272923095 -0.12952692796075044 0.06721534437406722
0.07278745693827077 -0.1289016135616286 0.06698956796384001
0.07254703157501324 -0.12815477671731282 0.06687703618405559
0.0724540858370407 -0.12753105243040894 0.066681849870774
0.07216099089185797 -0.1278812263055241 0.06710459291193421
0.07206682564207897 -0.1272596631181087 0.06695633818760793
0.07182017446122707 -0.12648383995717147 0.06694102391533821
0.07175101894474474 -0.12584827784701025 0.06685671720520772
0.07147228506373328 -0.12622159612916384 0.06725082015007595
0.07139123648442461 -0.1257287826401521 0.06725414031927725
0.07177653080120762 -0.1252163431875371 0.06668397255161686
0.07134813030673416 -0.12500675681201073 0.06719415565532774
0.07171734754189521 -0.12445687691476713 0.06656906206313636
0.07131072369649737 -0.1240885098317209 0.06704483110773825
0.07110144842616684 -0.12322089227504389 0.06712498414573827
0.07089292286986547 -0.1223930273176944 0.06717449805043488
0.07066797163777874 -0.12158999664099027 0.06722223509707059
0.07040275680939204 -0.12079976404244874 0.06725209621666733
0.07023119173157208 -0.12016904586138347 0.06712699131191664
0.07016248337025609 -0.1204944662948971 0.06755004090914377
0.06997366463221186 -0.11985251820829869 0.06742415925194817
0.06963455363764572 -0.11904314104805455 0.06743505778742635
0.06927205706822813 -0.11822339141024425 0.06745166742521502
0.06888785283818807 -0.11738208297499925 0.06748414888342356
0.06850409993006613 -0.11650110565290149 0.06755760474102723
0.06824782839916123 -0.11578799719244992 0.06754520293455418
0.06822470679456422 -0.11621154350665355 0.06792245278130657
0.06802712886004397 -0.11565450862344376 0.06800732513545685
0.0680995733541778 -0.11506226128075113 0.06748592859365593
0.06780355577156734 -0.11485757546633234 0.06811433145157819
0.06790492681667608 -0.11415729271065536 0.06758849495104359
0.06757441988091895 -0.11390629413201132 0.068340459696879
0.06773865705198762 -0.11337123893453058 0.06778186116463476
0.06770489745352375 -0.11246265780686927 0.0677965819903781
0.06767226378045545 -0.11158782154035955 0.06788214742981137
0.06757180069491651 -0.11100763191845234 0.06821668770276904
0.06777969361633257 -0.11015558109868831 0.06759939708538333
0.06755912862411258 -0.11013413759653068 0.06837489788153521
0.06766839583764284 -0.10954539981605489 0.06793221210242412
0.06753272848792942 -0.10860494752589508 0.0679941046852602
0.06733618119139884 -0.10761385473884864 0.06801383171513764
0.0670893645923811 -0.10688034765934178 0.0682395296453199
0.06677594027710071 -0.10603905663168266 0.06838517654612172
0.06641426685163868 -0.10517634803983893 0.06852967119575183
0.06605534057029834 -0.10426599362215616 0.06863031612866755
0.06568300934137362 -0.10334094797786295 0.06870566711228426
0.06532409185238752 -0.1023975936671788 0.06877736502869093
0.06501560117278014 -0.1014467622216072 0.06886498429748097
0.0647196209217432 -0.10051312844129327 0.06899600225495822
0.06448088629327497 -0.09960213061792524 0.0691624489891886
0.06415284014556497 -0.09870330364846291 0.06843377136533686
0.06399127778212753 -0.09782999310275284 0.06861767821965196
0.06384140064140252 -0.09693557572145653 0.0687947328286064
0.06366931461785903 -0.09599708481343178 0.06897728842220772
0.06349996208669992 -0.09509697793133882 0.06921508560946982
0.06317894246664844 -0.09420109202810707 0.06856539968591195
0.06297488411146442 -0.09334011395013028 0.06876269631414667
0.06273846974970823 -0.09240081093819089 0.06892747158821921
0.062470839464071594 -0.09147929075545073 0.06913010171551738
0.06226947511948296 -0.0907635775578786 0.06940284585465203
0.061722147507325804 -0.0894791824271834 0.06848932617472545
0.06192097427177548 -0.08981316092360195 0.06932094138211452
0.06161684983418883 -0.08900559357317706 0.06889538672805331
0.061507393989819366 -0.08832271312512187 0.06900464130369897
0.06143988889247832 -0.08782226186393029 0.0692927516652392
0.06458331659189359 -0.1455212655887538 0.0693418803746759
0.06484881169577092 -0.14499391922734606 0.06944590342383437
0.06547668541484697 -0.1439826707601114 0.06939099218653733
0.0662484316200533 -0.14282970901855163 0.06931166327606325
0.06711009582904127 -0.14162169762403534 0.06917895758392782
0.06782179220963537 -0.14052398681084027 0.06901511564684605
0.06846954566225696 -0.1395577065530908 0.06891806725272454
0.06896905336941658 -0.13879464078250636 0.06872272164148978
0.06854746703228966 -0.1392388807318009 0.06924997149727787
0.06902811404101249 -0.13849062772042042 0.06906407671064779
0.06959634450235672 -0.13757441977000887 0.06899912960913043
0.07016510945092234 -0.13665900159159555 0.06889351656427893
0.07076509972057105 -0.13575640100100686 0.06874008883506605
0.07128577293674006 -0.13484687446995364 0.06856334648863695
0.07177170192463653 -0.13397528306279255 0.068383837578889
0.0721300892293953 -0.1331194111536757 0.06821563424237749
0.07244153609654296 -0.13243734432500423 0.06793875999611931
0.07205680833125991 -0.13281027910774518 0.06847465599419669
0.07231725015269287 -0.1321570332458983 0.06820952083186614
0.07244132920775723 -0.13137286999854605 0.06804787408190772
0.07249990520576947 -0.1306010153292152 0.06788130025403297
0.0726192019619225 -0.13000230121730302 0.06759028904185999
0.07228270728911974 -0.13032025951869566 0.06808501850880606
0.07232487022991173 -0.1297129793986775 0.06780982330198544
0.07211240293590844 -0.1289594046470055 0.06766505410330646
0.07205462568869742 -0.12836132369416972 0.06743056640368018
0.07174324906957555 -0.1286840112839224 0.06787973064598982
0.07166562972700294 -0.1280679167875707 0.0676836856505167
0.07139253148604673 -0.12728315378100438 0.06762143035273065
0.07135335091771447 -0.12666771122624113 0.06747634849781274
0.07107454766846065 -0.1269583548088816 0.0678630138710664
0.07107169505596372 -0.12638376491169523 0.0677770325980845
0.07097739179181618 -0.12568126999840942 0.06784028003878803
0.070919854789755 -0.12488843361787547 0.06783829991278668
0.07083319704164416 -0.12404232719530524 0.06784477749033306
0.07070952138082148 -0.12320102807337857 0.06788756657616175
0.0705492209883456 -0.12237367372664573 0.06791399113016251
0.07034817940342736 -0.12157207765964315 0.06794175713238476
0.07020561440147494 -0.12096330304813814 0.06782349631345058
0.07012331622830281 -0.12126445571553982 0.06826088598624519
0.06996119295616025 -0.12065697478754152 0.06815294136435947
0.06966103050167786 -0.11986305416629355 0.06818850476214475
0.06933015848353016 -0.119053106214187 0.06820534726499747
0.06896505134583311 -0.11822595881626399 0.0682133824689003
0.06859014197640721 -0.117381338502571 0.06823586377529878
0.06833598994734416 -0.11671083118206854 0.06813464395791496
0.06831458003288321 -0.11705817727120664 0.0685609687350375
0.06808801046697066 -0.11641087896999743 0.06850773839468881
0.06779617846611177 -0.11561363306379839 0.0686648302239642
0.06754177149788369 -0.11479942932893954 0.06882893891264728
0.06735037889985777 -0.11409653913309303 0.06906272410351266
0.0675202869962015 -0.11304638765838125 0.06826241323494042
0.06726793733713513 -0.113119398019999 0.06905387763957847
0.06741678438031834 -0.11245898867663369 0.06852797152005989
0.06739805060854351 -0.11157962828646595 0.06862373607279543
0.06739283265763273 -0.11071189384128931 0.06876223841237747
0.06729617158654848 -0.11013288982227581 0.06916049336035061
0.06751762598445926 -0.10923990073506933 0.06851410861053266
0.06729399680009783 -0.10924722495661855 0.06933564881801109
0.06739477859970029 -0.10864071963978778 0.06886380997331457
0.06724624517673103 -0.10771042190968161 0.06891320845264938
0.0669956408822404 -0.10673337662334009 0.06893841545277969
0.06674955777175415 -0.10600198027920045 0.06921463503708383
0.06641913845518886 -0.10512003600125581 0.06939338400022911
0.06609818908230644 -0.10421788860206778 0.06950743861946868
0.06574838945866751 -0.10330615837380441 0.06960154145780638
0.06540234011925396 -0.10236935749517825 0.06968981670706448
0.06508040926125795 -0.10143221267135229 0.06979571182291339
0.0647988665027767 -0.10050454977558874 0.06993089989388084
0.06455025088587527 -0.09956966422185552 0.07009782394689787
0.0642913773392689 -0.09869968924040302 0.0693489112048539
0.06411291025013394 -0.09779313431343485 0.06953701238619789
0.06394707126870053 -0.09687422411074373 0.06972716375231226
0.06377181442138555 -0.09596613642367999 0.0699375534347951
0.06361309638380797 -0.09506733339430734 0.07018703916669798
0.06333210123781136 -0.09420090478378497 0.0694623721868233
0.06309850472541396 -0.09327533040571372 0.0696663589671614
0.06284956438808384 -0.09232051072652322 0.06980354517582385
0.06255532916170184 -0.09144056779000793 0.06995348520043598
0.06224527440051516 -0.09057916028198715 0.0701126492604899
0.06190828069313589 -0.08965545509894426 0.07026719752828145
0.061647984319119296 -0.08890040926989141 0.06963576940410574
0.061491969729953744 -0.08816631271155347 0.06989607478432003
0.061428793371773024 -0.08781373023697303 0.07005489015146336
0.0644913813355308 -0.14540243313777923 0.06979701771703173
0.06471523231672205 -0.14478595808831746 0.07006911587787934
0.06514466734875927 -0.14394161006990386 0.07023418139597214
0.06587306768554402 -0.14278293993149485 0.07024174272092158
0.06686080180059367 -0.14149599829537346 0.06990232798992049
0.06759847377840991 -0.1405166248809347 0.0696882202492099
0.06809610504889199 -0.13984767833710934 0.06959716039844147
0.06752284409105909 -0.1404108751026294 0.07016416511934181
0.06811232290069213 -0.1395871763730542 0.07000239371938893
0.06868716749838949 -0.13862876879043384 0.06995390411384914
0.06930776510369209 -0.1376559723301424 0.06984551754036453
0.06987669882645164 -0.13672256756945372 0.06971581790203601
0.07044896751292014 -0.13580355258614654 0.06954989529678837
0.07096767194308184 -0.13490200660832677 0.06936879799290722
0.07139818859904416 -0.1340299026484618 0.06918767730995817
0.07173254566599213 -0.13333023423507837 0.06888996766728529
0.07134446177639182 -0.13370917823726133 0.06946109813396187
0.07163435411046545 -0.13304341789755444 0.06917750131419723
0.07180554091200639 -0.13223464280236266 0.06902442198414592
0.07192298346339818 -0.13140415510679726 0.06882686595706507
0.07205940202933811 -0.13077159327960328 0.06848579349643115
0.07176844882949329 -0.13106559823514488 0.06900454491524584
0.07183033208289909 -0.1304634141138453 0.06869586968908781
0.07169321353827339 -0.1297315086861594 0.06853092061804303
0.07163320875157189 -0.1291403842848305 0.06822797653051821
0.0713857387022286 -0.12942586618714055 0.0687145061560806
0.07130050096801542 -0.12883582750249875 0.06847714751507487
0.07101283372178695 -0.12809663157279141 0.06847253038549783
0.0709455733156923 -0.12742151497161483 0.06819814276163444
0.07062168146064905 -0.12769930653886505 0.0688307765360656
0.0707489033903792 -0.12702602219655215 0.06837179238023897
0.07061937208708893 -0.1264121447742275 0.06848396733782094
0.07054404262456067 -0.12565420164761404 0.06855555222296872
0.07048992810849637 -0.12484260888788642 0.06860570582681332
0.07042522640932908 -0.12399320457286826 0.06864726499977195
0.07034637469856785 -0.12315007690429336 0.06864965769614127
0.07022111585137764 -0.1223437914472009 0.06865586018443329
0.07013738464586347 -0.12172743741838807 0.06854584238801423
0.07000797128630189 -0.12205195227485066 0.06900215770335738
0.06989181968914845 -0.12143376215040211 0.0688950654772041
0.06962903892056371 -0.12066505382311495 0.06895716263103466
0.0693361520417704 -0.1198731179958961 0.0689949835587639
0.0690071251778841 -0.11905158974146231 0.06899793530150691
0.06865563208386875 -0.11821874813979649 0.06898007182827469
0.06842853881493623 -0.11755443051930581 0.06883499748341712
0.06839495386521881 -0.11787519158755502 0.06928296401863987
0.06817011371540427 -0.11721778253883366 0.06918102742894251
0.06784823623455871 -0.11640465080319895 0.06928337173652295
0.067554872615378 -0.11558592088750697 0.06940813741973054
0.06731245026895998 -0.11477631971650114 0.0695557790330819
0.06714610093834522 -0.11394459968884693 0.06969766995636179
0.0670209429899994 -0.11320654160942889 0.06991149316660689
0.06723411066360417 -0.112181155732938 0.06906352272653786
0.0670015466511582 -0.1122878012241436 0.06984284454416755
0.06711649683348092 -0.11159026185831225 0.06940963704864085
0.06713974241210549 -0.1107576536434949 0.06947944515392092
0.06708866211754247 -0.109847682617244 0.06986497151160188
0.06704730361351328 -0.10918550863271408 0.07017925171538646
0.06724277735545348 -0.10837533620079916 0.0694535477650572
0.0670678411885362 -0.10843792264292612 0.07022538819014361
0.06712020838478037 -0.10780256206558488 0.06981856206359253
0.0669718975765453 -0.1069076116840618 0.06979710653066487
0.06668404640375394 -0.10589937994875309 0.07008159122503621
0.06640224913832993 -0.10502181549545564 0.07023318931537842
0.06610324506276209 -0.1041510241287254 0.0703805552094288
0.06577661916322479 -0.1032483473696002 0.07049562873668395
0.06542751417871749 -0.10232661953755166 0.07060316104392066
0.06510613527584412 -0.10138523645760407 0.07071815004089947
0.06482078757188373 -0.10044035994632464 0.0708617039189727
0.06457499220292849 -0.09947891489002093 0.07104205196794386
0.06435825645214775 -0.09863485473592276 0.07027963100593201
0.0641635405061456 -0.09770590120238228 0.07047794554478894
0.06399301103055353 -0.09678749099702517 0.07064978772118602
0.06381945352457159 -0.09591604441258052 0.0708682736018473
0.06364932967470448 -0.09499347452808996 0.071234220933642
0.06342515565796855 -0.0941353424756336 0.07039849032314209
0.06317855640749068 -0.09314740956409713 0.07065197545411016
0.062852486868287 -0.09215269680768033 0.07052289633572903
0.06259295348432582 -0.09141277337542744 0.07078798216129203
0.062204938965397465 -0.09046800769585066 0.07098955845940078
0.06186610218689656 -0.08955756064246256 0.07110252763909924
0.061632693167709966 -0.0888244062418782 0.07050582941780888
0.06149123593916795 -0.08827911970198317 0.0709463533597509
0.06450317913680433 -0.14459896481395826 0.07092264939844166
0.06475039375095322 -0.14404669635201828 0.07117374230147773
0.06525833458395154 -0.14322571155999272 0.0710984203605545
0.06472530394239777 -0.1438273565090554 0.0716521978503919
0.06517571364905382 -0.14309979402240464 0.0716007598707374
0.06593518271336958 -0.14230162623222636 0.07078549478368565
0.06593708201207149 -0.14208809967708178 0.07140178219445881
0.06679307141273161 -0.14127484974635965 0.07049894409935918
0.06695970390950388 -0.14084026815243342 0.07103557339957382
0.06770508404006587 -0.13975698805066497 0.07097486543723969
0.06837628720063489 -0.13873954572968225 0.0708648836332781
0.06900358295629083 -0.13776006118498516 0.07073278373826779
0.06957208069639922 -0.13679476344854774 0.0705691725222478
0.07011146386538339 -0.1358669722408041 0.07039169501680707
0.07061147140907023 -0.1349562071559102 0.07018549279150507
0.0709646135823312 -0.1342351153056699 0.06987831979953549
0.07059633310712639 -0.13461638418948765 0.07044906022964978
0.07089206554339063 -0.13394021570599826 0.07017814254896702
0.07113350410926822 -0.1331454359233308 0.07005728362457488
0.07127780993650389 -0.13228039696078045 0.06994302029410515
0.0715223981895402 -0.13153560380070087 0.06951022997212253
0.0711284754268299 -0.1318086307221199 0.0702647988111762
0.07143601077869137 -0.13111332504809828 0.06955491681811468
0.07128274344104976 -0.13047518600024716 0.06953044815661483
0.07127309197224627 -0.12985499474975676 0.06917785523527972
0.07093469935429916 -0.13008505725066632 0.06990289577226663
0.07105238861203812 -0.12946939773673025 0.06926386590508296
0.07078971501825153 -0.12889971307958803 0.06930437231976148
0.07052480083901198 -0.1283520363701527 0.06936516783188126
0.07032385704508745 -0.12794210119961427 0.06946542877973179
0.07032678423901231 -0.12725181023691787 0.06921457008779086
0.070208585180179 -0.126449174219777 0.06930245864224222
0.07012606445034505 -0.12563818807154833 0.06936994616334298
0.07006163141036383 -0.1247943556250245 0.06942560571717
0.07000392120708945 -0.12391416242398384 0.06950025569447056
0.0700434346823447 -0.12305335368935065 0.0693036694064751
0.06998412903652268 -0.12251259867122989 0.06927274104351729
0.06980604657997369 -0.12288537118855437 0.06973499024671562
0.06973342561151315 -0.12224571155422556 0.06966352231856072
0.0695363801286678 -0.12145135867879953 0.06974713634625082
0.0693041650098356 -0.1206697729535745 0.06981898980461997
0.06901805709919381 -0.11986184842238429 0.06986598448971676
0.06868856197736847 -0.11901531749550416 0.06982744786546413
0.0684756776235915 -0.11836073723651024 0.06959942961150761
0.0684317859334617 -0.11862842767548729 0.07008681163231376
0.06822944918655886 -0.1179894891428236 0.06990670783355679
0.06790916842335855 -0.11719766979094336 0.06997570041379028
0.06760519299387074 -0.11638604724941357 0.07007241512178984
0.06733450172698523 -0.11555405166586537 0.07019808824079352
0.06711038628532146 -0.11471250810072173 0.07033177523116563
0.0669551367498176 -0.11385016565334198 0.0704837373315938
0.06683793689736536 -0.11294490031395235 0.0706390877588329
0.06671678023677811 -0.11189505424548672 0.07092796948083549
0.0669044453568123 -0.1112701008337698 0.07015982271883385
0.06684972205968534 -0.11030146413532435 0.0705070232760464
0.06690279040047992 -0.10953469149967468 0.07055669568315479
0.06686086094502929 -0.10889077212968327 0.07087158734842958
0.06681361695320356 -0.10804365331522871 0.07124782963736434
0.06695407904754357 -0.10751048551073172 0.07056682517351805
0.06678894395769087 -0.10656723640852103 0.07087142941965355
0.06658393311550852 -0.1056867230165281 0.07081575203964555
0.0663658665328154 -0.10497429356504079 0.0710835732590103
0.06607073242277005 -0.10409286730571869 0.07127267647219136
0.06577034365297287 -0.10318556033824365 0.07139872483413237
0.06542832438895012 -0.10225514681055455 0.07151085500369397
0.06509378454375393 -0.10132007065558632 0.07164014214164136
0.0648146880806164 -0.10036897460268278 0.07180566950101701
0.06454766678664399 -0.09934611194670703 0.07206877732625265
0.06436611778254249 -0.09851763133570271 0.07120964707138953
0.06417176115556734 -0.09756077530445191 0.07147142132035929
0.06399601371265412 -0.09664351552986979 0.07140744273934055
0.06387792213479235 -0.09597981651393739 0.07176440431137406
0.06374590401905228 -0.09531409174338883 0.07212694100692073
0.06343954762143308 -0.09406354658666988 0.07118548912970579
0.06352392797164738 -0.09438962961007083 0.07206377947434228
0.06330276505518304 -0.09351010625998855 0.07154170498101325
0.06296326131535186 -0.09248098807213284 0.07144462633606408
0.06258097535744614 -0.0913972680933691 0.07174844680666093
0.062113268503495786 -0.09025343593659721 0.0719753761319378
0.06180331959138976 -0.08934438255176935 0.07171312683294587
0.06164115183952628 -0.08887527782968835 0.07121993944426466
0.061614885399670506 -0.08870502787759528 0.07185543123390294
0.0615301528061788 -0.08826369822263322 0.07212345561923031
0.06417998348010731 -0.14466489278634356 0.07172801023261483
0.06429838606940483 -0.14438625370098312 0.07191703844194068
0.06403132914050974 -0.1445980251119099 0.07233043356144456
0.0644212620925217 -0.14401029738017174 0.07230778547523059
0.0650361431277832 -0.1430358655893737 0.07229519880821073
0.06583079824278354 -0.14199393817695458 0.07217249727767275
0.06667903082544219 -0.1409029190478981 0.07203857467948101
0.06744104619503509 -0.13985776779582984 0.0719265123782409
0.06809484693942072 -0.1388371923243134 0.0717972549056217
0.06869438444939048 -0.13785201781183634 0.07164752174058493
0.06926136892148667 -0.13686621200696739 0.07147098303387352
0.06978556436028842 -0.13591116400661274 0.07125034796671804
0.07022676927561011 -0.13517040217954163 0.07089637064541385
0.0698489105345189 -0.13551564677852443 0.07146051761255341
0.0702057744487229 -0.13484150291767552 0.07116558348769886
0.07045037631550317 -0.1340616553413908 0.07107364135420106
0.0706339655416924 -0.13328634515279908 0.07101802811708248
0.07072519325666352 -0.13260849351051043 0.07106461280130577
0.07068994205133688 -0.13200980923107464 0.07119981671776689
0.07099707160698145 -0.13127394930284286 0.07040908668666125
0.07078976314697591 -0.13075061392442705 0.07059231296992231
0.07052025698178559 -0.13023972000600742 0.07083124930606106
0.07063398792010159 -0.1295802277084941 0.07008380252173911
0.07031037502332893 -0.12895696638415746 0.07022383399552494
0.07022124376922467 -0.1283711875193715 0.0699446843396905
0.0699719508288027 -0.12854795327604643 0.07060941822533047
0.07005971532123538 -0.12792175181681306 0.07004266264093754
0.06992335122663826 -0.12723941234197886 0.07010196583686094
0.06980777334119793 -0.12644620414963897 0.07016498559728146
0.06971424002189679 -0.12561952598410137 0.07023385803449192
0.06963793169047965 -0.12477821659253971 0.0703028595411454
0.06964757405768925 -0.12412438000404064 0.07022175938256375
0.06942417047968372 -0.12448111961552286 0.07068477313250422
0.06941262085177567 -0.12394883568717951 0.07065297131853147
0.06974120920557801 -0.12350320643494063 0.06997724591862937
0.06945850339871479 -0.12311432248371297 0.0704565697770616
0.06933144516732119 -0.12226166421761758 0.07054033340086577
0.06917598076367601 -0.12145499390411506 0.07062965062540201
0.06897630815076808 -0.12065908513594925 0.07073300687130231
0.0686801244599202 -0.11980631645081798 0.07082632726938876
0.06849898578853454 -0.11907915495288303 0.07051647595946796
0.06835680015243578 -0.1192528585160121 0.07123806311368645
0.06827102361930587 -0.11860515178001466 0.07064190031870929
0.06798406071126091 -0.11794167011086068 0.07070632079386627
0.06767423738072133 -0.11717533861134449 0.07079998094521196
0.06738618227038119 -0.11636122262724632 0.07091070447107226
0.0671397574678047 -0.11551157800839575 0.0710367020388157
0.06693314204098136 -0.11464216360590758 0.07116543176551475
0.06677947526261971 -0.11373927614161672 0.07132024878838333
0.06664361648687527 -0.11283562677871699 0.0715152437055029
0.06653072298303135 -0.1120846046561045 0.07180197553459938
0.06670554228996381 -0.11095772032859409 0.07091361441798182
0.06649170994090177 -0.1110937117457731 0.07181942782998188
0.06663261688422895 -0.11038011897059237 0.0712797294182802
0.06666161710356125 -0.10952383850871142 0.07139752128547561
0.06667919270399134 -0.10867251889449009 0.07157755002143881
0.06662018944023444 -0.10816007659152406 0.07201365680206104
0.06680488709013852 -0.10725703731290864 0.07131805302639718
0.06664331470739455 -0.10739122015628767 0.0720967204178536
0.06669969023013712 -0.10673021282502876 0.07170761978369541
0.06655287442762824 -0.10587486128050473 0.07168016576266378
0.06628622816441951 -0.10490756983748677 0.07199353781926457
0.06601393949655776 -0.10400472383681053 0.07217686322075147
0.06572282039136458 -0.10310249852507199 0.07230352993258349
0.06539796533013151 -0.10219277877794207 0.07242014299114866
0.06507871689073787 -0.10126174935844723 0.07255327690982157
0.06479651797525368 -0.10036693728408758 0.07272945952716978
0.06458855984730215 -0.09964248614178906 0.07297362292430305
0.06433722893062656 -0.09839354594800412 0.07197142598549186
0.06437073623927922 -0.0987086496689981 0.07283734653038502
0.06421460348486527 -0.09785817907246924 0.07232417509740847
0.06404278882288575 -0.09693963507960032 0.0722879611491921
0.06387775696467322 -0.09601816189909528 0.07266179929804219
0.06368399738924918 -0.09515610425073107 0.07289415074735109
0.0634563566943445 -0.09421052126883003 0.07308424693476047
0.06323346082571749 -0.09336278871437466 0.07233408453368237
0.06288416696892997 -0.09234407337316909 0.07253199332689567
0.06249906111867999 -0.09129601950377704 0.07278122631985753
0.0621064179742437 -0.0902920569704563 0.07307601091031293
0.061828437711108325 -0.0894056931501553 0.07245141906426845
0.061625818424565534 -0.08865129668229031 0.07273952487441004
0.0615426244404254 -0.08823207930747767 0.07305841317037748
0.06402925039867247 -0.14445605928912555 0.0729061900615958
0.06435058138795724 -0.14391516623006925 0.07305295580914156
0.06491885533095147 -0.14300969490390472 0.07310260200835132
0.06566770926284425 -0.14201933048791376 0.07307467012678588
0.06645933396809332 -0.14097612890373806 0.07299313540875467
0.06719706956386928 -0.13997232604221416 0.0728803785620094
0.06782332615553699 -0.13895467374974516 0.0727442406449141
0.06840378727083302 -0.13793156281055874 0.0725875225362373
0.06893982920133862 -0.13692252854494041 0.07243156090419423
0.06945519736529222 -0.1360724135123636 0.0719805362686613
0.06905217876475933 -0.13639470427741746 0.07273251367878389
0.06959248662047587 -0.13560357472861012 0.07206150272926384
0.06980633725469314 -0.1349380558404268 0.07204143282417183
0.07002556115134168 -0.13416891897760616 0.07199096572450789
0.0701868032505616 -0.13344388390331602 0.07199953718062593
0.07032769865821116 -0.13278063780879693 0.07205473705279634
0.07034305042004027 -0.13215026464642 0.07217555323432638
0.07058951739763995 -0.13144505803216563 0.07137115881893638
0.07041352793094766 -0.13089915281396855 0.07157344991154503
0.07014364468324244 -0.13032432144740358 0.07183144962672545
0.07022368861968263 -0.1296723392814754 0.0710572815465379
0.0699364826486207 -0.12912678785230677 0.07120083942007492
0.06972848609597826 -0.12869779290368846 0.07129229262219344
0.06970056707802527 -0.12803166967503543 0.07093258226334781
0.06956357157863602 -0.12723053963579214 0.07096726011629899
0.06943337619441815 -0.12643779238489006 0.07107580480834408
0.06931985876850645 -0.12558986997182323 0.07113215637376537
0.06932363113833645 -0.12493556606370841 0.07097038839321927
0.06912395050032594 -0.12520756514493614 0.07144441827220992
0.06915049222507826 -0.12460485692126191 0.07130539106219022
0.0691099178773846 -0.12385658268871211 0.07132058864100205
0.06906380727773694 -0.12306433478538563 0.07135006569843565
0.06896860829361573 -0.12225971597764664 0.07143440331402685
0.06884033752520471 -0.121462576022846 0.07154280713879514
0.06865383385162685 -0.12068734748245395 0.07168715059322509
0.06839895517415029 -0.11997048807017915 0.07188626465531402
0.06812193993098506 -0.1192980585234589 0.07211953981633303
0.06806036611102219 -0.11862902314156105 0.0714235828897475
0.06775646003405822 -0.11792361688923456 0.07154803409180763
0.06746232545361995 -0.1171453641904857 0.07166910174138219
0.06720119874684645 -0.11632472316101236 0.07179434330710495
0.06697350128082058 -0.11546337036977321 0.07191820239881716
0.06678037591034484 -0.1145781485607725 0.07205094739045262
0.06661712978683848 -0.11367014824274461 0.07219850476430947
0.06648017700183337 -0.11279365130963646 0.07236875730732487
0.06636887830492248 -0.1119381987409568 0.0725273256149328
0.06628972710171109 -0.1112102650595434 0.07275017490486732
0.06649126222712427 -0.11016057167884424 0.0718667972850666
0.0662878101360941 -0.11032586168009557 0.07268400646853598
0.06641731972230532 -0.10961369105798986 0.07224935377745362
0.0664678399569669 -0.10880905849540184 0.07233373293575365
0.06643993498710506 -0.10793159294295025 0.07276763415331061
0.06640865368626274 -0.1071215030963169 0.07307056411273875
0.0665245155075415 -0.1065187939539703 0.07245606661110246
0.06636619577552527 -0.1056587049714135 0.07269667286035178
0.06617562215545077 -0.10477675973820731 0.07291643804880905
0.0659359323466721 -0.10390727228123045 0.07307262036291401
0.06566757846394947 -0.10302296918851184 0.07319703891219113
0.06534836490152272 -0.10212245953010554 0.07332241564651384
0.06505412194505064 -0.10121749487546872 0.07345154035613227
0.06475095631579929 -0.10034939945980263 0.07359984514935931
0.06450370017342198 -0.09946687034650217 0.073701396608404
0.06427335749996589 -0.0985309077703797 0.07382523727715315
0.06414670550708924 -0.09772978843514035 0.07309417728079923
0.06397819461106583 -0.09680015808986914 0.07331602441266798
0.06380358659394755 -0.09589401584581059 0.07358027626536406
0.06360499654389598 -0.09498342319304695 0.07381994124679377
0.06334873741368348 -0.09403211599998897 0.07405872086856685
0.06313154784469699 -0.09322600949754771 0.07331435489482489
0.06278488079742818 -0.09221395531078543 0.0735526472428881
0.06235216403554984 -0.09120119548824382 0.0738045110088045
0.0619981886663407 -0.09022639890403598 0.07406991674969693
0.061774314011399684 -0.08937483026977226 0.07338585286157319
0.0616070363870514 -0.08863696477520265 0.07364676627139889
0.0615493709478223 -0.08828762859297966 0.0737772621052578
0.06404841977338321 -0.1443035095851898 0.07340406371614144
0.06434820054118189 -0.1437451348677744 0.07376128627668678
0.06479175996112048 -0.14300030031029212 0.0739866907163525
0.0655039072992306 -0.14209464110919912 0.07400842518803119
0.06625615761301529 -0.14109712056204424 0.0739431087344762
0.0669551556523068 -0.14008559373947904 0.07383401185168373
0.06754615799642683 -0.13905846323187035 0.07370786119129549
0.06807323454119313 -0.1380551998355043 0.07357294959410822
0.06850357920605563 -0.13721550260811205 0.07346432602572127
0.06872263118045271 -0.13664753950350417 0.07345107809945531
0.06915096687562115 -0.13586986623226968 0.07301636851700119
0.06943668751561477 -0.1350245715358044 0.07294212898722599
0.06966606020072212 -0.1342595090730906 0.0729186814720518
0.06985221463513355 -0.1335445402641831 0.07294388236145563
0.07000021060730947 -0.1328714532623237 0.07301749351154575
0.07003169307743122 -0.132216057618968 0.07313410738141354
0.0702633293839286 -0.1315581344805355 0.07234774182192442
0.07008436389629248 -0.13097375073711026 0.07255999070097773
0.06982586512677279 -0.13040568426044355 0.0728247218402379
0.06976554571047265 -0.1296546752515053 0.07216835054861771
0.06964777844234604 -0.12905647429736197 0.0717930393593622
0.06947816099737596 -0.12910755947622737 0.07235074102327302
0.0694701824826158 -0.12855015537739503 0.07191204536064241
0.06941135634037707 -0.12785525688603938 0.07166195213522722
0.06924575093492487 -0.1272444801663875 0.07188235202504221
0.06904219365495576 -0.12639997986144288 0.07207708639731338
0.06900645983168581 -0.1256635379260511 0.07183070990782582
0.06877223405198209 -0.12584643800469206 0.0725505373239164
0.06889549657580073 -0.12519551784734506 0.07199393488336048
0.06882561378191974 -0.12455285087964571 0.07206927535513785
0.068768438362052 -0.12381140741358568 0.07213810213632903
0.06870711670488566 -0.12304337030260394 0.0722246090575606
0.06862477998302395 -0.12225515740181074 0.07233378921484414
0.06850647870250735 -0.12147357900119968 0.0724723471062996
0.06833447802849005 -0.1207148689535446 0.07263846856757392
0.06812634480652607 -0.11997964195911334 0.07284269275510237
0.06788158929191108 -0.11925052584521093 0.0730447649854126
0.06782948197266556 -0.1186017341136491 0.07229301556216516
0.0675431188444498 -0.11785582935033666 0.07243618391494133
0.0672690090652638 -0.11707453440495602 0.07255840986691846
0.06703190492891455 -0.11625643722359258 0.07268624708965853
0.06681153309687923 -0.11540455252849295 0.07281337389840471
0.06663214354291849 -0.11451132179823509 0.07294834747866244
0.06646518492434365 -0.11361454316804938 0.07308241149512236
0.06631762177670505 -0.11272092136146313 0.0732165441632136
0.06619861568308555 -0.1118540245176026 0.07336509357244309
0.06610435372510841 -0.11097623666251404 0.07350443249168627
0.06601769090483467 -0.11005808306661145 0.07370443451549828
0.06622322580596654 -0.10938103862179996 0.0730367252701158
0.0662163721685873 -0.10850724360578848 0.07336079291770614
0.06621773020836226 -0.1076795268241512 0.07367885945547524
0.06620324155929798 -0.1069003610177992 0.07399629596736826
0.06633215661742341 -0.10630360849307526 0.07338078153086539
0.06621851817454952 -0.10547283103123808 0.07364667568318461
0.06606313160549483 -0.10462295836212279 0.0738123661162253
0.06586238717006135 -0.10379543025258252 0.07393597346277546
0.06559334855706146 -0.10294744622052165 0.07409313323877606
0.06529743354929345 -0.10206027767876222 0.07422763398133977
0.06498494654785472 -0.10116500101926316 0.07435019459788615
0.06467068397756653 -0.1002683169968711 0.07447036199956214
0.06440851873287369 -0.09934507385211246 0.07460017620784432
0.06416528654830284 -0.09840495372521607 0.07477089782732936
0.0640615515050721 -0.09759061488687837 0.07403412891070085
0.06387918599053417 -0.09665675407589164 0.07427262281002377
0.06370112964460325 -0.0957339645342535 0.07451779145271449
0.06346510569149129 -0.09479903857952691 0.07476695398261499
0.06320841776918866 -0.09385261615214124 0.0750387661530366
0.06301703766233409 -0.0930458467044533 0.07430815710690024
0.06259141112553325 -0.09202072309390737 0.07456681606406099
0.06217078037787659 -0.09103269852534122 0.07478636443969552
0.06185049431594969 -0.09009486689379798 0.0750254898213499
0.06170968910162327 -0.08932528407712376 0.07433394332177319
0.06158489509239432 -0.0887158077423418 0.0745214590310351
0.06439464017398652 -0.14356594169653067 0.07467907267797805
0.0647404369780444 -0.1430325259621276 0.07490571517421325
0.06539062364287448 -0.14215593901212012 0.07493211912954202
0.06605435851252105 -0.1411773405483454 0.0748822972609286
0.06672029999263862 -0.14017124990866572 0.07478813128454434
0.06726821758393114 -0.13915350167803772 0.07469470660658319
0.06780951970644467 -0.138074502841689 0.07458617064228455
0.06834746817219824 -0.13718248866684096 0.07406408274402604
0.06805677850473581 -0.13736573987354744 0.07483507022838858
0.06858138305851369 -0.13658319349831657 0.07401254177142491
0.06890181651540304 -0.13582170216369416 0.07389027390044672
0.06916241116588359 -0.13503278463498575 0.07382567150695989
0.0694052375043535 -0.1342921096220911 0.07381443145022998
0.06957962987107266 -0.1335760352929851 0.07386907581530078
0.06972659673753825 -0.13289149856213398 0.07396017051801942
0.06976024390864129 -0.1321965719247213 0.07408591666836412
0.06996157403501715 -0.13158386377681439 0.07330735376081195
0.0698059183933609 -0.13098682462808162 0.0735084737062634
0.06958294613380243 -0.13042512335325882 0.0737432867084588
0.06958317374848243 -0.12996577102624768 0.0731679425301051
0.06929299270797376 -0.12879166555367172 0.07270725413089131
0.06936903320257139 -0.129359815364783 0.07315281324783308
0.06908144635140348 -0.12870492794790844 0.07347509783357965
0.06916172575483986 -0.12808916080506672 0.0726101557914939
0.06891447766887358 -0.12728869498342407 0.07289192725506916
