# .PCD v.7 - Point Cloud Data file format
VERSION .7
FIELDS x y z
SIZE 4 4 4
TYPE f f f
COUNT 1 1 1
WIDTH 788
HEIGHT 1
VIEWPOINT 0 0 0 1 0 0 0
POINTS 788
DATA ascii
0.06222147253782079 -0.10667357526843045 0.06657369271252211
0.0621182182327445 -0.10565008031846125 0.0666384424634727
0.061997675163138026 -0.10464372669077145 0.06666742258319777
0.0618401266889286 -0.10363393980603144 0.06665363451897412
0.06164301314458846 -0.1026240730958628 0.06662471896937601
0.06141349534447484 -0.1016030150877302 0.06658970722486794
0.0611675149794085 -0.10056037555338357 0.06654759201976906
0.06092120640041354 -0.0995284214337114 0.066526399541509
0.06069522098987016 -0.09851580656828837 0.06652967530006965
0.060519928760639524 -0.09753764651670724 0.06656549518088418
0.06037550019688703 -0.09657787603113853 0.06662040314065103
0.060281712290041575 -0.09558740497728611 0.06667557279287127
0.0601302386740419 -0.09475193865791676 0.06633227291652523
0.05998489748499173 -0.09423488129362731 0.06579120710487688
0.060143762319849664 -0.09417382827631798 0.06644155949920276
0.060156859893257635 -0.09336995746824386 0.06654339240732007
0.060154827354663584 -0.09247040867968537 0.0666840651831805
0.0601555358644043 -0.0915874865942178 0.06685123311684943
0.05989907377305004 -0.09061685074390018 0.06602956718842812
0.05990732392727833 -0.08973025215567042 0.06630186256922874
0.059917162475486035 -0.08880729610589012 0.06671846626302255
0.05970863062967478 -0.08811497095032404 0.06599508747090173
0.059849468518149936 -0.08744761120466985 0.06662699630968638
0.06267133566637154 -0.14810471438384198 0.0677450104007371
0.06289765647994686 -0.14750219762771014 0.06793317416764975
0.0633029691618284 -0.1464373166693666 0.06792325731317798
0.06369416252028087 -0.14524757961716375 0.06786692966928883
0.06399895864904626 -0.14411818048384473 0.06785728855804761
0.06425034612430364 -0.14301779734698952 0.06790387695040047
0.06442719202056017 -0.14215544338691194 0.06780531245177161
0.06426776264749727 -0.14265695331086978 0.06834084764939598
0.06442261292321345 -0.1419673402882228 0.06829999935350713
0.06463631417205043 -0.14134578703006917 0.06752169116103654
0.06470643702433337 -0.1408707572648447 0.06808142379608416
0.06494002643253495 -0.13977380905646544 0.06814329331596973
0.06520311856067458 -0.13867847607295553 0.06812277651018335
0.06550123868030203 -0.1375442326847265 0.06801452174928094
0.06580412130110806 -0.13642256687063717 0.06783578361736692
0.06606337543307018 -0.1353248177880301 0.0676398540465421
0.06625753859269239 -0.1342574511628451 0.06749590855757547
0.06636728625077726 -0.1332807189074537 0.0674647082293088
0.06644310899280888 -0.13250247882762964 0.06728971436757228
0.06633272811354159 -0.1329356339306773 0.06784402730009433
0.06636404814479713 -0.13214125397183366 0.06764210039824387
0.06633061491503799 -0.13114410694277565 0.06758730721471494
0.06629880358932884 -0.13008540545915118 0.06752664451198104
0.06629415771769619 -0.12902373244586546 0.06718584485509899
0.06626388789306138 -0.12836866469897412 0.06707882665644334
0.06618645994364596 -0.12882261026504715 0.06763052588147607
0.06612225685081033 -0.12802470156912443 0.06745552993657014
0.06593594742802351 -0.12697018344091268 0.06743197745000905
0.06583186388579008 -0.125929735166801 0.06712004330045197
0.06572143254729858 -0.12529429530117217 0.06702374590531301
0.06564652092393938 -0.12571302144991794 0.06755900425876862
0.0655011426244349 -0.12496110764658126 0.06735790722930496
0.06524464132469487 -0.12405126967164434 0.06730426212359972
0.06508653419885693 -0.12334035167535104 0.06712419996751459
0.06502148098618668 -0.12368837742369646 0.0676445916769074
0.06485913227357258 -0.12297430518530245 0.06743920349741918
0.06460337092028723 -0.12207496702206876 0.06739593416556167
0.06438012617207906 -0.12118685303138527 0.06739660163055787
0.06424719659707286 -0.12047034907321863 0.06722592883686247
0.06425587508343372 -0.12084916112046656 0.06776271837748726
0.06411209407689164 -0.12013008894767892 0.06758217333299055
0.0639042491573788 -0.11922376514827883 0.06756447215223732
0.06370580636526077 -0.11830002511245545 0.06753899501039622
0.06351384644996323 -0.11736215209056143 0.06751845848172183
0.06332743341515237 -0.11642227850689749 0.0675352674756049
0.06319316177583373 -0.11566620660941362 0.06744110270316742
0.06321900868871703 -0.11614357098401823 0.06795605823479495
0.06310214043061661 -0.11555661201146358 0.0679533929401579
0.06308637120453485 -0.11489644714454081 0.06721730119620042
0.06295870772274723 -0.11472422433811644 0.06789896426780002
0.06296465366320034 -0.11395252009331512 0.06712062811418235
0.0628215455757614 -0.1137850698107223 0.0678908103105973
0.0628505601172996 -0.11298013027862905 0.06713089012599885
0.06269902877324171 -0.11278734129958094 0.06794982748298384
0.06276314999964266 -0.11199388914162364 0.06722491288999034
0.0626053892426248 -0.11170196566531972 0.06810391550112233
0.06270900932855733 -0.11118412197846239 0.06736844475075238
0.06267415440582658 -0.11028421834461449 0.06717407163607983
0.06260569550142267 -0.10914728579520082 0.06749951618426761
0.06252741871395322 -0.10822488604468895 0.0673020422032049
0.06247127479089735 -0.10742902777513122 0.06742887772216795
0.06238772513566783 -0.10650205813256508 0.06748959924150481
0.062301255785142944 -0.10556650125960607 0.06756796167066556
0.06216955899089359 -0.10460193120001998 0.06760448435710482
0.06199553704241207 -0.10363284152380357 0.06762103306156753
0.06179754557851081 -0.10264222177772196 0.06761512915425165
0.06156326366856091 -0.10161914857027915 0.06758757490448362
0.061318329794906826 -0.10058849366988183 0.06756056005545748
0.061095973504135474 -0.09956702873744075 0.0675491892359759
0.06089224834824588 -0.09856606794252887 0.06756323082483909
0.06073285321262089 -0.09758518936952867 0.06760308354849538
0.060617586147091965 -0.09661743471542152 0.06765860215220948
0.060544650266419545 -0.09576470290260927 0.06770659612086465
0.0603347490096532 -0.09495927969748628 0.06706381515576708
0.06043843707398845 -0.09434146511100569 0.06746193985508893
0.06045459111075654 -0.0933913872233881 0.06756067509947415
0.060452832537749905 -0.0924970981277538 0.06768801508044005
0.06043430708500034 -0.0916347721733842 0.0678325725897045
0.06015423265955914 -0.09072895226499325 0.06706733503674744
0.06016963762756304 -0.08991760212449765 0.06738481871548271
0.060201972515263824 -0.08923439457174823 0.06775215095585316
0.05986353826296477 -0.08792555342142525 0.06673132619601757
0.06009315431577599 -0.08825038861504306 0.0676420907674949
0.059959476217571216 -0.08747391678427337 0.06715937644552766
0.059999894767747836 -0.08701311469560462 0.06738591655502299
0.06265631733062202 -0.1479824104194896 0.06863147563355967
0.06286064840543011 -0.14735588859735174 0.06884955547040908
0.06324588722660933 -0.14628060815188415 0.06883647337493547
0.0636187790924855 -0.14514899622797128 0.06875050241688735
0.06393342759122027 -0.14408239089831135 0.0687672463829373
0.06411871272663544 -0.14326193326087197 0.06865507827521168
0.06396846161195538 -0.14370374037651082 0.06918756752835244
0.0641274348101879 -0.14290827916662874 0.0690608214603358
0.06436331672428823 -0.14187116528907937 0.0690509311618766
0.06460904430756093 -0.14077211992771216 0.06901499213325088
0.06483269038843578 -0.13966522101255863 0.0690192318543315
0.06510296206989191 -0.13848237913807654 0.06903388237268182
0.06545672796521462 -0.1372397006775153 0.06873618840785546
0.06574673995603243 -0.13614787519736649 0.06854126089979588
0.06597559270359767 -0.135116311115361 0.0683674653451243
0.06615474821139575 -0.13418322400424665 0.06822091225815663
0.06623105220607102 -0.13353097979915016 0.06818325007918936
0.06607437092502556 -0.13403958800657365 0.06873297939997332
0.06613936654800956 -0.1332229687732264 0.06859947187509569
0.06615447695853187 -0.13221496277804476 0.06857325723776417
0.06614148699297717 -0.13121734084028097 0.06852946650749701
0.06615742715376885 -0.13040692259074732 0.06834418059708322
0.06605095998961474 -0.13089687029490685 0.06890589064219596
0.06602043985045566 -0.13022928064814765 0.06879319844615245
0.06617950130473887 -0.1296105445352658 0.06798572322789104
0.06599385819415349 -0.1291530664015407 0.06844294852290968
0.06584408707354485 -0.12808893341451566 0.06840268508212226
0.06574858338015512 -0.12726505972520422 0.06824053137928629
0.06563390384940687 -0.12775548494239392 0.06878677536472812
0.06551069062607305 -0.1270864493157493 0.06869572784685296
0.06569780673417376 -0.1264779766262234 0.06790251311442572
0.06535031583852674 -0.12598098378693398 0.06838232318968321
0.06519366521791577 -0.1248851495472695 0.06807066733632224
0.06505181506287028 -0.12423104319787032 0.0679808529240241
0.06492551759894101 -0.12468224734539202 0.0685317405275831
0.06479651710959204 -0.12389629819771142 0.06833972498032445
0.0645929659356628 -0.1229584498431347 0.06825607152522117
0.06439953142048643 -0.12209251205723975 0.06825273976462927
0.06429903305878175 -0.12139605420316617 0.06811274674185941
0.06425667342061445 -0.12179287353060611 0.06864197126015263
0.06415792816841752 -0.12107795403954498 0.0684867344509392
0.06397830683955143 -0.12017365925872418 0.06849168500185478
0.0637996595973304 -0.11925603558403652 0.06847210649848309
0.06361160906451131 -0.11833570958831448 0.06844742726320603
0.06342167629550559 -0.11741799931178575 0.06842682432205158
0.063285140250811 -0.11669324253062978 0.06826344034629725
0.06329666735761995 -0.11709037823492681 0.06878434312099464
0.06316436394010999 -0.11638864145647465 0.06864546917970374
0.06297819067020971 -0.11553335873853612 0.06866680939175898
0.06279515949777083 -0.11462326436945905 0.06866587624317323
0.06262812848276267 -0.11364095997953506 0.06870467935161716
0.06249840720017745 -0.11261832148184737 0.06877986656703512
0.06242129211415755 -0.11173907317781695 0.0689366746332716
0.06263065677730302 -0.11079590961504462 0.06788665249790063
0.06247391171449508 -0.11078655994683081 0.06873600852026265
0.06258778976768584 -0.10998833300339748 0.06812077569900751
0.06246265595574739 -0.10967155202793542 0.069060821457778
0.06257472600995281 -0.10918128278538827 0.06839677863673106
0.06256189232766121 -0.10819445864446445 0.0683026090675615
0.06252314403776091 -0.10716850328483199 0.0681901997060906
0.06247842251031944 -0.10637523306161793 0.06837788946717745
0.0624016562801633 -0.1054687830102199 0.06846166246995017
0.06227524661118048 -0.10455479588087584 0.06853597392666606
0.0621033805197297 -0.1036088932509651 0.06857689752976963
0.061902595189712147 -0.10263531512063485 0.06859371123795821
0.061679757914729544 -0.10163152796113571 0.06858858723530635
0.06145973752182603 -0.10062151465570816 0.06858172762226618
0.0612644901281874 -0.09961442172164796 0.06858385716118258
0.061092771966693056 -0.09861892861906593 0.0686073045490177
0.06094608066407985 -0.09762549264389692 0.06865682081682567
0.06084152488199934 -0.09657758152372034 0.06872651972254838
0.06068463000554932 -0.09568948031402323 0.06834791369279476
0.06053477598088246 -0.09516541700878832 0.06779435730573392
0.06067908668496339 -0.09507073493900095 0.0684087718902275
0.06068702120917319 -0.09425571475447402 0.06844789142938791
0.06070579611927998 -0.09337801153774959 0.06855698326509568
0.06069575448120551 -0.09248183906603182 0.06867121102970684
0.060657634806047314 -0.09163269897851833 0.06871660431393334
0.06041571894317776 -0.09083783982409818 0.06803562659275426
0.06046335111441287 -0.09012681756016865 0.06848453155091504
0.06037632123003331 -0.08910588414736285 0.06861857677042206
0.0603086360504778 -0.08812475780465391 0.06879515377510065
0.06011792348048156 -0.0873462111224916 0.06799954506615428
0.0601695335839445 -0.08660978599111958 0.0684564527675976
0.06027268497389586 -0.08599830734469899 0.06905947471431327
0.06258167554604427 -0.14789122919024972 0.06956281261367302
0.06275952293600154 -0.1472520280040864 0.06984305260087016
0.06318576772056432 -0.14608560835694182 0.06963223668520774
0.06355616118339769 -0.14506158795607785 0.06949673898927994
0.0637826021283286 -0.14434088538735454 0.0694873726798604
0.06353556289796373 -0.1448770677901706 0.07002571020642842
0.06376245159148251 -0.14399699750506126 0.06993514019282349
0.06399485476257252 -0.14291111759582614 0.06996145808781264
0.06424235386386475 -0.14180542532592852 0.06994111295905406
0.0644744682971344 -0.14071793789680523 0.0699204612607712
0.06468230623480287 -0.13963103416235362 0.06994520648432717
0.06488395375601012 -0.1387839466979419 0.06984947436423652
0.06467022098020225 -0.13928114627327864 0.0703718939538765
0.06484272301836123 -0.13863300888228255 0.07036543047759164
0.06512810962899682 -0.13795429452520938 0.06960096885803299
0.06509046039680641 -0.13771803223332538 0.0702652115945867
0.06541389046984646 -0.13693637698139252 0.06941296288174524
0.06534841305399197 -0.13671687176922032 0.07012680744090989
0.06566517171271723 -0.13590015036463352 0.06923842872382294
0.06559188130130102 -0.13564758452984368 0.06993884732469632
0.0658964780290333 -0.1348825189013938 0.06902144087888318
0.06582763252420211 -0.13441652909172538 0.06960117505015596
0.06590594205430668 -0.13330790491119132 0.06956216995010821
0.06593325954893539 -0.13228825494542998 0.06950055046533879
0.06597997997758735 -0.1314935689084022 0.06927343070331
0.06584520591197612 -0.13192221813911462 0.06983588851684655
0.06586593734146969 -0.1311432529901808 0.06961253603540918
0.06578761386562293 -0.13017314969080485 0.0694943028666201
0.06568639157068931 -0.12916645910392724 0.06935847778167252
0.06562079509991131 -0.12835873653300042 0.06913677515358684
0.06548517511137765 -0.12879977983011562 0.06967887174454408
0.06537322749034007 -0.12802468995538607 0.06948207234341484
0.06512999648735299 -0.1270699018325153 0.06941643795195397
0.06500444112910024 -0.12626423926831984 0.06921622643871254
0.06484171006855861 -0.12674443757349768 0.06976475577185033
0.06471018851814885 -0.1260795830914811 0.06967716083765978
0.0649701693649621 -0.1254712191012952 0.06887476566227053
0.06458892642734246 -0.12497305883719675 0.06939306945092201
0.06447646203166278 -0.12380969340344504 0.06911435991948847
0.06436309784838608 -0.12293289830411269 0.06897079042427018
0.06427429683030754 -0.12234034511763738 0.06894944628462017
0.06420620057525031 -0.12282210975974883 0.0694775371216817
0.06412684978864042 -0.1220699242895133 0.06937948154539886
0.06398598571836803 -0.12114207918242696 0.06941007990253176
0.06383899940181907 -0.12021339069994585 0.06940145831706135
0.0636777894926583 -0.11929240460263622 0.06937504905710506
0.0635015213629763 -0.11837689405223553 0.06934036884980734
0.06337114379098009 -0.11764454880767947 0.06913741692865447
0.06337316142597556 -0.11803250721612377 0.06968453906250144
0.06323321734447998 -0.11730946591557265 0.06949470107096699
0.06302591106022702 -0.11641610960602738 0.06948682864040402
0.06280819821129427 -0.11550897190956746 0.06948053645877394
0.06259031659229271 -0.11455105803728326 0.06950337556663796
0.06238176999031639 -0.1134952179514447 0.06960820434551929
0.062288579704765375 -0.11235841355526852 0.06954957093432569
0.06224376759224398 -0.11125971382775933 0.0696660492617049
0.062325248579734455 -0.11034561842485605 0.06951687662806838
0.06230414048864045 -0.10970794286973651 0.06983802902339846
0.06252191441175102 -0.10882630043474907 0.06898764088248438
0.06238772608777423 -0.10880708323118586 0.06988039032686197
0.0625086256971318 -0.10820276583861864 0.06927242405172128
0.06252237802376154 -0.10721419346517945 0.06923053476341691
0.06249835027466148 -0.10616698435394141 0.06915681924922445
0.06243409241896055 -0.1053849676304915 0.0693573911080438
0.062331417059107976 -0.1044851697540646 0.06944338763542143
0.06217531709067366 -0.1035709116681518 0.06951898977025092
0.061988837815556155 -0.10262112911660067 0.06956537998104971
0.061796706844092476 -0.10164340028443566 0.06958989556271121
0.06159533515202893 -0.10064986144726684 0.06960142069943231
0.061415646665643774 -0.09965326499685877 0.06961609259657132
0.06126764043191083 -0.09866648991820079 0.06965446563257033
0.061153993282871494 -0.09769050752896054 0.06973279606930322
0.06109030073090124 -0.09678312583148779 0.06989841847965293
0.060871938956756425 -0.09585728072122508 0.06912256934443246
0.06088720151872015 -0.09507853300010016 0.06929160238227298
0.06090578624047641 -0.09423520686293121 0.06942513519439743
0.0609156202045435 -0.09333576771205314 0.0695597102100381
0.060889747758266465 -0.09232807062935622 0.06968144548645261
0.06076645935748623 -0.09146957372457312 0.0693269508101773
0.060608813398402364 -0.09098133825199858 0.06878479755192703
0.06071147465571552 -0.09081136469805698 0.0693990071235428
0.060648907933380826 -0.08994369102778085 0.06946751830796277
0.0605690990869663 -0.08898043739217641 0.0696322972292166
0.060494152008575476 -0.08797432245734807 0.06993296382387625
0.06028009943222281 -0.0871753914914812 0.06903890546570557
0.06030269144256467 -0.08632856183779017 0.0694751234203256
0.06034351126573055 -0.08571866230160477 0.06978141391695099
0.06244148403916445 -0.14790773872873836 0.07043096223453066
0.06247809043355677 -0.1475884285048251 0.07068463886977026
0.062291474748116527 -0.14790193134548546 0.07111467181428233
0.06238879131415697 -0.14745314722895603 0.07122610632087747
0.06275388752373665 -0.1468309430372799 0.07048996515195441
0.06270526481963942 -0.1465336361429289 0.0711360873429466
0.06317952789920116 -0.14578274287470477 0.07028607670835922
0.06320483614348547 -0.14523804195929713 0.07088413636215331
0.0635403780925113 -0.1440133935626391 0.07090694565793497
0.06384429316300018 -0.14286481977748783 0.07087496738201074
0.06409327840012206 -0.14177352201907034 0.07083579305050565
0.06432420585954164 -0.14071644391893873 0.07082858749079898
0.06450420125160572 -0.13988331078437607 0.07067694971500678
0.06434700889145747 -0.1403376911939541 0.07121168108906986
0.06452811752054012 -0.13955551538355968 0.07108427151397638
0.06477479542001519 -0.13860071541385133 0.07110087727389405
0.06502356961053452 -0.1376002208848066 0.0710299249197713
0.06527969566598919 -0.1365598300944434 0.07090391439685677
0.06548050586766313 -0.13546692618733494 0.07073792642451521
0.06562635946881679 -0.13438373635469475 0.07058890884445916
0.06569170383266194 -0.13333162636420587 0.07049529829145691
0.06574745066162528 -0.13252749692227875 0.07024323046327326
0.06560366315116833 -0.13294551969267782 0.07082527040659246
0.06564631022584252 -0.13215434537062826 0.07056922695198692
0.06559703787696262 -0.13117191313751514 0.07045919135230469
0.06549648337347326 -0.1301952969607892 0.07033139863549921
0.0654535089202577 -0.12940833481125677 0.07006710360676978
0.06531306410620104 -0.12981876192322933 0.07062250008997376
0.06521368931146773 -0.12903929303681386 0.07038434378595469
0.0649582059826367 -0.12808826533436354 0.07031621374716242
0.06482170782388834 -0.12732732017381804 0.07010791329074456
0.06467325197286143 -0.12774255986217076 0.07063758552604826
0.06455140940034802 -0.12699218052539443 0.0704546673564114
0.06432907144419797 -0.1260554909616059 0.0704149360285927
0.06425515937998956 -0.12529101901234488 0.0702544279594971
0.0640984622143837 -0.12575158497193767 0.07078356746751518
0.06405953039996926 -0.12515475769516285 0.07074354154285202
0.06426984232217219 -0.1245182352976789 0.06997093982437584
0.0640414919948321 -0.12428618440040397 0.070598505651909
0.06422844841037703 -0.12359137141808363 0.06974510087721986
0.06402895665062115 -0.12317618876612994 0.07031998336979788
0.06392538412838561 -0.12214446083546299 0.07034344048364266
0.06381611441018356 -0.12117883250410065 0.07033379125439211
0.06369018653305443 -0.12024285883840077 0.07030875582800258
0.06354455450414037 -0.11932594071122497 0.07027414846386015
0.0634344882420858 -0.11859244523724452 0.07006539720363342
0.06342300839183194 -0.11897978144304254 0.07061996517063379
0.06329409032143148 -0.118248344090818 0.0704135326203608
0.06308208548124841 -0.11734350453936092 0.07038306510306563
0.0628544291906579 -0.11643117799793337 0.0703558301711951
0.06261150242462835 -0.11550149744643892 0.0703452349741802
0.062366836812423 -0.11454963378981285 0.07038452231209913
0.06221690004085294 -0.11378331924870876 0.07034311782353371
0.06218623432804868 -0.11424331357439044 0.0708012202613741
0.06207796173690309 -0.11365171640897219 0.07087311107025111
0.062153287736672606 -0.11301831089298613 0.07023147925337292
0.06197628972311842 -0.11281510442202704 0.07095342572604203
0.06208489375777135 -0.11207623084686685 0.0702973969191332
0.06189826723557321 -0.11182712181531561 0.07115797432261316
0.06204287125277698 -0.11126490187348774 0.07046452623054067
0.06212133993647488 -0.11031948302558903 0.07039892444305035
0.06221059170453264 -0.10940586159934693 0.07041231187469275
0.06222032826640307 -0.10880576523064066 0.07074507433366442
0.062456377518597235 -0.10788863887593846 0.06990329092468889
0.06232877627367877 -0.10789583846662429 0.07083441973269419
0.06245712344796709 -0.10725669665751654 0.0702337751663558
0.062471301615365155 -0.10625586143790168 0.07021115543189577
0.06243337384671075 -0.10520200831258224 0.07014298254532857
0.062350183156029186 -0.10442325341040384 0.0703439342691405
0.06222259732504376 -0.10352277403094964 0.07044005397395758
0.06205753756675942 -0.10260032644306163 0.07053166362681328
0.06188640717013996 -0.10163579241242636 0.07058065258296159
0.06170992362291234 -0.10065996461826437 0.07061019095337814
0.06154551450809267 -0.09967823234931385 0.07064134464405503
0.061418271669956975 -0.09870436167846008 0.0706963733209467
0.0613124782648184 -0.09775876045516102 0.07079823959728125
0.061253667235295586 -0.09685128403688485 0.07094712507162348
0.061078002630294614 -0.09594482574317925 0.07010313155133036
0.061076290825372304 -0.09509258195083559 0.07027221005484935
0.061087281167218815 -0.09421885209695967 0.07043423250903484
0.06108387171689144 -0.09330875475830716 0.0706007535840439
0.061081936555920625 -0.09243273090410778 0.07083053346546857
0.06091664566570927 -0.09156211301641379 0.07009078613362993
0.06087025621263428 -0.09073374719001587 0.0702763834350432
0.060801070182109236 -0.08983380229709031 0.07042606639181408
0.06071169908218378 -0.08894923177024762 0.07061666019213243
0.06064860348041489 -0.08826166710641772 0.07088798875170917
0.06037121963891237 -0.08704595026828606 0.06987444023931608
0.060493503631990894 -0.08736169670569216 0.07077332730499196
0.060361537104756724 -0.08659288368584747 0.07029524674953011
0.06036567356529505 -0.08595311552207355 0.07039602809650664
0.060384243780850055 -0.08548963373721642 0.07069107771080034
0.06215920523290416 -0.14784766676936323 0.07173729773805457
0.06227511068819338 -0.14731229199227633 0.07189405730387083
0.06257445817191021 -0.14630523249698854 0.07191464659093642
0.06294449947167709 -0.14514256530998917 0.07190329098565763
0.06336116331962018 -0.1439225388561884 0.07184752096757677
0.06368521414551015 -0.1427965481889893 0.0717435828380208
0.0639670330008984 -0.14177441467635896 0.07171818094022331
0.0641694454468708 -0.1409690562863088 0.07156139405994166
0.0640067520762229 -0.14141361168229433 0.07212391798716376
0.06419712155631709 -0.14061189148045822 0.0719682775395575
0.06444678032089375 -0.13960106008346468 0.0719836814855232
0.06469642354478385 -0.1385785333915047 0.07195136675850569
0.06495852237742349 -0.13753729476500465 0.0718691291328494
0.06517147535031889 -0.1364790748965081 0.07175701148405451
0.0653471944191435 -0.1354239595670393 0.07162745674695312
0.06544477487883123 -0.1343817370902361 0.07151179105978873
0.06551586165587449 -0.13355896253588043 0.07124700529291876
0.06537934786846872 -0.13398260829552958 0.07184036607534731
0.06542493163726959 -0.13317587748165582 0.07157723298646082
0.06538876956847595 -0.13217504642288982 0.0714627960643765
0.06530027390006365 -0.13119156090077974 0.07132439623240844
0.06527285768196839 -0.13041160072011293 0.0710363844179095
0.0651336284983688 -0.13079813623605255 0.07160552951904232
0.06506039227330732 -0.13002130875211504 0.07133833106746049
0.06481035417544874 -0.12907718766585471 0.07124220061852722
0.06467425297741229 -0.12832628930626547 0.07100957235267528
0.0645495312928051 -0.1287149726709984 0.07154876671779409
0.06441454726232433 -0.12795851466349117 0.07134613498831277
0.0641584663926923 -0.12701583839492483 0.0713032050761985
0.06406028332418601 -0.1262881670844761 0.07109920203947781
0.06393651280568927 -0.12663559808131344 0.07159788175539569
0.06390509129224926 -0.12595448748265034 0.0714413708998853
0.06386039403480694 -0.12510948324596025 0.07145152046971723
0.06384165281225078 -0.12415871807165577 0.0713747674193352
0.06380508211184102 -0.12314749857922404 0.07130846690464084
0.06374014857458403 -0.12215299761202196 0.07127787770850105
0.06365256803252972 -0.12119238400745565 0.07123789215578273
0.06354208463959576 -0.12026532304437534 0.07120504657244923
0.06346351281778556 -0.11953661581462043 0.07100267442009896
0.06342777527842104 -0.11991960313722852 0.07156063641849758
0.06332600663125008 -0.11919541149481652 0.07135831426898855
0.06313093038762886 -0.11828935374993509 0.07132766412495314
0.06291237770022771 -0.11737414890943815 0.07129054586865514
0.0626716855609492 -0.11645030266314804 0.07125077595613694
0.062417171757238155 -0.11552249526115893 0.07122770778485242
0.0622513285428915 -0.11478944130136694 0.07107196225099062
0.062245775644525526 -0.11517865169169024 0.07158787583868022
0.06211176614498656 -0.11447710323947068 0.0714945593802556
0.06195078068461843 -0.11362973806290394 0.07162640390983038
0.061833023087949565 -0.11276950992431742 0.07176725143715076
0.061763083440969896 -0.11203767392506557 0.07199324322377751
0.061936497955922876 -0.11093311713948059 0.07099964546378516
0.061789778783563294 -0.11102464796853714 0.07191235703729215
0.061931467789447 -0.11032854050905645 0.0712535279637969
0.06203146634155263 -0.10941523074190812 0.0712766498043522
0.06214597947483304 -0.10851322478752828 0.07135291965517815
0.06216797501308168 -0.1079166471766236 0.07175567129708575
0.06240952847653421 -0.10695651293874202 0.07089391378747344
0.06228531872950638 -0.10699010541149924 0.0718588903052571
0.06240685488601583 -0.10633113890308163 0.07123459682821326
0.06241176512862016 -0.10533557518107704 0.0711985264637271
0.062342991320699634 -0.10428319059157583 0.07113306208608855
0.06225352318131127 -0.10350866563234007 0.07137972454823396
0.06211400476288881 -0.10256938553201897 0.0715004377384486
0.061971307277564926 -0.10161725013811179 0.07156358941406203
0.061812937605549 -0.10065658106074707 0.07161105123617016
0.06165856365518849 -0.09968306718367646 0.07165650264372479
0.061525609238871605 -0.09871900063411565 0.07172509759296092
0.06142861320641248 -0.09777657624288749 0.07183277187547799
0.06135906155890615 -0.09684501626720268 0.0719744937377498
0.0612282524169176 -0.09596281245219218 0.07111471781839572
0.0612190141283218 -0.09507495121903614 0.07128651775194533
0.06121697032656939 -0.09417918418602515 0.07145716526813217
0.06120900961085758 -0.09329471386668339 0.07164977338233373
0.06120862429592301 -0.09241968708503197 0.07188698206727791
0.061068454807128685 -0.0915686849675944 0.07106872019199365
0.061006972144184414 -0.0906752494204641 0.07125549763060368
0.060922186818771804 -0.08976023584502019 0.07137092946540508
0.06079947314004962 -0.08891917439962742 0.07150145356330193
0.060667299407481536 -0.08809672754828801 0.07164662000839009
0.060524744598575334 -0.08722242177007757 0.07178566867503708
0.06040701491358739 -0.08650188324252141 0.07108347756250723
0.06038938104310769 -0.08581341181904008 0.07134108373965252
0.060392763513945825 -0.08548389929069292 0.07149971801127095
0.062087702153612805 -0.14770264572873673 0.07225099045917699
0.062168375873847874 -0.14706919860398832 0.07260589327045655
0.06235755858101581 -0.14621163138443014 0.0728459310366994
0.06271999812864078 -0.14504700799112197 0.07294773184291266
0.06321889876772273 -0.1437502044141556 0.07266252914362145
0.06357526403863702 -0.1427400106821692 0.07249560866989091
0.06381352562462903 -0.1420390044674762 0.07245995520630209
0.06355145474657661 -0.14259533008062958 0.07303668870504607
0.06382194928051015 -0.14173206200547117 0.07292281369296195
0.06408287031450717 -0.14069137455966385 0.07294592533792342
0.06436357790815724 -0.13962733151861065 0.07292039903276469
0.06461373684612903 -0.1385784645170049 0.07285975162483908
0.06485828087727699 -0.137519484637106 0.0727672331942315
0.06505835109593955 -0.13646181159925524 0.07265468586356727
0.06519659908954052 -0.13542010760957449 0.07253790077730284
0.06528164328781019 -0.13459676717045355 0.07227115901553327
0.06514250149623715 -0.13502369468651837 0.07286882579996327
0.065206004600069 -0.134214699541928 0.07260942155914278
0.0651916783422271 -0.1332001657406819 0.07251749219518352
0.06512243965913328 -0.13216491064049918 0.07237163369968846
0.06508924443570252 -0.13137012606468454 0.07204150791300212
0.064988455719675 -0.13170871576858437 0.07261211520440167
0.06492332465448726 -0.13094330296906587 0.07232184593643208
0.06471166723003823 -0.13000286962131039 0.07221118568877935
0.06456868580908921 -0.12926598242876686 0.07193738777066774
0.0644837259129369 -0.129593291307433 0.07247706409895982
0.06433448887163896 -0.1288779466399692 0.07225433403484476
0.06405987473380959 -0.1279712914979167 0.07228484234925252
0.06392024130157899 -0.12717320554148298 0.07200727856334473
0.06380061336466636 -0.12749125012585177 0.07270721707002308
0.06378845832793749 -0.12671165099076598 0.07218632693919312
0.06371481047565673 -0.12598454271943085 0.07227642134171278
0.06367454932963199 -0.12508831223113265 0.07229629822841874
0.06364900824637304 -0.12412396774391964 0.07227898212548639
0.06360990174564869 -0.12312481024311088 0.0722492317370341
0.06356370792960964 -0.12213301679986335 0.07217167943994772
0.06349214917470819 -0.12119861437934389 0.0721140493152889
0.06344344453152463 -0.12047610290752586 0.07193551494645563
0.06338701498195402 -0.12087252662347855 0.07248783313584876
0.06331495973399087 -0.1201471942612385 0.07230447695305511
0.06315481955192906 -0.11924557182649376 0.07229113102147167
0.06296509813721358 -0.11832961372267518 0.07226375845548814
0.06274373029227368 -0.11739790422730044 0.0722162926357133
0.06249895430750529 -0.11646590428683685 0.07215268438267158
0.06232835758256339 -0.11573039518394483 0.07193803264389699
0.06233753895174308 -0.11609760297359618 0.07248448037379762
0.06218600249917325 -0.11537611794356473 0.07231364072478531
0.06199716100837325 -0.11449867455965056 0.07238282242445615
0.06184351211628582 -0.11362452185001026 0.07247942670216086
0.06173628773292835 -0.11276580269098568 0.07260120801403194
0.06168867699702718 -0.11189754669048678 0.07270776737831973
0.06167446517248764 -0.11113604923025573 0.07289252901275392
0.061856491749550976 -0.11005283313475143 0.07184281466855964
0.061739961896481635 -0.11018174265192104 0.07274590743612824
0.061866636911573354 -0.10944564762220595 0.07218579092895341
0.061991049448142835 -0.10857930586903373 0.0721899366417878
0.062084938055398074 -0.10763591183284528 0.07253876261683344
0.06215198693379307 -0.1069469702181012 0.07282139927827784
0.06235999041289079 -0.10606543351616947 0.07189156690900855
0.062264676483314754 -0.106158545560813 0.07279045392868895
0.062358393979107966 -0.10546403136131285 0.07224932496266029
0.06235319957944782 -0.1045059284432265 0.07213588513799189
0.06226931395375598 -0.1034369219765864 0.07235506880860813
0.062163077572787856 -0.10250557637296726 0.07244394216728127
0.062038023867574274 -0.10158823685815489 0.07253995276163838
0.06189667554870332 -0.1006372997878344 0.07260764219224564
0.061741945756846175 -0.09967229878966871 0.07266663688723875
0.061608991954193795 -0.09870476934610514 0.07274274093411204
0.06150694387585674 -0.0977466805993667 0.07285676354352712
0.0614369984282417 -0.09678657686596645 0.0730115925772357
0.061330380937461695 -0.09592325078244138 0.07213489179253542
0.06130896013958183 -0.09501005736722365 0.07231120055248946
0.06130108145118477 -0.09411178563227413 0.07245842360628128
0.06129031558819936 -0.09326169311236533 0.07265788538660367
0.061287428604759026 -0.09236482030630354 0.0730154152739266
0.06118089175091248 -0.09151670305837095 0.07207989005390972
0.0611129472453697 -0.09056346212342052 0.07231682303441521
0.06096426508919126 -0.08960951113149318 0.07214101987779138
0.06085942996297984 -0.08890231237615387 0.07240340973839395
0.06068151424000945 -0.08799951616006177 0.0725892263831922
0.06053422937915082 -0.08713289634520438 0.0726799940118217
0.060425707946616974 -0.08643936002617739 0.07201306578582284
0.06040270055852906 -0.08592876838458072 0.07246290704538018
0.062010651435145864 -0.1468290645299558 0.07354645642338348
0.062118681387217815 -0.1462543605430958 0.07385702934958252
0.06237810986270171 -0.1454462538519021 0.07384605928019733
0.06209120481638676 -0.14600698546262428 0.07438599382030532
0.06233652264447917 -0.14528930015764432 0.074392736193388
0.06273571699934226 -0.14453611482032713 0.07357693768642869
0.06275271021029662 -0.14427148318193447 0.07425397269272192
0.06318655934058343 -0.14348190459243315 0.07333437785615796
0.06329436907029175 -0.14299594799022222 0.07395265182426124
0.06367049642708997 -0.14184440220711994 0.07396410098319006
0.06399750391704227 -0.14074768543881952 0.07393749054116883
0.06428665131059934 -0.1396691132738638 0.0738819626454497
0.06454166137158124 -0.13858759235770382 0.0738017676113853
0.06475882852038783 -0.13752008981841557 0.07369516083715101
0.06493940477351226 -0.13645658234840347 0.0735683923628453
0.065036248421578 -0.13563357948801927 0.07329759328047548
0.0649128519933411 -0.13604926278571366 0.07388717038165779
0.06497476770007597 -0.13525749273670115 0.07363714012219313
0.06499965505178858 -0.13426926140524617 0.07357864091145377
0.06495770646027209 -0.13319963416720898 0.07354641704740132
0.06494897446867771 -0.13228348006628082 0.07313339987574485
0.06483100994421816 -0.13257438992877046 0.0739405923933572
0.0648427520423005 -0.13172667052536266 0.07322801179335435
0.06465100615715537 -0.13090222793587467 0.07327094596380884
0.06451002911182348 -0.1301170224540505 0.07294442202094696
0.06440403986927543 -0.13037069600264606 0.07371466189953664
0.06432040338372198 -0.1296228795789785 0.07307941286742074
0.06407762400258014 -0.12892733603530343 0.07316261390889768
0.06384871377425687 -0.12825577032997287 0.07326464395095143
0.06369358091278149 -0.12776456463538063 0.07340014749210036
0.06363332292605833 -0.12696966996945264 0.07312194993117231
0.0635521635490882 -0.1260321444475868 0.073188131783566
0.06350153147143622 -0.12508875094966565 0.07321608399386838
0.06345506865301319 -0.12410757966781798 0.0732222570976741
0.06340685355660414 -0.12307752974390554 0.07322023995371107
0.0634112091930934 -0.12205559710548511 0.07291219597263801
0.06337657070097737 -0.12142451097366853 0.07283311113387553
0.06329966457712291 -0.12188233990619088 0.07338876424323176
0.06325670122763699 -0.12113093333922971 0.07324693418947184
0.06313780689284935 -0.12021342192045342 0.07325936372728177
0.06299286688140966 -0.11929515386541932 0.07325564036576389
0.06280828650673698 -0.11835554383290622 0.0732374909589363
0.06258500738817455 -0.11738693711661818 0.07315616493358523
0.06242309180137676 -0.11664094747763225 0.07287705305283082
0.062431050232707404 -0.11695682458650823 0.07343361957724405
0.06228222238291448 -0.11624476619985287 0.07319811663837053
0.062083215328856516 -0.11538198881453406 0.07322234933053715
0.06190963018457903 -0.11450740516007549 0.0732872693789455
0.06176927106901267 -0.11361834625621262 0.07337368488756303
0.061674650087278016 -0.1127221426234284 0.07347066552250457
0.06163264572457756 -0.11182272528654061 0.07358070714354557
0.06163198425768856 -0.1108846616189878 0.07368618685998532
0.061660248818560415 -0.10979929354855224 0.0739269589695712
0.06179777579989222 -0.10912967025896199 0.07300771459880477
0.061890013063692045 -0.1081271480526885 0.07331340461691639
0.062023273716647113 -0.10732601285590891 0.07329567875620148
0.06209153405806573 -0.10665649143088048 0.07357524879191374
0.062190861306111136 -0.10577783834282502 0.07391295901961048
0.06231724779279486 -0.10518407646234028 0.07308148363983688
0.06232746901486336 -0.10418981472033458 0.0733296017057454
0.06227170879863975 -0.10324113290197126 0.07316755873702069
0.06220196327238269 -0.10249320114278211 0.07339953502054743
0.062086179192871786 -0.10156330384847961 0.07353020381732996
0.06196116809417701 -0.10060875401882223 0.0736061570035291
0.061812067924402185 -0.09963949490564437 0.07366975858086064
0.06166891764149639 -0.09867309162875473 0.07375538567976464
0.061565305470796486 -0.09770657430094934 0.07389026516532395
0.061485639560787106 -0.0966838599443858 0.07413057760150095
0.06139466923280231 -0.09583408434193103 0.07315066675999356
0.06137679751735336 -0.09488985456759796 0.07339293929594663
0.06135515920647292 -0.09398726027975564 0.07328088926337106
0.061363762958658474 -0.09334336334170121 0.07363973870175493
0.06135981001365847 -0.0926975615384427 0.0739996581532722
0.06123720143283825 -0.09145289503269437 0.07292591713474009
0.06129806754581668 -0.09179008182242501 0.07388720112419286
0.061206147049253284 -0.09092501524014644 0.07328849787287664
0.06105575642152431 -0.08993587226476393 0.0731470777589326
0.06089548224927464 -0.0888956121587048 0.07343678257961954
0.06067425788966799 -0.08780813972148564 0.0736362598905474
0.060530626393627794 -0.08693892907201313 0.07332203855739604
0.06044734717444525 -0.08649243203493162 0.07277778035993375
0.06046812079508878 -0.08634457043359957 0.07344700816572021
0.0604663662715164 -0.08593395268474147 0.07371504965427642
0.06182116080843561 -0.1468408060397952 0.07440497092559598
0.06187099479140543 -0.1465470841287437 0.0746243347722356
0.061735849817945894 -0.1467414535714119 0.07504786149618983
0.061942405168865754 -0.14615875036394296 0.07507038219020129
0.062287571743896285 -0.14519009490758167 0.07513593511537696
0.0627341991247424 -0.14412699583284602 0.07507720912995211
0.06320298945135576 -0.14299903377798212 0.07501454729144738
0.06360583394868886 -0.14189135092082414 0.07498092758531844
0.06392981234373342 -0.1407969431148435 0.07493277035842538
0.06421195597823667 -0.13970861695156248 0.07486317757258527
0.06445848246574101 -0.13860456110568808 0.07477286674791717
0.06466196398037989 -0.13750773861251592 0.07463081339452403
0.06480294134887951 -0.1366661609181626 0.0743182356823062
0.06468014936043676 -0.13704183498155267 0.07489666775843447
0.06477327585636393 -0.1362641293472981 0.0746273331990507
0.06481028719323051 -0.13533119669894214 0.07459159973419255
0.06481373455499559 -0.13438972545268343 0.07460359695052131
0.06479096453870933 -0.13353386524239313 0.074724224057209
0.06470992221114466 -0.1327770560124427 0.07492715123110978
0.0646882406361013 -0.13188566099358504 0.07414143592797912
0.06450288154618 -0.1311993697350047 0.07438702577660401
0.06427664288259667 -0.13053519495142493 0.07468878794888337
0.06415281300503523 -0.12972984741429663 0.07395722703196468
0.06386645258364065 -0.1289735454525968 0.07414751544920668
0.06371029708216915 -0.12826768304145225 0.07388825696687995
0.06365387159585147 -0.1284664671275504 0.07458832646830175
0.06359048281061973 -0.12773713532065706 0.07401256742734436
0.06348653735253751 -0.12694971646039918 0.07407599800997051
0.06340175600050107 -0.1260362530663607 0.07413024941103372
0.06332992619398203 -0.125088176923605 0.07416971206738071
0.06325899471825291 -0.124126532193259 0.07419345552316896
0.06324474511462115 -0.12336437022036627 0.07405191381087457
0.06315295572955096 -0.12379722112881589 0.07459634902146844
0.06314222864795942 -0.12317188871586118 0.07451668587348438
0.06327688777625526 -0.12262312744708759 0.07372060700661283
0.06315176211475201 -0.12218143233730382 0.07421862551012155
0.06307582323543355 -0.12119976539793172 0.07422569542498375
0.06297904076913287 -0.12026861917717836 0.07423766822246891
0.0628499038898464 -0.1193381010213454 0.07426003111397898
0.0626633896581132 -0.11833894324823986 0.07429489019090962
0.062509563697055 -0.1174852196470022 0.07392410300206491
0.06248724194577297 -0.11771829953676498 0.07471655893829793
0.06236739163222747 -0.1169569734589448 0.07403766076073771
0.06219017182506162 -0.11622118247046583 0.07407861999005944
0.06200814516592028 -0.11538729915388284 0.0741439339587962
0.06184851955866644 -0.11450930481308863 0.07422074746415337
0.061725480162824586 -0.11360205131360805 0.07430410258958459
0.06164384355529214 -0.11267779260413631 0.07439403332588963
0.06160306438177065 -0.11173434175082932 0.07449791428526105
0.061590018725611324 -0.11079383711532008 0.07465203878908541
0.06158927225416047 -0.11001838596952528 0.07491548420413577
0.06173842185433247 -0.10882217698752797 0.0738334972948853
0.06163920873078634 -0.10898382251963827 0.07485172454892776
0.061767892117095456 -0.1082278576970643 0.07419108214753752
0.06189376864985659 -0.10733723387957758 0.07423441278081322
0.062027732531454924 -0.10645035084369493 0.07434608826372864
0.062073016221104484 -0.10592822699050213 0.074777341633376
0.0622851035114463 -0.10494526887640426 0.07390617993695656
0.06219790572238677 -0.1051220860498906 0.07479082671838391
0.062295432911266845 -0.10440217626085438 0.07428494375065856
0.06229102265558064 -0.10348686017271472 0.07416466295937808
0.06222002064670019 -0.10246611244826025 0.07440783726684361
0.062122535390706286 -0.10151143346412897 0.07452656263596406
0.0620028656743901 -0.10056094460399334 0.07459783024759753
0.06186215276788435 -0.09960736582317829 0.07466656648197227
0.061724861306375 -0.09864889968563535 0.07475871401829684
0.061613760364153385 -0.09773208760428292 0.07490554361957803
0.061542455797135014 -0.0970034571709628 0.07513466276592042
0.061425513732818654 -0.09572962351103224 0.07397989348960014
0.06146823336220768 -0.09606282540613388 0.07494182932645448
0.061413970694375604 -0.09520808538232205 0.07433869720890862
0.06139386413292192 -0.09430030547934486 0.0742539233144948
0.06139673678417112 -0.09340063532509721 0.07461397749353775
0.06136799496938426 -0.09255522032176776 0.07482089314306437
0.061310276036318986 -0.09163847867380809 0.07498245937249795
0.0612009104251975 -0.09080350859709257 0.07413532093808946
0.061056395077532084 -0.08982149899672742 0.07430761189556441
0.060885036444896665 -0.08882038039464744 0.07453781854879171
0.06070759266858959 -0.08787103549991841 0.07481717299152672
0.0605692769594756 -0.08701656463654867 0.07411306686109673
0.060513853604440164 -0.08631143038780786 0.0743913936486479
0.0605132429724102 -0.08591808032608342 0.07471195198343866
0.06175368841067667 -0.14657054980057754 0.07566508648080299
0.061942806837611504 -0.14602338128407658 0.07586147356264132
0.06227519151144055 -0.145116224489599 0.07598243399122874
0.06271396745567824 -0.1441003941080914 0.0760220174712233
0.06316551569782326 -0.14302121597003287 0.07601532114024827
0.06355846222039652 -0.14194781551239752 0.07597805418727434
0.06387460803964687 -0.14085535108478392 0.07592629767093394
0.0641479466273407 -0.13974017222888607 0.07586356891832378
0.06437354816176147 -0.13860243514216156 0.0757939483011335
0.0645527695275714 -0.13765537369222688 0.07539817115522178
0.06441991388404027 -0.13798735008588647 0.07616178237228528
0.06458711343942938 -0.13711175968099043 0.07552276079480459
0.06463375546980708 -0.13632368791773852 0.07555215064294847
0.06467174542644763 -0.13541112909548975 0.07556757602556996
0.06468261447217782 -0.1345304233971512 0.0756314713082354
0.06469328066192477 -0.1336910045670037 0.07575160800072991
0.064637515187508 -0.13290219119917174 0.07592798822441178
0.06458362912692785 -0.13205468913627227 0.07514675501073143
0.06441480255824562 -0.13134191318506516 0.0754090620561288
0.06418085121721498 -0.13061872784434544 0.07572669880894255
0.06401432719547717 -0.12982420954918272 0.07497267442756583
0.0637673026010762 -0.12915427805917437 0.07516738570023083
0.06360572867813198 -0.12862984614442577 0.07530448014128616
0.0634939380894309 -0.12785685457341245 0.07496083112038363
0.06336798361257671 -0.12693541866031685 0.07500044870956567
0.06326329577164223 -0.12603202019183601 0.07509942810474962
0.06315873840117724 -0.125070186107287 0.07513616392860763
0.06311968633648929 -0.12432992767407548 0.0749364348983315
0.06304893846612934 -0.12464625795968796 0.07546183997174419
0.06304098768131051 -0.12395028231754282 0.07527205554240184
0.06301323316442967 -0.12307632735669824 0.07523475239032747
0.0629804789317863 -0.12215798109311131 0.07519065669810292
0.06292539333842746 -0.12123467836713632 0.07520206855166132
0.06284803531150399 -0.1203194409228958 0.07523793916768413
0.06274053388356747 -0.11941685426403498 0.07531071646023368
0.06260080709303462 -0.11858681255897302 0.07547672096613645
0.062443054934024446 -0.11782224580982366 0.07568574945669307
0.06231316234987342 -0.1170182355104776 0.07489228489378286
0.0621312608548423 -0.11623160114712915 0.07500106620347223
0.0619589449017967 -0.11538346380053377 0.07509206625131892
0.06181442691875192 -0.11449699620136924 0.07517725143495473
0.061705899820170634 -0.11357850612021882 0.07526066973156235
0.06163042076616122 -0.11263860733947445 0.07534912416725852
0.061584975367399146 -0.111688787509234 0.07545161387495108
0.06155947673146268 -0.11077414643542208 0.07558273773841
0.061553684540250675 -0.10988325093786945 0.07569915157910889
0.061564440566713716 -0.10913204836635036 0.07588973857242319
0.06172750904890643 -0.1080134895654875 0.0748214732764575
0.061630829384209454 -0.10820960824259747 0.0757365071980374
0.0617630006008891 -0.10745545160931583 0.07519138448464989
0.06190263283813075 -0.10661903764750279 0.07520524537896366
0.06202116187112489 -0.10571433714575001 0.075585280393707
0.062136100339140625 -0.10487015782552551 0.07584053344369204
0.06225459282252577 -0.10420812470620944 0.07509827512400505
0.06226431680648438 -0.10329662269934133 0.07527165127356039
0.06223024641333478 -0.1023653895595265 0.0754203118140733
0.062149304331757124 -0.10144221104517279 0.07550783257535978
0.06203966803498185 -0.10051352936390207 0.07557520760249588
0.06189965284419359 -0.0995725208057203 0.07565105118888396
0.06177170204667813 -0.0986364725359313 0.07574171757634782
0.06164186370348004 -0.0977421631430997 0.07585371435991546
0.061549273274214694 -0.09684679123931796 0.07592107410484757
0.06147771268529849 -0.09591140667461082 0.07600876735623505
0.06142389963878267 -0.09509917864663295 0.07517249354842853
0.06141233133528995 -0.09418611894947383 0.07536459358101663
0.06139879557403254 -0.09329852506480071 0.0756003406719944
0.06136526511339165 -0.09241030457442004 0.07581006579155003
0.06128957874585692 -0.09149010099631866 0.0760196025838193
0.06118531791724672 -0.0906880292456602 0.07518479658050618
0.061036751978866974 -0.08971712165675302 0.07539732979067229
0.06083038946151577 -0.08875198891416858 0.07562906374927525
0.06067660320658436 -0.08782894183624165 0.07587523340189412
0.06057071237474001 -0.08700944713425635 0.07511238033392638
0.060536723750359116 -0.0863104787159622 0.07535947035647425
0.0605389942830465 -0.08598104271202528 0.07548032021878157
0.061799755823262005 -0.14639124608441353 0.07619972676341512
0.062003168814336526 -0.14581661266958615 0.07661463362861748
0.062285600122678524 -0.14505536574344735 0.07690137299125858
0.06271076459102462 -0.14411402434588608 0.07698408328048524
0.0631416470544107 -0.14307338521078264 0.07699153490105122
0.06352015479232137 -0.1420012683246147 0.07696499551954533
0.06381939814889175 -0.14090679282012022 0.07692847267953888
0.06406804722311987 -0.13981118003989532 0.07688798584739943
0.0642460705934161 -0.13887751396166548 0.07685844312975801
