# .PCD v.7 - Point Cloud Data file format
VERSION .7
FIELDS x y z
SIZE 4 4 4
TYPE f f f
COUNT 1 1 1
WIDTH 784
HEIGHT 1
VIEWPOINT 0 0 0 1 0 0 0
POINTS 784
DATA ascii
0.061697575081955135 -0.11608347564530214 0.0469663504269793
0.06147733919332275 -0.11512746801057785 0.04684340581106073
0.061209602416604024 -0.11416492329962466 0.04674909626095346
0.06091057324043466 -0.1132195742008652 0.046660684755629483
0.0606363171706588 -0.11233697564729393 0.04664448193549914
0.060324561639309146 -0.11123332649708177 0.04666687472051957
0.060005476673457014 -0.11029368021571263 0.04645320883913009
0.05988481910315937 -0.10979510851812627 0.04647536336468713
0.06001452083989491 -0.11002057599913295 0.04669441510880431
0.059977650256194226 -0.1095336308068629 0.046910151357869405
0.05983673489051562 -0.10867936963855652 0.04706636591614544
0.059582422022698533 -0.10775341604387845 0.04704148629250963
0.05935467045632546 -0.10684746704803971 0.04701945921347637
0.05926271135537546 -0.1061874112268294 0.047120157629736016
0.0641264023285213 -0.12947356360761123 0.049342611386732065
0.06400144048683586 -0.12876391056770842 0.049253387425529066
0.06346406597823012 -0.12790305186243267 0.04864856348247349
0.06356137774681601 -0.12719450141757488 0.04878489770148177
0.06345273198099168 -0.1264115209349465 0.04870812233363213
0.062937629128966 -0.12574777477750798 0.048205768226579314
0.062815248484205 -0.12494325602162921 0.048132822022873126
0.06320477141964813 -0.12421332616736058 0.04855833792633534
0.06315196225712276 -0.12344324177469387 0.04860980831083082
0.06252660340557564 -0.12278427007329396 0.04808668008440948
0.06231660560862079 -0.12197512546810509 0.04795081685922644
0.06243427291749668 -0.12128387679841122 0.04811009544649759
0.062485638096121975 -0.12047312538531485 0.04816098160892309
0.06254686354614698 -0.11964052202348827 0.04820526898135356
0.06259295567704617 -0.11877762125996952 0.04820696223854758
0.06255419593771039 -0.1178781093257784 0.04816555759170443
0.06245990685287298 -0.11693879345656302 0.04804141640574223
0.062276785579680256 -0.11598125356828062 0.04790012488005819
0.06194675006788725 -0.11502875222179007 0.04776792447142396
0.061612667027481485 -0.11405866207794171 0.04763592903704677
0.0612085144860951 -0.11305201207242385 0.04753968921069713
0.0607757911433572 -0.11202335735328557 0.047205982255187275
0.06057627766154618 -0.1113702807252918 0.047171492062852226
0.06095078846626004 -0.11187643563938512 0.04773543403551565
0.06079687991749359 -0.11125816099691321 0.04773224865713016
0.06027716790654549 -0.1106762911567487 0.04690544326617358
0.06047441355392468 -0.11029945108267332 0.04750454690027071
0.06028999121199788 -0.10937564720992063 0.04759280091545189
0.06004054286459396 -0.10844338575674514 0.04757675416853345
0.0597614836752352 -0.10749092977426186 0.04752453192907637
0.059520523747418244 -0.1065755756567106 0.04751956414429071
0.059463431420748246 -0.10576428066453694 0.04768970310817396
0.05947923019736197 -0.10487487137186113 0.04799287072341424
0.059506928826092036 -0.10427136545538693 0.048190956335426915
0.06458685844493106 -0.1299566433819772 0.049784080017320494
0.0645327487843596 -0.12940896809560845 0.04979058340547042
0.06469027554918652 -0.12866042567185035 0.05002936256078583
0.06409164012876467 -0.12800863564298606 0.049366230498473274
0.06439669280121434 -0.12736652678934268 0.04970495800099916
0.06382963488086274 -0.12588036310697637 0.04906545749855769
0.0644414239090744 -0.1264924525428315 0.04970666052019296
0.06451417801586184 -0.12564270454365645 0.0496966742376304
0.0639047624905397 -0.1250262608489824 0.04911921937179554
0.06402899826600696 -0.12429294727744554 0.049291154335989976
0.06343924861871356 -0.1229237386320654 0.048966848504601736
0.06409872925276724 -0.12355236476765603 0.04949180823337274
0.06403539375577005 -0.12271143321342906 0.04955325852151946
0.06331196102178248 -0.12204903254076052 0.04893139721925075
0.06316345156335335 -0.12111122949569013 0.048853132496021426
0.06328429739936482 -0.12040399004815441 0.049015556483228605
0.06333163208318791 -0.11957331139925333 0.049068014909956
0.06333423217374362 -0.11871961892454493 0.04911049598660436
0.06327407329924294 -0.1178165744007551 0.049089590747867194
0.0631304954320538 -0.11687916891960007 0.048994665341237725
0.06284719871752564 -0.11594353568506673 0.048861052520388006
0.06250047870791746 -0.1150041711805889 0.048724444997290915
0.062116797467810854 -0.11408466453965262 0.04864202584752668
0.06174427762448636 -0.11334500786947703 0.048460963658691444
0.062199932115956875 -0.11381509449456065 0.049103652317481865
0.06194805245799258 -0.11320107325902878 0.04899753957813316
0.06131257818172919 -0.11260198718083705 0.04806329034069487
0.06150217223983078 -0.11221343406734251 0.048647023043545005
0.06125480750574703 -0.11123303755414554 0.0486066434297308
0.061004207653553064 -0.11026837428288043 0.04854283561848196
0.06076831466509064 -0.10930781197974822 0.04851144297820298
0.06047928581172974 -0.10834279057421897 0.048452031645592204
0.06020148790341752 -0.10737178943671177 0.04839171926077889
0.05996969325983903 -0.10642215650419114 0.04837424535951045
0.05984564466176903 -0.10549776426362856 0.04843685437860533
0.05977984809527096 -0.10463694943974189 0.04854794836277034
0.05978829776707191 -0.10391609210383042 0.04873639297070181
0.05988024889772778 -0.10329675759236841 0.0490369486718359
0.06578744995043216 -0.13111766687832455 0.05104786862885541
0.06519201573946967 -0.13052282714918884 0.05042798509241468
0.06515877887278881 -0.12998938379447217 0.05046405643722811
0.06531443856510213 -0.12927096421829726 0.050711534166374334
0.06555432217155155 -0.1284920406812416 0.051016311921374964
0.06492339426295153 -0.12790049643099813 0.05031910157414224
0.06519033524702146 -0.12715255518776614 0.05051553030209419
0.06552606473404285 -0.12648849297025824 0.0507564838145262
0.06489410898322796 -0.12509362982078748 0.05006709464850857
0.06545008849201812 -0.12570670691125074 0.050616001636730544
0.06569863130627968 -0.12482172369064906 0.05084433526160583
0.06481812553281995 -0.12433476213778849 0.05004021317078705
0.06511285934510423 -0.12360417672740834 0.05040908194091694
0.06429023044931599 -0.12217210257912797 0.049869450845749994
0.06499393334059039 -0.1227925896982417 0.05045099256125001
0.06483636464807142 -0.12196661080222708 0.0504926983605641
0.06411447705762793 -0.12126561189593936 0.04986135074041126
0.06393563401305606 -0.12029019900769279 0.04976991898619756
0.06405654228342297 -0.11958585438786869 0.04999263928671597
0.06404841249181176 -0.1187104227420637 0.050076939686223294
0.06394906579814491 -0.11779876644737972 0.050046396548095486
0.06370253379743429 -0.1168674730796156 0.04994823936407235
0.06335298881851115 -0.11593365211896393 0.04979053074481475
0.06299230654525921 -0.1150356245918221 0.049661985993285876
0.06260159524599984 -0.11434551606778717 0.04946135161114251
0.06307487151492398 -0.11474606159235062 0.05005278764307051
0.06268960234460484 -0.11406102762527918 0.04988271157885078
0.06235409423768657 -0.11315699801739922 0.04980120830216352
0.06205164259277683 -0.11219246338269176 0.04968251333238832
0.06179431441263235 -0.11121398395693909 0.04960959579170077
0.0615492921032995 -0.11023629314775957 0.04955885536836993
0.06130661639682737 -0.10924520638470839 0.04950262727608412
0.06104978080609159 -0.10825792803309384 0.049438684050431086
0.0607737824761694 -0.10727994884956064 0.0493503818286458
0.060547864922401225 -0.10633931615245573 0.04932612167338207
0.06037600950274955 -0.1054069818115576 0.04931658341202473
0.06026879842421804 -0.10451159142366305 0.049355612396605984
0.060186450567197305 -0.10366001450579981 0.04942851435025232
0.06011570010804788 -0.10290258749518719 0.04961249675804189
0.06009247001063441 -0.10225874267401577 0.04994447539995688
0.06707310645410747 -0.13232575601210797 0.052089537190919875
0.06641937303619362 -0.13172618927945606 0.05158397385765408
0.06642963209648492 -0.13117141473047086 0.0517022046236204
0.06578854753546669 -0.13057854863477852 0.051110609626502795
0.06599009950352423 -0.12986096584783074 0.05140742672987595
0.06626105166117556 -0.1290825721568476 0.051732168229494856
0.06650493089676396 -0.1283042437867683 0.052013655867030835
0.06582377660464922 -0.1277137336954286 0.05127347051525374
0.06611026703395577 -0.1269584792111889 0.05145840729542474
0.0663257690875979 -0.1261880645051341 0.05159221054301137
0.06659624341349173 -0.12531864837165815 0.05177576525712194
0.06650350787604817 -0.12456354483782568 0.051619218155043396
0.0659004491498728 -0.12400763118305233 0.05108938658574831
0.06571132268951123 -0.12333077153983242 0.05103241816598452
0.06591014646402793 -0.12285714991337736 0.05137596524335314
0.0650222699585342 -0.12144672328620817 0.050831274773945646
0.06567420407144725 -0.12212635757584372 0.05133589301915796
0.0657170605140414 -0.12128782245053812 0.05161478518283522
0.06478311350127941 -0.12057234031858656 0.05073073367699367
0.06482179258696727 -0.11961744099823411 0.05097018120490354
0.06472490322062112 -0.11873272358667691 0.05104502311967216
0.06453220031138249 -0.11783027325706014 0.051028657998454886
0.06426239373313314 -0.11688500855913478 0.05097559769622039
0.06378232115315749 -0.11589923129755701 0.0505848710393852
0.06350292433164967 -0.11528791003172696 0.05044223175663341
0.06396227895791619 -0.11576364903875615 0.051093676731374396
0.06356542253935432 -0.11502642534152671 0.05089017204828117
0.06320507328322757 -0.11410847248238261 0.05085869416606304
0.06285275635991008 -0.11314526855637515 0.05074402442572654
0.06254225893870913 -0.11216646164704593 0.05064949618471043
0.06226860371088735 -0.11117991418431203 0.05059680830999096
0.06201104813850258 -0.11016679121391648 0.05055757311496335
0.06179215237961379 -0.10912782443806308 0.05049601260994077
0.061527350870698196 -0.10811718659138217 0.05037967481972313
0.06129371070211405 -0.10718005541053373 0.050266506717509145
0.06109435473328392 -0.10627653764842744 0.05023904374890161
0.06095921843382483 -0.10535647092202446 0.050228544821331836
0.06081022718688843 -0.10442766135206585 0.050240311987139866
0.060597102243870944 -0.10350015650663655 0.05025369048111751
0.06039546701566887 -0.10261683012362448 0.05031556520108241
0.060296338071522654 -0.1018795437655149 0.05054201808679007
0.06026466861379775 -0.1012457981592443 0.050869621303037106
0.06867539511414808 -0.13553331606934635 0.05293576875032781
0.06803691884591365 -0.13418962422906974 0.05262575274279444
0.06770046016103892 -0.13371803116244116 0.05235956697065013
0.06763806154154682 -0.13305189089947161 0.05245842361092851
0.06771202609526225 -0.13233687996116228 0.05273405244947475
0.06707025683786319 -0.13175800826720396 0.05224426288872018
0.06736667638746432 -0.13102016069411204 0.05264407215217047
0.0667004211816958 -0.13043602491383452 0.05205829601076689
0.06696302111987353 -0.1296773370634031 0.05241507827046894
0.06718827728020223 -0.12891624209344207 0.052729259704850144
0.067416793717567 -0.12815867967752687 0.052972646557302244
0.06674499576328266 -0.12753357722981892 0.05223881854348909
0.06699980145986387 -0.1267680890820796 0.052408608495272305
0.06726544209010708 -0.12602062848471857 0.05255584716180288
0.0675015423753035 -0.12540690134864543 0.052772113705317966
0.0667820958591649 -0.12409101367993496 0.05195716506911606
0.06732800424702362 -0.12469051858256296 0.05254544656773625
0.06743036007657775 -0.12392141245312316 0.052720096203234576
0.0665648504461294 -0.12341890673821175 0.051867316963103226
0.06661320644226194 -0.1226629717018959 0.052148027438917166
0.06655558608508054 -0.12193599028291405 0.05235774721842932
0.0664773013662063 -0.12121159655025507 0.052556328184642856
0.06564100734517757 -0.1204699652553882 0.051788887987421144
0.06554475383675576 -0.11964560260302615 0.051947370830266355
0.06536593589617122 -0.11879796370491441 0.05202051573525245
0.06513395534031595 -0.11793783763881825 0.05202700551314698
0.06483158152432025 -0.11722726981272577 0.051877653656662796
0.06523604793103477 -0.1176895761816235 0.0524557779639441
0.06495568987107987 -0.11709565773814545 0.05237150188259335
0.06437480100218397 -0.1165021082975424 0.05150502200458936
0.06440320471107894 -0.11609918920649213 0.051989562828741266
0.06398332836348147 -0.11510307500081939 0.051912348378587436
0.06360031217632295 -0.11411694329704809 0.051815771163599325
0.06323805615574805 -0.11311550035650866 0.05168008076638916
0.06294231115864307 -0.11212828244621877 0.05157675564147527
0.06274242158581789 -0.11114384095698518 0.05163005641542021
0.062446174314488886 -0.11001490499730342 0.051495585026848985
0.062244619798553814 -0.10889302259115267 0.05151754203018416
0.06187216134066588 -0.10788526093547501 0.05110500788193725
0.061760493878596286 -0.10711446804787578 0.051140269075897034
0.06160834160695457 -0.10621391730744947 0.05109997802482523
0.06146809020686766 -0.10530169606734463 0.05113777383684119
0.061289295753021375 -0.10433887878466919 0.0511441663564387
0.061046701134583714 -0.10338063655354222 0.051128470347904235
0.06079158546379468 -0.10246965225553716 0.05114954309904299
0.06059117827851272 -0.10162203436787656 0.05125053775423026
0.06038315844840065 -0.10084900678235253 0.05144786209947753
0.060157981810344555 -0.09998112090014608 0.05171860573984603
0.05999028489366331 -0.09933866126023613 0.05187157365019267
0.05940145182452787 -0.09719182060106787 0.052260411629475964
0.06951912179465801 -0.13808395400280168 0.05346664892937287
0.06914673298620828 -0.1367751965068896 0.053232415038407754
0.06904014548302563 -0.13611303336535802 0.05322798681440625
0.06904245452194648 -0.13544667177322328 0.05337874891094107
0.06856552091888612 -0.1348723950535341 0.052990059724480634
0.06862977368354926 -0.13418154705382476 0.05322813831200393
0.068068273494275 -0.13363189133041817 0.052780461202845345
0.06834105326278221 -0.13289089903773774 0.05319985559783803
0.06865271048567263 -0.13214414371161032 0.05366206539351983
0.06803724520365008 -0.13158926718388228 0.05316749568416901
0.06833132193138369 -0.1308508976008188 0.053605202379696494
0.06764566871643424 -0.13026965955118464 0.05304445321156449
0.06789262734017713 -0.12953372992209886 0.05338090224411184
0.06809109008667304 -0.12880201142710368 0.05366765960336604
0.06827700424056114 -0.12807084029338248 0.05390150759875333
0.0676550234159454 -0.1274044544050522 0.053179032466649234
0.06788620949949725 -0.1266550134332808 0.05333697599570525
0.06806070852731567 -0.12594049646575597 0.05346527664323499
0.06812350573377288 -0.12522939325128285 0.0535064426433651
0.06813187909925171 -0.12450586773996607 0.053530382745087826
0.06815344664996893 -0.12380936371382625 0.05364550746389286
0.06741706716192719 -0.1232194064483821 0.05286709915875524
0.06735335459451358 -0.12253661540859694 0.05308051287369053
0.06724843403272424 -0.12187645966213086 0.05327305570173562
0.06713718318209241 -0.12126899896391802 0.05347161133908072
0.06638678365696213 -0.12050479943917114 0.05277057848769831
0.06618409180559977 -0.11974068102620607 0.05293119032092849
0.06590813089238655 -0.11890833992263179 0.052981052847969244
0.06558557375785198 -0.11821776440351335 0.052793728537117536
0.0659342902647819 -0.11861867920570206 0.05335759141890751
0.06557717944535246 -0.1179390351548691 0.05317241197186233
0.0651517722711014 -0.1170683632176683 0.05310990395382442
0.06471874375582072 -0.11611512069864859 0.05298505004805423
0.06432682444205336 -0.1151230719586273 0.05287370918752578
0.06397868733054254 -0.1140941485247634 0.05277844902571563
0.06354700312065023 -0.11300718548492747 0.052483626416415324
0.06329147182467619 -0.11213100118424106 0.052372011984865845
0.06323654567928275 -0.11156153954287616 0.052488778637756445
0.06356710782516556 -0.11212998701719906 0.052981836381761085
0.06347628305472232 -0.1115765043163142 0.05314268939325487
0.06302793775679924 -0.11082997587079849 0.05239831646810841
0.06330781239285363 -0.11074788493338268 0.053223508764244934
0.06283525133857923 -0.10989145109114849 0.05240029523653936
0.06317779082990632 -0.10976735696621279 0.0533261781792131
0.06272200506387311 -0.10908702028530771 0.052471164639740366
0.06241464536277608 -0.1080440941117181 0.05213456087286829
0.062120875969964566 -0.10697384306980659 0.051836089655067336
0.06205111431928439 -0.10620036877747953 0.051992839345338424
0.06192083559257586 -0.10522232972198742 0.052084923590170036
0.061696674885699514 -0.10421527798177879 0.052054961957414825
0.06143535055184941 -0.10326989776918052 0.05199434289915461
0.06118645726324703 -0.10237040126345087 0.052004103097740395
0.06091187983643009 -0.10146948464942088 0.05204220500124074
0.060607349245118 -0.10056985461517827 0.05211437478527371
0.060305340148709724 -0.09969031108460738 0.05220156112007227
0.060044738494066725 -0.09884860920876615 0.052361164473118435
0.059697480773319836 -0.09773246628570215 0.052492981697269854
0.05953857655348799 -0.0971655823059906 0.05262540975304981
0.06967427410879728 -0.1409666212236233 0.05351671535661165
0.06975890645355995 -0.1402376087029155 0.05364589819874823
0.06969785291397618 -0.13951080856922302 0.05355795842717599
0.06974976103780454 -0.1387665555342292 0.05365330881760587
0.06983614151700893 -0.1380372398390415 0.05385512921016074
0.06949194878452951 -0.1374002316058476 0.05353740984298929
0.06952879643554782 -0.136682816054404 0.0536929845893132
0.06961835839984104 -0.13595705429910507 0.05390615062658418
0.06988747441841608 -0.1352861873824328 0.05422901736730744
0.06928029182749433 -0.13474462571104873 0.05375426021865771
0.06959702809438055 -0.13400041973895757 0.05423261372749947
0.06893467060329647 -0.13343995055171437 0.05367124509387553
0.06930123467125257 -0.13268811566827626 0.05415080759638633
0.0696175748966907 -0.1319639496905991 0.05463331557510621
0.0689580020293678 -0.13141736632905787 0.05412891967660214
0.06920286451200942 -0.13072773668759327 0.0545447087082647
0.06855975665627825 -0.13013809699302772 0.054002585022991885
0.06870969904783461 -0.12943624970047726 0.05432939813571397
0.06888519017067377 -0.12874424790043323 0.05456824635290118
0.06906221400045931 -0.1280551190197893 0.05478108041250363
0.06848525048112811 -0.12734642086047232 0.05408431741115875
0.06866277606773784 -0.12661424966488077 0.054240501381629974
0.06877406899013079 -0.1258765109780645 0.054331989531500105
0.06883825492441518 -0.1251356852003749 0.05437018805602242
0.06882658436638586 -0.12442680290058211 0.054420162611909705
0.06878296516922718 -0.1238025892639644 0.05454202169447277
0.06811901695196435 -0.12315710042184647 0.053836123289561395
0.06800256572834663 -0.12250871484003195 0.054002844230666064
0.06778405499740976 -0.12189382559968036 0.05408222012606744
0.06760836357798386 -0.12145206894976171 0.05420834054004416
0.067062812652063 -0.1207190361655712 0.05388489216040042
0.06663161006817803 -0.1198491061278864 0.05392805174091909
0.06625952793381056 -0.11916628023212593 0.05375367426137176
0.06659634633408286 -0.11955268645104955 0.05430768783464472
0.06623168565646699 -0.11885911796274828 0.05409491389657783
0.0658327556941327 -0.11801366360311831 0.05406158364480021
0.06542131912200617 -0.11711729583704696 0.0540127415490167
0.06501124642953438 -0.11614061481024973 0.053968516534819516
0.06457588437931558 -0.11510931377302568 0.053662614307222314
0.06441867862540436 -0.11448335076719962 0.053628595463121355
0.06477303797913207 -0.1150444880758731 0.0541889970323335
0.06462564148427459 -0.11446533027906779 0.05420486798638936
0.06413016319963104 -0.11374738239997767 0.05338019326512687
0.06434504332257167 -0.11361511235569649 0.054089365855037035
0.06380374535257592 -0.11285528016039155 0.05317471669823265
0.06398207208449286 -0.11255421318554479 0.05384798102025619
0.06378598155345314 -0.11163719221087735 0.05396477519684847
0.06361408047184015 -0.1107712288947983 0.05405517302185348
0.06351061201220032 -0.11004898160958745 0.054217774906333185
0.06288731248105214 -0.10881975980080087 0.05298808139861582
0.06324354863691034 -0.10899026448411948 0.0539510371252702
0.06282536988974263 -0.10821020972330334 0.05309830649839277
0.06256381778364417 -0.10723994550123359 0.0527791003799992
0.06245448389252745 -0.10615599513761444 0.052958312350304855
0.0623254473265833 -0.10503504509070977 0.053138799857603364
0.06198507183718674 -0.10399420197199509 0.05279042677638499
0.06180424151900922 -0.10320453247516544 0.052852648812482785
0.06155290350199645 -0.10229599714145578 0.052854159388811224
0.06125983763937843 -0.10137418341191515 0.052889975450229484
0.0609584112040519 -0.10044206682864461 0.052927783849210784
0.06062269147178734 -0.09949333590207364 0.05295838801899207
0.06025940308806877 -0.09852605607353343 0.05302409818533811
0.05993576232320413 -0.09761885186070034 0.05312692244449299
0.0597406236551115 -0.09690499154115792 0.05338600491392971
0.059672528300985836 -0.09628657992721552 0.053756419203580465
0.06946815951076447 -0.14243117554516546 0.05381361781016163
0.06960144147429399 -0.14171425675749927 0.053743850507293627
0.06982903180719625 -0.14090933559330138 0.05380842052122644
0.06999701939642505 -0.1403061531216547 0.05406013555947606
0.06997628744112613 -0.13954165228661783 0.0540270102044642
0.07011716269864302 -0.13866598515844558 0.05424986165760196
0.07023152851585922 -0.13806580635767113 0.05450265945791486
0.07009236989748806 -0.1373529904506943 0.0543430328753243
0.07020739084878856 -0.13647198781948044 0.054562787192313764
0.07038214134859744 -0.13575935304758335 0.05473473844259331
0.07060182422145175 -0.13525676860031227 0.05497744694464382
0.07037638050890554 -0.13463912876939596 0.054861222458151546
0.07064813079019092 -0.13382582043355196 0.055259232939245354
0.06994324225479098 -0.13324756191849502 0.05467978478225445
0.0702752632810115 -0.13253026361315445 0.05513476051560358
0.07054464247363991 -0.13184647623691137 0.0555735239819123
0.06983925420566965 -0.13129192993222166 0.05506614210643671
0.07000223997560995 -0.13063454020581927 0.05548669680234023
0.0693627727607605 -0.13005080918924936 0.054924610674723304
0.06949324584056717 -0.12937988739471093 0.05522519015478914
0.06961530794678247 -0.12872061078989339 0.05544545199890042
0.06977397005027805 -0.12809022157094774 0.05563543921809324
0.06925422837447608 -0.1273602888488641 0.0549888679190841
0.06941406116496598 -0.1266227101575916 0.05514235400533616
0.0694996004981242 -0.12584524780525422 0.055198400365223575
0.06947832316207418 -0.12508533310362868 0.05523248057292702
0.06933793847830018 -0.1244099053374389 0.05522357270771386
0.06922126221928751 -0.12391557175071742 0.05525596130787973
0.06877938395079912 -0.1232506929258347 0.05489175182078526
0.06845053491686479 -0.12246802470769574 0.05489447186709378
0.06804421721963577 -0.12187911510699907 0.05465309893527051
0.06836819693591395 -0.12210752797694199 0.05516679998192811
0.06791748365757576 -0.12152096880338757 0.05492510283178126
0.06740244782464352 -0.12071828460523673 0.05487425444815799
0.06696971854290927 -0.12006944664186182 0.05467479544576772
0.06729809696424434 -0.1203948898532549 0.05519987277428808
0.06691266902316916 -0.11975760124874843 0.05501269102934592
0.06652912093950225 -0.11894055698912462 0.05498111853426448
0.06611222503112286 -0.11809295278482178 0.0549536041655158
0.0657053501410332 -0.11722263389811323 0.05494029209709251
0.06538254138064394 -0.11649808839878702 0.05479491035870137
0.06572678580262908 -0.1169692647842823 0.055335920237439114
0.06550995592636358 -0.11638080760271402 0.055277720145279666
0.06506337880421567 -0.11576889864622776 0.05448317667411612
0.06515894552011219 -0.1154270877338865 0.055018089231782724
0.06489713711410763 -0.11449720791111745 0.05499781764199543
0.0646113465376682 -0.11354542330355963 0.05489854496727286
0.06435916778359856 -0.1125806701032105 0.05481882339018086
0.06411129140157107 -0.11167130830713295 0.054836616713178556
0.06388728391880055 -0.11079900903727691 0.05488086279351417
0.0636837135565747 -0.10991447499643163 0.05488340307944559
0.06354190854756657 -0.10912187289601939 0.05492629732904881
0.0629771691343552 -0.10793833230944955 0.0536412178662285
0.06325698979604295 -0.1081058711804646 0.05457791504336465
0.06289057270722606 -0.10709636796281767 0.053781973557513324
0.06312219408206175 -0.10698913795373056 0.054732401826776876
0.06277982364553326 -0.10608532969873126 0.05395386144109821
0.06300011737138435 -0.10591429134816513 0.05494173291502136
0.06269159913218778 -0.1052465884614474 0.05412427450445871
0.06237035711908361 -0.10417188969580125 0.053848253759544475
0.062026821968222214 -0.10307067566466273 0.05358901175576365
0.06184940816204447 -0.10226010676957904 0.053752685636211564
0.06157253974841089 -0.10126530459587121 0.053763015351643434
0.061256410305319156 -0.100307619773713 0.05375951128626977
0.06093205590425226 -0.09935935072493537 0.053805811567863356
0.06059463846633739 -0.09840925149918411 0.05386100311934155
0.060252084651880755 -0.09749900372738647 0.053943519604558975
0.059955699088591455 -0.09664488571751292 0.0540843620828199
0.05973883101912846 -0.09585611742566644 0.05430962064986421
0.05950904312722793 -0.09496117632465981 0.054589953535787855
0.05932796581420574 -0.09427011904565127 0.0547396329666036
0.06939689285278354 -0.14278888866456196 0.05393358995465651
0.06930508923336182 -0.14307380796453914 0.05415829552423354
0.06943818984301384 -0.1425381686233165 0.054207304368766224
0.06976409781955577 -0.14149219996868587 0.0542224886217385
0.07002544488330958 -0.14077233942822065 0.05430818401573402
0.06994581613343698 -0.1410735334338539 0.05474611785144264
0.07014623678472266 -0.14022653015029948 0.05475173538050414
0.0703771626924559 -0.13920966506806984 0.05490489605554799
0.07043456175652153 -0.13848781882857178 0.05484929159927243
0.07061274952982535 -0.13867513469028014 0.05533901378598082
0.0705981548403231 -0.13795993367906506 0.05522960541680258
0.07074477438107944 -0.13702818437090517 0.055339396611054206
0.0709276816592785 -0.13615947493640446 0.055480145219552704
0.07094242087852455 -0.1355738099842717 0.05534903084917307
0.07128097166808331 -0.1357085518085104 0.055859725567015295
0.07121288215934318 -0.13514417961269756 0.05572549192453709
0.07132382662427929 -0.13438652348227728 0.05590033622055359
0.07155191954806919 -0.1337127545574381 0.05621506379115499
0.07093668495136798 -0.13311800431758786 0.055705507946202576
0.07121603534818653 -0.1324357739486632 0.05611969469654082
0.0713934484154108 -0.13175478853318418 0.05651915516054056
0.07070095378562177 -0.13119105837241588 0.05600216720936843
0.07081993844408925 -0.13055490145222448 0.05639084765138132
0.07014534976104655 -0.12997845475164452 0.05584439238880577
0.07022412860043319 -0.1293145037639196 0.056131655604246156
0.07029795585784118 -0.1286879253212768 0.056229823341224075
0.07037481833872217 -0.1281884369737776 0.056293538963388914
0.07009903643049753 -0.12747637206676185 0.05597255164244332
0.07015400425569257 -0.12662099572534907 0.056020542892237846
0.07013696202523119 -0.12582596061837706 0.056073972293671434
0.06997992028250569 -0.12501606629330772 0.056103515027358726
0.06963496150124553 -0.12433458658677947 0.05577463796818099
0.07003726601650558 -0.12453362323341863 0.05643660169139723
0.06948957120415762 -0.12387266463403974 0.05584151382999005
0.06921744753874272 -0.1232065598612614 0.055883223126724633
0.06877092530647322 -0.12254136463942036 0.05560478761035589
0.06918381945004728 -0.12281492852574928 0.0562975620132632
0.06858984225091881 -0.12216129443092918 0.05575998614000436
0.06820571831540621 -0.12154717913375063 0.055856754678083806
0.06770055678027707 -0.12087306528873484 0.05560239667409583
0.0681168471280888 -0.12117386774121115 0.05628012470713159
0.06753899428731214 -0.12047814463838176 0.05577906546947976
0.0672196617327138 -0.11983271963438952 0.05586338000442424
0.06683733214144437 -0.11902359867976611 0.05586618369122581
0.06643116262365012 -0.11819519258829678 0.05586176289363751
0.06606959429501039 -0.11751025398446575 0.05567696951576573
0.06638459209441532 -0.11789995434791958 0.05622361295936063
0.06606790271934652 -0.1172103944522692 0.056036053113902466
0.06575926313902312 -0.11635371288706917 0.05599847547538233
0.06548029685518808 -0.11544014773419038 0.055926995581272745
0.06522886659113471 -0.11450097710134519 0.055853510067399616
0.06496766534465809 -0.11355008676356457 0.05578011662669032
0.06468638888566361 -0.11260640237239042 0.055724058704191844
0.06440488325617295 -0.11168778461985313 0.05571884525177299
0.06412896377712868 -0.11075491360753444 0.055704173039898094
0.06386931464196356 -0.10980924683838944 0.05570737109703387
0.06361393446981166 -0.10880936687291956 0.055581841066213486
0.06337847179428095 -0.10781072265171601 0.055496598903289125
0.06323600269983026 -0.10685907520591985 0.05561790661388498
0.06314852942049828 -0.1060932029682602 0.05581175184574739
0.06279647655014688 -0.10496051071189041 0.05468624799791979
0.06299680347810316 -0.10508758352692608 0.055638349534296305
0.06269812625954364 -0.10433616849064971 0.05484078593766275
0.06238144288000752 -0.10333591299280606 0.05455777828342424
0.062129056702153296 -0.1021255327966964 0.05477448785374483
0.06175169530602584 -0.10105091405478475 0.05448075060450899
0.06152263703558076 -0.10022032793980193 0.05464668980530952
0.061179585095326026 -0.09922477803001864 0.054691333510248255
0.060842440606466 -0.09827872646890834 0.05470075282208522
0.06049812148388107 -0.09738011728511761 0.054775699021942806
0.06018824172618669 -0.09647022291825409 0.05486239928506424
0.059854045422999234 -0.09554976690643022 0.05497101565178646
0.05955035972871717 -0.09463656971458112 0.055092629400577374
0.05934485742541945 -0.09378311200151092 0.05533755417894727
0.06837156759042075 -0.14489208478214727 0.05529952652736525
0.06869591443996548 -0.14447563599612248 0.05490135899259468
0.06866043986934929 -0.14430554711737006 0.0551766081563862
0.06907340272068199 -0.14357691664600314 0.05466262301792224
0.06896678265828944 -0.14358659019668807 0.05517771385795755
0.06925860468105838 -0.1428616417043306 0.05497301386073533
0.06905079050492174 -0.14312355317567124 0.05553575124275582
0.06936533983018331 -0.14229094905355705 0.055586625646313295
0.06960091395768846 -0.1418891026322711 0.054867925313856696
0.06989269267020481 -0.14106189217893986 0.055572961893151605
0.07035169745411851 -0.13986511349960462 0.05556140899291334
0.07058024434920565 -0.13915657038299895 0.05560709738302171
0.07049691924839868 -0.1394671403118977 0.05611375477619285
0.07072079294897338 -0.13866547870024928 0.05605507952137033
0.07097453948638308 -0.13767435808331685 0.05612012574097276
0.07128837346791884 -0.13677043630309008 0.05622508508887058
0.07139432340498417 -0.13611015283060957 0.05616678113579636
0.07164528646834735 -0.13634262699983354 0.0566359840866986
0.07168715846317301 -0.1357096390145966 0.05655057978530046
0.0718488100750072 -0.13492072387625823 0.05663555417906986
0.07200007424925216 -0.13425010944108337 0.0567357109385501
0.07214153811293061 -0.13376982180228145 0.05692368038799748
0.07191976993846098 -0.1331279266175347 0.056765617121967975
0.07204350968912661 -0.1323451194532046 0.05709903637107141
0.07211015483783469 -0.13167461724349486 0.05743646705495496
0.0714931929235962 -0.13111588200072705 0.056901672027758116
0.0715564621475444 -0.1304961715724426 0.0572970902623005
0.07089420412611343 -0.12990602901739548 0.05675104145501045
0.07097248806893476 -0.12919057008426826 0.0570168088405937
0.07076058504690111 -0.12856572780468875 0.05677302137621698
0.07130176665836116 -0.1286391729732054 0.05742477802205156
0.07083373399856005 -0.12805359914125117 0.056836658430058744
0.07083250683246539 -0.1273538882107564 0.05685077013044676
0.07079981648798944 -0.1266019597652006 0.05689573243960852
0.07070363633234245 -0.1258428509819095 0.056959400096429864
0.07059924543278492 -0.1251853727727333 0.05699858173320588
0.070541798653522 -0.12474975155950271 0.05708828426118478
0.0700862024207105 -0.12409996216176054 0.056783782698576785
0.06982474874577967 -0.12347802400747962 0.056854090349613175
0.06963391450711172 -0.12307394443501526 0.056980574212653255
0.06909632595978667 -0.12243863685682875 0.05670165561289328
0.06873400815785825 -0.12185327258755876 0.0568191540063982
0.06850712957315162 -0.12144314711490888 0.05695928334076584
0.06800624985235944 -0.12074565617765586 0.05668647582996602
0.06758730675956488 -0.11993313887579102 0.056775360789679534
0.0671472341032702 -0.11908311519485636 0.05677074704074114
0.0667056477135566 -0.11841312318200707 0.05657394739928572
0.06703310130064853 -0.11871607491586489 0.05706394794840124
0.06666399413371789 -0.11805903467567366 0.05687956847746657
0.06637384174446138 -0.11723545487745402 0.056865349009720255
0.06610305324883865 -0.11637685864398063 0.056848107530488884
0.06584562987799121 -0.11546691706461844 0.0568069537054717
0.0655734237773238 -0.11452735047936677 0.05674839174976326
0.06531376591752187 -0.11356947783229453 0.05667665332179142
0.06502391604241531 -0.11261730054956298 0.056602740097002016
0.06470999131542857 -0.11167077938355247 0.056571072041151214
0.06437008773588566 -0.11070223702408306 0.056578965475411636
0.06402605384258311 -0.10956503176279615 0.056664290380304044
0.06365590729676983 -0.10847455775049036 0.056207932700255474
0.06348561917972494 -0.1076322221229917 0.05632930981990962
0.06332254333769888 -0.10671055159633464 0.056407395967294764
0.06322011826645758 -0.10587098629255579 0.056440197434739464
0.06313958277735214 -0.10515832117251823 0.05655730768877817
0.06277180293681678 -0.10405424122493964 0.05540370704431304
0.06293765533763634 -0.10421554910081988 0.056327789446203924
0.062579952813613 -0.10320364362883114 0.05557600192462654
0.06273778881690867 -0.10304358295175699 0.05656753298453711
0.062418393973314466 -0.10235562549019357 0.05575319461400672
0.062053634201236024 -0.10129949857006285 0.05546425313611833
0.061731414015979764 -0.10005022986650225 0.05571009981533029
0.061326375658082695 -0.09898424786378507 0.055433691753810126
0.061064837912751656 -0.09817581179556133 0.055551856914782594
0.06072600496761044 -0.09725820685511426 0.0556045831885531
0.0604023759524603 -0.09633189160038078 0.05568198054317563
0.060047480302530376 -0.0953864633018922 0.05577355022118986
0.05970639190497175 -0.09441624911093827 0.05591249975884404
0.05938777160534851 -0.09340265020301873 0.056185327488220596
0.05919890194836765 -0.0930517042990204 0.055701770619168894
0.06807097136149211 -0.14508987087850572 0.05574494412540873
0.06787223383122874 -0.14484821990080932 0.056334471380072984
0.0682745870109764 -0.14466446138912425 0.055740341402833245
0.06829660221335346 -0.14409049206091626 0.056337515986921716
0.06869768635440185 -0.14383106384248495 0.055702969767367064
0.06888534863128526 -0.1429875886285439 0.05622571731332166
0.06940912445082134 -0.14185618143366147 0.0562891554683228
0.0698302662994359 -0.1410698440121332 0.056412268716705266
0.06951873537448143 -0.14146435217345502 0.0568664653952887
0.06994659949593743 -0.1406817794473304 0.05697862829598486
0.07021016356410494 -0.1402622327658043 0.05629024880941098
0.07044502270282045 -0.1395103785592193 0.05694845917242043
0.0709272518402328 -0.13834856182233374 0.056871207920929555
0.07134747350245216 -0.13743117921459586 0.056857863876571935
0.07163953791335552 -0.1367990237407794 0.05689641001991864
0.0716223861577257 -0.13715626406104944 0.057371964139838943
0.0718459468945885 -0.13642127665446457 0.057318708609982574
0.07213344615819639 -0.13554725650528207 0.05740229344220904
0.07235753052969522 -0.13473235697719416 0.05745311198184703
0.07242060596018207 -0.13414126100430832 0.05728858792457396
0.07265704248615601 -0.1343206343028984 0.057777042990220094
0.07259867381523327 -0.13372632159795084 0.057625196674229696
0.07264130364640638 -0.1329475234194764 0.057759643994536605
0.07268147114202866 -0.13223880532235954 0.05799537085936397
0.07275407952362205 -0.1316222474624841 0.05828234721474695
0.07221136648726702 -0.13105722146544455 0.057794788181224084
0.07229503525782281 -0.13046719948692526 0.05814907505175617
0.07163675116154254 -0.12987556699021927 0.05764386642370952
0.07179112243525054 -0.1292658871426855 0.05797016570100379
0.07196779969677683 -0.12866117083238945 0.05821180100147297
0.07143890351510826 -0.12802083779370393 0.05758614709697285
0.07144541546739225 -0.12732723749481223 0.05768644979450155
0.07140106539817484 -0.12660275773333435 0.05777037995308758
0.07130178106080273 -0.12583762930484887 0.05785035922004194
0.07098306683938196 -0.12518892521438194 0.0575675598285268
0.07140121571871433 -0.1254016688068974 0.05820040850141207
0.07088042241914115 -0.1247646319445298 0.057662833395816494
0.07061156073787164 -0.12413056474313083 0.057731640305930775
0.07011072415719415 -0.1235105127545869 0.05745646770727366
0.07053150459344078 -0.12370856613590815 0.05811729396526729
0.06986693545504516 -0.12308542583668672 0.057558386967331655
0.06948893597973184 -0.12248682671295408 0.05765734261396482
0.06893700585738154 -0.12188559769537124 0.05742569586866865
0.06934614226250993 -0.12207390011978594 0.05808754832091959
0.06869424501713725 -0.12143051050139023 0.05752394702378568
0.0683447506156636 -0.12077218337761113 0.05760049304907272
0.06792953543192962 -0.11997208781982764 0.05775365663541147
0.06744715870312984 -0.11921458901821043 0.05748076636174868
0.06784578494042758 -0.11946697783809954 0.05819434477418335
0.06727441743369514 -0.11874819841900272 0.05761867919505762
0.06700883428237334 -0.11806621037750181 0.05768001522526838
0.06673159735498689 -0.11726693519963671 0.05771620044167564
0.06646074878433608 -0.11641540518975861 0.057739577586306025
0.06623845647185111 -0.11549824820332386 0.05769988428355739
0.06599686615434955 -0.11454311526239 0.057623086555259315
0.0657220811423582 -0.11357985103331567 0.05753972327719223
0.06539870818255059 -0.11262479095793407 0.057482996928609593
0.06500393841271476 -0.11167019688729744 0.057462082436816886
0.06458962678636128 -0.11073543482809457 0.05750943252582967
0.06431334290924523 -0.11001685682218139 0.05748430511888216
0.06453583273330465 -0.11045155676249924 0.0579191649493075
0.06436610601237136 -0.10985838269540579 0.05801443180449213
0.06410175420525563 -0.10942342113999651 0.05737418336278202
0.06382798120923763 -0.10857117174330808 0.057064269966188276
0.0636087278074138 -0.10739331705776821 0.057260606202872204
0.06338215346303366 -0.10644179985927887 0.0570464803469104
0.06330346372884887 -0.10572789911359266 0.05717349419785205
0.06317253495374678 -0.10489373534377214 0.05718824969996655
0.0630537014999951 -0.10401275164502467 0.05726709110075412
0.06293825118774934 -0.10324695550131423 0.057456632158302254
0.0624490079418807 -0.10202607657921495 0.05631482381287504
0.06267135257537443 -0.10224460702540311 0.05726267707089142
0.0622360627628159 -0.10116288411408784 0.05650899808550764
0.0623765880442975 -0.10103853735518795 0.057561057195742456
0.06202312822197625 -0.1002788685047369 0.056725491764093
0.061607781236005105 -0.09912690175962832 0.05650229543403006
0.0611747914065144 -0.0979941463420126 0.05630534151816012
0.060922672834187626 -0.09717831310595873 0.056460172448655935
0.06055287961206104 -0.09622544717283676 0.05652557762962617
0.060188203589653155 -0.09529450706710141 0.056651317611401034
0.05984596291587756 -0.09434874213812859 0.05681294126255226
0.05960036611724439 -0.09359101883456257 0.05705201681759851
0.059182652875267264 -0.0926684310807565 0.0562211277363149
0.0593199000070496 -0.09273698064155243 0.05694752633520663
0.05916459558034302 -0.09228199952441485 0.056676252941274284
0.06691816987325346 -0.14523508749270148 0.057417718642886605
0.06734393859640418 -0.14503707659226428 0.05699905012125317
0.06719606150834091 -0.14481420842923756 0.05748092413471793
0.06776633879494985 -0.1444285102761121 0.05695756690807139
0.06778376400318484 -0.14387820603274545 0.05760692235025411
0.06839044703977955 -0.14338637278104793 0.05701518290319095
0.0684881703494213 -0.14269003473381656 0.05776940082839334
0.06901430971463024 -0.14229193203839283 0.05698355066421927
0.06933337131464822 -0.14143800206502546 0.05758120685832435
0.06996432004150165 -0.14034530309863832 0.05766028118340056
0.07032048408069971 -0.13959822818581705 0.0577938190070919
0.06999105690740548 -0.14007710185597408 0.05820423776640154
0.07039049979841484 -0.13937158891589552 0.05831624026762834
0.07071980121357758 -0.13885209459434864 0.05764538890661657
0.0709724701343638 -0.138431729736341 0.05828508692096016
0.07124400878779405 -0.13792602279954067 0.05753523555303679
0.07161298239139884 -0.13731218263201525 0.05810132108682354
0.07214874300024328 -0.1362726825565956 0.058138333202284384
0.07250924253543894 -0.13538457311462307 0.058195327554756426
0.07269216769491404 -0.13474494381055693 0.05808884745435599
0.07275261473942307 -0.1349920700364706 0.058568770202815756
0.0728759470347353 -0.13436337325971193 0.05845066603227856
0.07300920669790183 -0.13356729819326543 0.05851381085990372
0.0731257958522618 -0.13282568114523263 0.0586273461211534
0.07322181209829544 -0.1321639056757581 0.0587907887345727
0.07336306642900756 -0.13161465074011713 0.0590374149696724
0.07289086274314793 -0.13105642219720573 0.058627035734190626
0.07305271275856874 -0.1304822540192874 0.05896263319790549
0.07242155410220272 -0.12988084990456544 0.05847223922394372
0.07254373617023005 -0.12928432795982017 0.05875422271306978
0.0725890505593981 -0.12866117990308235 0.059003023677147506
0.07203383047390742 -0.1280128372470033 0.05839786211319363
0.07201545424047762 -0.12732082289246952 0.05852912431549228
0.07196662847419875 -0.12662357725458404 0.058624466564778134
0.07187035080478486 -0.1260162187918951 0.05871630703871653
0.07179153308483763 -0.12559715065681248 0.0588156978835562
0.07140511349513778 -0.1249850102254757 0.05855363509686897
0.07116418360521234 -0.12437094640532599 0.058702151226369445
0.07096153509336005 -0.12389937634362155 0.05893121271383712
0.07030563277944271 -0.12324088584846374 0.05837530489103783
0.07005920297220179 -0.12274402646703146 0.058643970217298384
0.06978969937938252 -0.12222305196167414 0.0589230516350981
0.06908091335132871 -0.12152939068342437 0.05831569776262158
0.06877880311281515 -0.1208947441683774 0.05852889477185799
0.06850649731579274 -0.12025367436782862 0.05880420757681667
0.0682706008134584 -0.11960050862070061 0.05904967190356404
0.06762435090859108 -0.11884294437819884 0.05840019310926493
0.0673591726239946 -0.1181089588672166 0.05852270682079562
0.06710494100663937 -0.11729730186831501 0.058580266129419745
0.06687004681386252 -0.11644024483576496 0.0586039937146733
0.06665996602272836 -0.11552164327985903 0.05857290009822095
0.06642941117809016 -0.11456556519848594 0.0585071248213914
0.06613456741102687 -0.11360063177624648 0.05843845945015633
0.06573444406163892 -0.11262906098461659 0.05841597640287588
0.06525322042666792 -0.11164494665940922 0.058340940860221326
0.06481024863573599 -0.11094771194034034 0.05814902378984415
0.06511284475471335 -0.1112229378663907 0.05858244435593056
0.06477558234264548 -0.11061772594253483 0.05847669508126223
0.06458964352605223 -0.11006800942218889 0.05865392186234894
0.0640822966300182 -0.10910259917915409 0.057771117704547494
0.06430454180063645 -0.10927137869345309 0.05856426539813002
0.06393904934432788 -0.10835634517067629 0.05793650431750793
0.06409805446434706 -0.10823687894060276 0.05888716189470319
0.06381305595558301 -0.10755576183527585 0.058140507386184724
0.06356476062098237 -0.10652680169923766 0.057975654352336196
0.06335334239856293 -0.1055021573753545 0.05781133551757811
0.063266499732644 -0.10476288123944999 0.05796045526450863
0.06316416850590383 -0.10392162825430289 0.05805664498402697
0.06301077604769155 -0.10305686714268335 0.05814556450996919
0.06280331346160925 -0.10210756772615114 0.058255585919412246
0.06261507944864468 -0.10130355910982093 0.05848596215897276
0.062030437761283704 -0.09998742099804382 0.05733703952825488
0.0622469267675826 -0.10018944246616385 0.0583529563720958
0.06183523831515904 -0.09931723459867438 0.057555540054280444
0.0614272344595231 -0.09816840108642118 0.05736516112830267
0.06099067298389581 -0.09700117015489906 0.0572044153503363
0.060663202126949894 -0.0961728248020444 0.05738564708306661
0.060263893761300355 -0.09523918887023003 0.057516908214967015
0.05993377943190348 -0.09434223486223572 0.05769039789032249
0.05963575159864046 -0.09341026849323612 0.05779445304530224
0.05938781771097634 -0.09256324416594837 0.05793486662165429
0.05922233383551855 -0.09217446528747923 0.05733618537852072
0.06666582349258109 -0.14510258473548693 0.057971878983646016
0.06715731132601821 -0.14437417757898963 0.05810407266612139
0.0678069332067317 -0.14341967808422518 0.05825240658965155
0.06825626301119582 -0.14264545741507417 0.058430786094614356
0.06783134494879506 -0.14307375527351854 0.05876248652022213
0.06826770229745853 -0.1423261471708065 0.05892029513056388
0.06879758981423297 -0.1418689139193458 0.058338254150299196
0.06896941228176467 -0.14132643894913346 0.05894850083474326
0.06945808363440545 -0.14087348701043484 0.05827979790124142
0.06977165793221426 -0.14021120696060915 0.05886027540092651
0.07052077882541918 -0.13911880963460338 0.058978168556021164
0.07117263679257749 -0.13802722126804257 0.05905744128387735
0.07189678071447764 -0.13695176479538082 0.058880614833093
0.07238573294744131 -0.13606243228900397 0.05882671122234519
0.07262245809543728 -0.13544835262415533 0.0588436129442677
0.07252638737944518 -0.13582819442502028 0.059294822184109953
0.07280049058833586 -0.1351078523583092 0.05922193691305155
0.07313266443836118 -0.13425554430882047 0.059274944271468386
0.07338394940118961 -0.13344804643714728 0.05932776274709511
0.07358070359902964 -0.13272179493491248 0.0593795945807971
0.073717293823027 -0.13211435671721591 0.05945675595639347
0.07380713312252442 -0.13170639676602727 0.059622615611507244
0.07362530987561322 -0.13115383533028194 0.05950533881254019
0.07366787546208267 -0.13048692313512605 0.059780696837286276
0.07312557167930336 -0.12988340941231302 0.05925634493664283
0.0731439413116716 -0.12928430285169978 0.05954158629885114
0.07312414723163752 -0.1286579376440534 0.05978130192080425
0.07257762088350647 -0.12800749708211137 0.05919635528326785
0.07255247446620007 -0.12732743041872763 0.05933802973550472
0.07244852399988326 -0.12661404317325375 0.059485727536448436
0.0721379484514133 -0.1259915664839712 0.059259677922273386
0.07248329999995025 -0.12613878617236077 0.05985194402281548
0.07201508086365957 -0.12556513460832125 0.05933458291641103
0.07178429817182426 -0.12501579791452583 0.059405972731171444
0.07152301170891102 -0.12446209487240145 0.05947593289875427
0.0713053447473589 -0.12405599827601073 0.05956449619089773
0.07082000254687029 -0.12347353107587014 0.05933616840708216
0.07047617010107081 -0.12285492078584254 0.05950601199419535
0.07019703023565325 -0.12232057928700395 0.059729963209945884
0.06952762000255591 -0.12165253452043379 0.059195628871419465
0.06925664147767384 -0.12102324968114017 0.05945491219146076
0.0689541975487177 -0.12034352070625992 0.05968829758878658
0.06867844542019962 -0.11964303102372269 0.05987906659758657
0.06801469025675326 -0.11889591315597957 0.059225005371569446
0.06776543897913012 -0.11813032340089949 0.05934868657124065
0.06752648704610852 -0.11730908847925353 0.059413091247214764
0.06728197051987096 -0.11645608572780539 0.059451589310607095
0.06706354734621858 -0.11554214787309586 0.05944425924046747
0.06682991625596019 -0.11459453812784043 0.05940227509729446
0.06653583059945899 -0.11362851101710612 0.05936589112999879
0.0661105105218906 -0.11257022639543038 0.05944410259769337
0.06550760952094888 -0.11170607497020649 0.0589811937559957
0.0657619096495483 -0.11186539071066541 0.059537873830816164
