# .PCD v.7 - Point Cloud Data file format
VERSION .7
FIELDS x y z
SIZE 4 4 4
TYPE f f f
COUNT 1 1 1
WIDTH 790
HEIGHT 1
VIEWPOINT 0 0 0 1 0 0 0
POINTS 790
DATA ascii
0.08005726952109106 -0.1307153243442801 0.061687230748602474
0.0800913662313145 -0.13027358084591345 0.06154970018211628
0.08003030897579401 -0.12970176337918476 0.06156923968813424
0.07993622145276122 -0.12919560413870737 0.06162630854338349
0.07984306105815446 -0.12881162673679059 0.06172373490698802
0.07962187700311094 -0.128263364346539 0.06156138608706985
0.07945407313665298 -0.1276361007240846 0.061690536856972976
0.07933049121704111 -0.12712707015918615 0.06179623894568608
0.07893135363061939 -0.12663966230478557 0.06141202689659199
0.07868500640351178 -0.12617091502740074 0.06151040496256996
0.07837310933903013 -0.12568387509002651 0.061653888604997986
0.07803127019785883 -0.12521572398655617 0.06179342980292285
0.07741385272496155 -0.12473781596462424 0.06142099135171313
0.07705361267905045 -0.12424645643057121 0.061592615495989544
0.07666157267225614 -0.12374334418286317 0.061775992311163354
0.07599414099590648 -0.12321434974707579 0.06139904771184553
0.07556560497047458 -0.12263992748761247 0.06158336544668651
0.07514918518738016 -0.12201088906657669 0.061707046874211684
0.07476090977514505 -0.12138085670245252 0.06181352811065877
0.074434512136263 -0.12077299919275128 0.0619568320738553
0.07380108071998098 -0.12006484633376606 0.06153247215468265
0.0734414226979088 -0.11931032536980331 0.061672007173954345
0.07303382112460269 -0.11848368842981269 0.06173821236328315
0.07266038920370059 -0.11763555325687844 0.06175529789106944
0.0723172862230157 -0.11675854496444615 0.06174937129976054
0.07194968847463144 -0.11590003940499244 0.06176682342531215
0.07158923011611373 -0.11504312410746781 0.061829122446173314
0.07120571734990847 -0.11421993361228334 0.061969363087692464
0.07092647943285312 -0.11355096138004375 0.06219829540135329
0.06954088608727471 -0.11203103433854855 0.06174053865870363
0.07031012000057489 -0.11264995082395018 0.06221270144520252
0.06971359439416441 -0.11180168867977304 0.06220871638258829
0.0689575297706625 -0.11121992206417848 0.06172620052195724
0.0684739222695412 -0.1103744231248121 0.061722458357622766
0.06836930168508001 -0.10973120113829159 0.061936136587711355
0.0681323194117347 -0.10906628325868606 0.06190472557907458
0.06783751412084268 -0.108533893055537 0.061606758850917646
0.0682277706487073 -0.10866525642644784 0.0621708537846738
0.06791738843926676 -0.10763989150884046 0.06208161743114122
0.06750942324731608 -0.10660241026879559 0.06198845793346479
0.06701408855424616 -0.10560359600883377 0.06192255667140047
0.06650497479086327 -0.10459998463877737 0.06187664528946632
0.06594601523139067 -0.1036184411488696 0.06186877580674434
0.06541388688606188 -0.10264229412630255 0.06189375632063173
0.06491169938155657 -0.10168560084943022 0.06194967427020459
0.06447620750097612 -0.10077975810265967 0.06204400888454742
0.06403326445120253 -0.09988129927737097 0.06211352351538579
0.06363462551588525 -0.09896290135418859 0.062202626006318464
0.06296565538494533 -0.09802204766334893 0.06146105254905527
0.06259386672694436 -0.09705249531206607 0.06164061458672865
0.06224581632187923 -0.0961027223622528 0.06189403699652672
0.06204340283781833 -0.0951888188825769 0.062158339413306445
0.061359203615478614 -0.09408809169129147 0.061483865650695434
0.061269407044076775 -0.09330080377106355 0.06168623591558528
0.06123969747072338 -0.09257569009638998 0.06197608533565362
0.061249462419598215 -0.09199335491677467 0.062307079422440965
0.06721662788540837 -0.14385383962319326 0.0617389398971614
0.06782204230180257 -0.14326395915827186 0.06198688568532874
0.06884649815910895 -0.1423501644399583 0.06208975422653456
0.06988712702715678 -0.1413590273757229 0.062121002557183426
0.07080090104667673 -0.1403836725169253 0.06216320689622951
0.0715395941037552 -0.13959920870192946 0.06206408189036729
0.07113556925645556 -0.140042783406761 0.06248024656167389
0.07182625474756986 -0.13924108298014767 0.06239202831646624
0.07260498163022476 -0.13828529639128218 0.062419763363368255
0.07357956375503147 -0.13730944988022664 0.062369719705615
0.07458056730545752 -0.13629344060269913 0.062310321949393795
0.07559758458494127 -0.1352995489137262 0.06223587919175868
0.0766739126789993 -0.13438955111583217 0.06213717794282002
0.07761327574011187 -0.13352608101742308 0.06207143420709646
0.07833652707253753 -0.132741022975256 0.06202781008984274
0.07896969475541905 -0.1320617584734903 0.061997534689880854
0.07948647462449432 -0.13146245972508913 0.061984716242482564
0.0798453022414774 -0.1310212396078585 0.06190477613901029
0.07956510072623406 -0.13122246184747854 0.06220489662700863
0.07982611907710928 -0.13079262063233 0.06209802624075104
0.07995222231417923 -0.13020470760450284 0.06206857190570068
0.08001254236290538 -0.12961630693258425 0.0620434077828686
0.0799784163745906 -0.12914458545535215 0.06194936861767856
0.07996275050075047 -0.12931006825899444 0.06220166164692181
0.07985511712257493 -0.12882449250732778 0.062106296401302254
0.07970710752044893 -0.12819733719627163 0.0621075940945328
0.0795772350828499 -0.1276395027874427 0.0621715988774237
0.0794144249752147 -0.12719631506786738 0.06225178374291738
0.07912696570725117 -0.1266734586106375 0.06191307367538345
0.07884067964945189 -0.12618793942254425 0.06205101707408517
0.0785147547774987 -0.12568469747988326 0.0621508303217895
0.07816849949881315 -0.12524112786859742 0.06228391871819739
0.0776588628840427 -0.12475999386241944 0.061964365942582804
0.07725695515199214 -0.12426223273058581 0.062131967431428285
0.07683201359807386 -0.12377752598542092 0.06231120686423789
0.07624141230825174 -0.12321782134980842 0.06197900249013955
0.07578476551172532 -0.12261308784563847 0.06214962126727612
0.07531452278168087 -0.12198367216112628 0.062247036775781056
0.07493440420908831 -0.12138091719294343 0.062323061436994814
0.07465492615649304 -0.12091843070234243 0.0624190662129246
0.0741507708013124 -0.12019713042115795 0.06224168583024662
0.07368326506592192 -0.11927807399957688 0.06230211168522877
0.07326379177698798 -0.11841166808856611 0.06231828663393174
0.07286898543764628 -0.11754034131067743 0.062335187238595255
0.07250757174157413 -0.11664380512494588 0.06232134265436092
0.07214245889276912 -0.11576935771902044 0.062345166721585916
0.07179292474520403 -0.11491745040685779 0.062438011409283546
0.07144008593738026 -0.1141319166822873 0.06259018951838499
0.07107882107859058 -0.11335636593478013 0.062731737268074
0.07077075720495808 -0.11268074453531371 0.06291297417442383
0.0694869831111679 -0.11126802437289386 0.06240145966989294
0.07016937895965161 -0.11177568350469329 0.06287821605490386
0.06956588726998719 -0.11093698609220147 0.06276298910430549
0.06898293237340544 -0.1105524786396535 0.06228474344788757
0.06882756777560065 -0.10993287834408033 0.06244704496023574
0.06851551787012228 -0.10940169873975214 0.06228651747873802
0.06899320201916606 -0.10961012848186642 0.06281225047243544
0.06868301796630229 -0.10860835586234752 0.0628679251748
0.0683116817886781 -0.10760485000789818 0.06284171633754476
0.06787587056857564 -0.10659291492299129 0.06278413121057173
0.06734830107228972 -0.10559594778569453 0.06272750708943944
0.06678266322832623 -0.10460899179257832 0.06269895339373023
0.06619863479502872 -0.10363048570120063 0.06269601834118049
0.06563328082565857 -0.1026553496120475 0.06272578695583958
0.06511176818472034 -0.10170970332898588 0.06278837643448273
0.06466209335415427 -0.1007696015366997 0.06286077028053337
0.06423570060539861 -0.09985244235386662 0.06294879916250266
0.06390822553611054 -0.0989912735564968 0.0630718379851504
0.06332660754910761 -0.0980639713412375 0.062372771750105326
0.06306971448326446 -0.09723013114422593 0.06263216014305072
0.06280766725282265 -0.09635052975878576 0.06290831779793991
0.0625922601088465 -0.09539056803086532 0.06312249842333363
0.06188819785024105 -0.09426168636767449 0.06237797906464401
0.06169773555299842 -0.09332172945781923 0.06257351104283042
0.06150890782778248 -0.09236563041350254 0.06280312509481241
0.06134461940260884 -0.09183674945648322 0.06266788806442289
0.06739684139292221 -0.1437217087375701 0.06253877180383663
0.06804246729793528 -0.1431429288992182 0.06275384318154469
0.06908777977635885 -0.1422001510057853 0.06277953720729121
0.06995537921301483 -0.14130855762548394 0.06273544067750927
0.07058560922575542 -0.1406524960168215 0.06272622988893903
0.07006803812485453 -0.1411830020829271 0.06317097931574334
0.07083550878693358 -0.14032150739099125 0.06308421769625615
0.07165007756673487 -0.139294687848842 0.06310159759949982
0.07254355641784878 -0.13825479464859394 0.06306185594285842
0.07354402855866085 -0.13716985218550648 0.06297090129829505
0.0745440468698384 -0.13613513625020082 0.06292565923210278
0.0756711920155038 -0.13505801382049293 0.06272053881092833
0.07664420809369485 -0.1341500180069146 0.06261134984271065
0.07754226347741282 -0.13335443289924076 0.06254642101446314
0.07828808657841016 -0.13261210564171563 0.06245537891347519
0.07889277578889224 -0.1319968617709024 0.06239715665595877
0.07924764164918632 -0.13157723340503008 0.06239304992080384
0.07880695596400562 -0.1318949003119832 0.06270334697970306
0.07920250168443882 -0.13138992699233995 0.06262446759722015
0.07952680798674598 -0.13078226801833018 0.06258369902070562
0.07974391539183398 -0.13015949243853484 0.06255061942483825
0.07988989939231385 -0.12966218773035923 0.06239235381660716
0.07968061653433178 -0.12988933535189265 0.06271865493235086
0.07973297104132548 -0.12938590460531896 0.06259342033774007
0.07970041488631124 -0.12876645835898445 0.06258423521003988
0.07961988928254264 -0.1281617718100318 0.06257416129255525
0.07952714345855522 -0.12765938589326062 0.06257514620664213
0.07938225557156957 -0.12733050774819787 0.06263350185082826
0.07913911976621825 -0.12679424505051248 0.06248191059053495
0.0787969252543354 -0.12619010352507873 0.06253596030317266
0.07848478207883434 -0.12569665023863494 0.06257643195885172
0.0782080262669854 -0.1253383068641853 0.06266821527103712
0.07776691260370076 -0.12484464831898853 0.06253332359603232
0.07727247411103046 -0.12428695205487135 0.06259542629593194
0.07692806264497051 -0.12388405821370833 0.06271441265176342
0.07640968353797714 -0.12329505139457184 0.06260578654250293
0.07582746423881162 -0.12256869438776448 0.06268835924211864
0.07534097868452441 -0.12188003150621309 0.06275877719668958
0.07496474197049086 -0.12132385944132257 0.06266904991581375
0.07509344717893428 -0.12153347439084487 0.06294784314446024
0.0746897630892388 -0.12093238529029747 0.0628382908121178
0.07420769108012894 -0.12007345378576856 0.06285810934914084
0.07376595873096807 -0.11920353723382 0.0628740610896712
0.07334644304810496 -0.1183214936507096 0.06288223260037708
0.07294189935815147 -0.11740230334016054 0.06287084090533465
0.07255599836579822 -0.11649571570782373 0.06285577556905073
0.0722085602561005 -0.11561045885822531 0.06290965759011144
0.07185961667517207 -0.11474363588363597 0.06304235614205049
0.07152559904630326 -0.11391683301067428 0.0631731037019595
0.07120937999675786 -0.11316218855864849 0.06330066423933914
0.07085310241170367 -0.11240754820962646 0.06344029816980418
0.07052420415030149 -0.11166557959446724 0.06356168049150576
0.06924907243103015 -0.11035477077722988 0.06276679551358753
0.0698826607250641 -0.11070077980405003 0.06333002377587386
0.06946027930207455 -0.10954559987941563 0.0635145002661379
0.06908460130970362 -0.108551532475003 0.06358089386244468
0.06867133142228159 -0.10756049649065118 0.06359003533378695
0.06818124807140183 -0.10658507256053602 0.06356145068099044
0.06762444588095275 -0.10562484046787476 0.06353902468076439
0.06702346694407467 -0.10464746471722916 0.0635283041725242
0.06643779294683222 -0.10367822620156723 0.06354237486687152
0.06586384047257812 -0.1026806627461303 0.06357169442639962
0.06533903677629598 -0.10171415747799077 0.06362842441637803
0.06486661527803776 -0.10078001730730815 0.06371230151073895
0.06447390054784055 -0.09988643592525286 0.06381157947361915
0.06415422449958333 -0.09905533928618729 0.06387421736484461
0.06366479380485261 -0.09821999555255903 0.0632707994059926
0.0635559213960772 -0.09753404381607711 0.06370363429964479
0.06326825253094678 -0.09649931480110631 0.06388704156442566
0.06300786311547657 -0.09550854622082257 0.06406788404222317
0.0623847585352914 -0.09441273886834797 0.06331570207575399
0.06217030599097551 -0.0934141168613327 0.06352398616122752
0.06195005950234773 -0.09250184250218102 0.06383709375440728
0.06157003111506806 -0.09192078339610368 0.06330152289631583
0.06689971560405404 -0.144302768686893 0.06419520715833492
0.06737550213456334 -0.14379095517871393 0.063466530563881
0.06737526728519429 -0.14383790320238946 0.06420082218629959
0.06824602924650738 -0.1430250523685568 0.06347543207588209
0.06836896992448571 -0.14283389636121838 0.06414420550615733
0.06925397977261442 -0.14202656506259329 0.06338474845811742
0.0696154428876309 -0.14157068208489906 0.06389635650881324
0.07061427759277769 -0.14040070583019523 0.06387468165860331
0.07148384006271254 -0.13931785297497218 0.06382109510944567
0.07240506505269169 -0.13818373888662008 0.06376297345330656
0.07344114582876195 -0.13710452960570224 0.06351966494926138
0.07404894438711607 -0.13646949257514485 0.06349568396664608
0.07340424688818589 -0.13702696123483663 0.06389139806261265
0.07394626587645393 -0.13639553204684984 0.06388652192977924
0.07479876672385834 -0.13570353395799112 0.06330834566918858
0.07472289349385251 -0.13551561948319282 0.06379603989791811
0.0756686148462877 -0.1348085061119997 0.0631887061250297
0.07560273288550116 -0.1346435996726319 0.06368897735327048
0.07660754035260765 -0.13397028488612078 0.06309639688394363
0.0765428527093968 -0.1337994625449124 0.06355185427998482
0.07749438745396096 -0.13318969137549622 0.06298686351729284
0.07739436418914261 -0.13299676256431428 0.06340642024985076
0.07822522744494392 -0.13244634426465 0.0628573127897558
0.07827816471438571 -0.13214504086462597 0.06317934603240656
0.07880808814284367 -0.13142921551315057 0.0631296399868162
0.07916610635414448 -0.13077763238576043 0.06308946294985951
0.07944177182560572 -0.13025422348111362 0.06296104917603253
0.07910932299593955 -0.13052956712713212 0.06328898668378427
0.07930503551738932 -0.13001745824647742 0.06314772773840693
0.0793807845112866 -0.129374209858089 0.06310728635834112
0.07942853801847567 -0.12872618227513447 0.063033356293073
0.07941118332413453 -0.12811532799113215 0.06298204969644577
0.07939460641575566 -0.127652750460921 0.0628547152871703
0.07923302040080127 -0.1278700713084176 0.06312775489116132
0.07910966462415005 -0.12737328416941793 0.06299567131453081
0.07883216001312969 -0.12672831598495074 0.06296014398525564
0.07855541017931808 -0.126110991404709 0.06295052626147318
0.07835708339629577 -0.12565016006726804 0.06288334107269797
0.0782733749620204 -0.12582389636989244 0.06312745529069347
0.07797691180105835 -0.1253601459228602 0.06303146623901267
0.07746199845068288 -0.1247466138186754 0.06301634686857017
0.0771421042781193 -0.12424426308612804 0.06294219466267631
0.07711892422605165 -0.1244179215250631 0.0632077704294621
0.0767517594510297 -0.12388944670648773 0.06312689972158474
0.07618634056660299 -0.12319007580875381 0.06316368065859403
0.075678181706002 -0.1224986720211531 0.06323359574888009
0.0753355310752579 -0.12193793698547109 0.06315312674113022
0.07539127902863414 -0.12219325530248662 0.06344867657283813
0.07504104461096403 -0.12161726609251425 0.06335430992902392
0.07456449530808962 -0.12085218122179352 0.06338977188041227
0.07414232352215144 -0.12001211156435182 0.06341085638570966
0.07371569927933969 -0.11914974964678231 0.06343874381954528
0.0732621419662782 -0.11822616308736356 0.0635049130560974
0.07283744251843927 -0.11720616651953404 0.06339161062817
0.07246385660188427 -0.1163147465799578 0.06339926291668078
0.07212978117465549 -0.11541272518788256 0.0634897545308059
0.07178903321652719 -0.11443552879402391 0.06368323577102812
0.07150373975790057 -0.11361848066285803 0.06364402442106025
0.07123819632531207 -0.11292785352190324 0.06386742200162158
0.07090738178510649 -0.11211079274906113 0.06401970803451515
0.0705345286458335 -0.11127910561066162 0.06405808059844986
0.07014373962982663 -0.11036027910477116 0.0641280409003934
0.0697646810669993 -0.10940570013822891 0.06423493511120389
0.06937404539959968 -0.1084634744244652 0.06431438408294385
0.0689193287870181 -0.10752060590737551 0.06434272148828649
0.06839459902757201 -0.10659657369940437 0.06435698223648378
0.06782704108236233 -0.10565877160157129 0.0643682544371958
0.06724234465698528 -0.10466766169535506 0.06436091530465626
0.06665580105691159 -0.10368268884583305 0.06437944458096288
0.06609100527250408 -0.1027038036591368 0.06442114267395904
0.06559940593730061 -0.10175367921727702 0.06449535048940737
0.06512809909301404 -0.10080791224238461 0.06459189163713012
0.06471351928875235 -0.09981586840371458 0.06468815523289002
0.06427902880305975 -0.09897017426721333 0.06443395959831462
0.06395366551644029 -0.09843910989141917 0.06397024516537482
0.06412764221924581 -0.09836751719621055 0.06455156406950399
0.06391057407962521 -0.0975155664419246 0.06466410917735203
0.0636419437717391 -0.09655003637121906 0.06481463980745421
0.06339449664535164 -0.09559511921593353 0.06498587364364422
0.06281062339944249 -0.0945374924126475 0.06426595140391796
0.06257300751536331 -0.09356107218631288 0.06452364339846664
0.06231670142076508 -0.09255222552544383 0.064919150021688
0.06183651073504158 -0.0917857202871842 0.06427636855345523
0.06184525840238251 -0.09106739735072643 0.06486208015844816
0.06686255275890263 -0.1443253758031909 0.0647853677887056
0.06739076713983576 -0.1437316286469059 0.0649093689375411
0.06841019319992053 -0.14267861924561834 0.0648453459396855
0.06948660051857067 -0.1415006019067927 0.06472044695107107
0.07043034459018793 -0.1404102153164115 0.06462230701927059
0.0712826937183098 -0.13933440399922534 0.06455813777317186
0.0719384979845588 -0.13849254356603846 0.06440956067454355
0.07139728058623192 -0.13900171428970884 0.06486909789695826
0.07195570658660912 -0.13837066191340905 0.06478086732052325
0.07266135751374665 -0.13774706025921063 0.06412974071511339
0.0728999248960044 -0.13736303804808975 0.06450604816744135
0.07368092479986643 -0.13636530850829792 0.06445240600207588
0.07453017299097979 -0.13541948433402443 0.06435392925998525
0.07546280915029221 -0.13449681801767868 0.06420331703863971
0.07641085152792819 -0.13364230160045967 0.06402467617144157
0.07724927957478382 -0.13284862931599506 0.0638509576389454
0.077938187915498 -0.13210375114883108 0.06370980495312198
0.0784036633277013 -0.1314571745275211 0.0636513968477075
0.07878522349263369 -0.13094855176698372 0.06352102151182899
0.07834234104759691 -0.13125358278887067 0.06386932987128692
0.07863300999504752 -0.13072185328983474 0.06372634070793637
0.07879578079299833 -0.13005559294419047 0.06369156446903688
0.07892182672231829 -0.12936453048882893 0.06363514013089443
0.07910718939562217 -0.12865210637724034 0.06338845439735175
0.07913013058232718 -0.1282204825264708 0.06332049887476225
0.07884687939783816 -0.12853289234631743 0.06364421130661586
0.07881051179495506 -0.1280251143292498 0.0635229677622303
0.07854966055588156 -0.127323602703618 0.06348577995467895
0.0784508599639924 -0.12663179024344412 0.06332352807069778
0.07829848349474614 -0.12617649562359978 0.06328020848234128
0.07808912977277857 -0.12647026624224275 0.06355422223643045
0.07788771575120135 -0.12593921279820253 0.06346087121809472
0.07745839288589548 -0.12532065981685925 0.06344215221302697
0.07721529029691063 -0.12479756825781599 0.063362730172744
0.07706915860650382 -0.12504606045374642 0.0636478190261801
0.0768082807889796 -0.12450010583467723 0.06357536978925826
0.07633312114156543 -0.12381101196330545 0.06360017154610428
0.0758801268391409 -0.12312455331688524 0.06367906485267316
0.07557111987303625 -0.12259119939759922 0.06361852786076788
0.07555709859073878 -0.12285131632553935 0.06391312077098313
0.07524072905661987 -0.12231212793002633 0.06384161988048197
0.07480478781788844 -0.12157885537269394 0.06389356246843449
0.07438192228317925 -0.1208096628684402 0.06393693517894268
0.07396851101649024 -0.11999995042416693 0.06397272867720778
0.07355559980200799 -0.11917648388716216 0.06402096904233191
0.07324078356657508 -0.11851112642010174 0.06400360891463373
0.0733142004899336 -0.11892626711546586 0.06430495288096016
0.07303078604552465 -0.11840700404347515 0.06434219581173421
0.07296087155708077 -0.11783442821511407 0.06390275931594595
0.07267184322893849 -0.1176796214538609 0.06435021165473521
0.07261208587240732 -0.11699913664619548 0.06387746331298151
0.07231572347039678 -0.1168452322348017 0.06438887759221001
0.07225433322696617 -0.11613104697488205 0.06393237075694437
0.07196131639654751 -0.11593272842124921 0.06449958555808126
0.0719478845127853 -0.11521722698992122 0.0640686486760414
0.07162404018781432 -0.11491434702717034 0.06469994497160712
0.07170883181155036 -0.11445878472689297 0.06423871947032435
0.07148546245342781 -0.11363873428404338 0.06420994150739205
0.07113504854104666 -0.1125738074304396 0.06455884319217503
0.07083501333213953 -0.11174371909448176 0.06451700584308191
0.07058776441798258 -0.1110008597563796 0.06467602297001684
0.07026682273898034 -0.11014354846437041 0.06480371697713182
0.06994683975139235 -0.10926985851322109 0.06493213665340286
0.06954607294373315 -0.10837106700923516 0.06502696058876212
0.0690525037064047 -0.10749666476846888 0.06509939733623803
0.06854051824901349 -0.10659638071430794 0.06514962173906846
0.06797306556213001 -0.10564243512221035 0.06517526116242735
0.06738326195853958 -0.10467496862190089 0.06519582284708565
0.06683932938426257 -0.10370584857126404 0.06522910531119558
0.06631596132999497 -0.10275010296218923 0.06529634830280867
0.06584890907328979 -0.10179989476645526 0.06538764855696313
0.06541727056752107 -0.10084207169229893 0.06548326546566385
0.06507206157340968 -0.09998128932519004 0.06557056857848298
0.0645877397649934 -0.09916766106094264 0.06505742563158991
0.06454602762936638 -0.098512217084038 0.0654235820927842
0.06429943244519569 -0.09750788982395953 0.06554146930385504
0.06404169502790603 -0.09655453326797406 0.06568295106005413
0.06377258965223156 -0.0956311337165003 0.065837382147557
0.06315717003634314 -0.09466162332305497 0.06519489341627027
0.06295531000492574 -0.09378182974656567 0.06549490639456244
0.06281246668549693 -0.09303884783981653 0.06583428137885185
0.06199308004418451 -0.09159058872908121 0.06495073699803046
0.06239083106800912 -0.0919654930713228 0.06575848943138621
0.06199898078901876 -0.09110608859616846 0.06534346807515445
0.06191978136560574 -0.09061047211650182 0.06555555687664906
0.06680719351965213 -0.14426355348886222 0.06551935210051318
0.06730745346802439 -0.14365404897246348 0.06566614036630974
0.0682831901434207 -0.14258337385195824 0.06558185901893497
0.06931718695306105 -0.1414676977172821 0.06542702342410063
0.07024162791232452 -0.14041591124563702 0.06533070043737438
0.07085514310164427 -0.13959387364995623 0.06516086525050137
0.07039444377282057 -0.14005780815811142 0.06563268726990545
0.07097768345526644 -0.13929709132621737 0.06546593269279159
0.07179592564234144 -0.1383423556982356 0.06535505801617779
0.07263414460088517 -0.1373221429358046 0.06521114719386042
0.07339874836354933 -0.13632499677278137 0.06510817417084049
0.0742783453016832 -0.13531617265104598 0.06501143960656376
0.07535765007997114 -0.13431882644120813 0.0646956673271307
0.07624170546652816 -0.13349009639692105 0.06447713562171194
0.07699001231655134 -0.13274569465436264 0.06430870625266212
0.07760012503235085 -0.13210217770549484 0.06415320535070639
0.07791272701857606 -0.13165610084064303 0.06409163255329721
0.07737262506967434 -0.13203634018702815 0.06447283183654623
0.07773869252840836 -0.1314704941889996 0.06436815827960785
0.07803600113790018 -0.13080488357825878 0.06433807323937879
0.07823422740454408 -0.13013354889460463 0.06428740795592214
0.0784400675123367 -0.12959674002996818 0.0641378215051239
0.0780441558675404 -0.1299490672319981 0.06450189223952464
0.07811588524749691 -0.12950060417097065 0.06439739418257363
0.07867390648791538 -0.12906752499226976 0.0638860924801243
0.0782870454368153 -0.1287863469496711 0.06413313302878282
0.0781304548919023 -0.12809309613455871 0.06402617477597464
0.0780685345400594 -0.12753486600747763 0.06390283392203547
0.0777465663329882 -0.1278795696285628 0.06420235729925926
0.0776078082022459 -0.12743370106987265 0.06413759109220381
0.07808178166758227 -0.12699669254617996 0.06371419219439227
0.07747339660351026 -0.12665551026981672 0.06396997070388735
0.07728513808813271 -0.1258944544963887 0.06380656103019404
0.07707891655220325 -0.12543229234874284 0.06379465879484603
0.07682451367889344 -0.12573819527316307 0.06408189490878527
0.07663202508400387 -0.1251661485533699 0.06404443428501239
0.07626729828528832 -0.12446400248835805 0.06405627704671359
0.07590259432428123 -0.12378773496560999 0.06412006207418171
0.0756745192478193 -0.12324757314985202 0.0640929216248304
0.07557023561170886 -0.12353357367935758 0.06439294261294272
0.0753193624759737 -0.12299849193037782 0.06435602637764136
0.07491321516044694 -0.12230672742818534 0.06443109897828787
0.07453117403562207 -0.12156173370307732 0.06449734293639195
0.07412955752838746 -0.12080609595731412 0.06454761380352741
0.07372740497082036 -0.12002366463419528 0.0645713785054775
0.07345694461518673 -0.11941077175555 0.0644912327694893
0.07345356875916981 -0.1197359777122946 0.06482780592369804
0.07318471602290638 -0.11912433177738053 0.0647664023232005
0.07275281424261887 -0.1183757234764042 0.06481640113906109
0.0723339354480888 -0.11758412001423522 0.0648629431044175
0.07195197827036838 -0.11669895282291144 0.06495438499405705
0.07160320832835002 -0.1157533781748515 0.06508469000910712
0.07133740408769468 -0.1149172081967589 0.06527344715682154
0.07149054117509432 -0.11407612055878237 0.06463241130609719
0.07122293093974717 -0.1140325441246774 0.06523326937167855
0.07124359018500863 -0.1133199242703445 0.06489642208570008
0.07092439808073683 -0.11298378961556806 0.06558714481293919
0.07101898865494549 -0.11255827809936732 0.06516742753209025
0.07079603517622816 -0.11165506641668445 0.06522354331388026
0.07053848529973133 -0.11071537689693056 0.06524939471145313
0.07029468690126046 -0.10997371175300985 0.0654664225667134
0.06998533741743802 -0.10913212546118292 0.06560756568080106
0.06959484863081489 -0.10829517587741391 0.06574659380604903
0.0691183579707358 -0.10744321583132195 0.0658594914576193
0.06859742783663607 -0.10656087406032988 0.06594282468699306
0.06804289580534441 -0.10563454257993377 0.06599703905856587
0.06749975844634411 -0.10469765287190891 0.06604692166879131
0.0670063843724016 -0.10374737903082831 0.06610194205440295
0.06653499631453882 -0.10279472978798557 0.06617756442724858
0.0660766499159726 -0.10182496286801782 0.06628211820382832
0.06564752126176157 -0.1007782769924165 0.06640211729355773
0.06520649749624066 -0.09988894760495609 0.06613153155704685
0.06488370309060768 -0.09936408454786393 0.06567612015802037
0.06502492305665789 -0.09924733359968366 0.06621317001395255
0.06481740370716978 -0.09839253109371787 0.06627734867758772
0.06459793051274437 -0.09746933976276576 0.06640321993580806
0.06432968616231485 -0.09652216219752363 0.06653391154258842
0.0640516238792355 -0.0956194254270161 0.06660451467269601
0.06352556699093194 -0.09477268116308982 0.06603910250706425
0.06338850325482624 -0.09401291700287873 0.06645269503515856
0.06299409982585878 -0.09291278354480112 0.06660474776681374
0.06263100319924382 -0.09185914716655716 0.06679497023233744
0.06216885009694038 -0.09098878427980792 0.06610155051706443
0.062025452043360366 -0.09019503309354863 0.06653334844509459
0.06199385523217476 -0.08953799619739865 0.06709275307967269
0.06663196168160639 -0.1442453351630273 0.06629308076825766
0.06709741190582734 -0.14362907273616693 0.0664859904585518
0.06819393454503768 -0.142455633547189 0.06622955258929886
0.06917335164464254 -0.14144142440071455 0.06601988544079576
0.06981933883532539 -0.1407212208589844 0.065937710555828
0.06914845459425949 -0.1412885472091676 0.06642287273901026
0.06986444345055201 -0.14041576914759266 0.06627380124678295
0.07065234215355769 -0.1393768309264847 0.06619160059122661
0.07146882611335305 -0.13832523779920441 0.0660465953638743
0.07227229899412488 -0.13733231468207355 0.06591912343326987
0.07298767517609654 -0.13635369888490648 0.06581686354003938
0.07364965631094635 -0.1356251472570433 0.06565788105871671
0.07300993940866105 -0.13607301462558355 0.06612192670435704
0.07352217438627999 -0.13554913017568254 0.06604956999928713
0.07438846104713413 -0.13493508752425765 0.06539298637723447
0.07424010179324873 -0.13480515747777908 0.06587228739657554
0.0752404664400314 -0.1341411147570258 0.06516436176972458
0.07502699543582961 -0.13403794112615394 0.06568806910782232
0.07602873777441713 -0.1333555544740023 0.06496367396831897
0.07578918668195832 -0.13323770984264913 0.06545242694682735
0.07676652838397892 -0.1326341471204882 0.06473818154455256
0.07663871279284735 -0.13234787386452718 0.06513027156147715
0.07708495645638544 -0.1315836223846476 0.06504998621772849
0.07740567946877559 -0.13089246575312227 0.06496249774619835
0.07772408568846827 -0.1303582734671219 0.06476991954257023
0.07725455775858742 -0.1306732882115191 0.06516425463783353
0.07749071529908395 -0.13015958618792678 0.0649526695275166
0.0775407660247803 -0.12950508929266516 0.06481102351614973
0.07754936384059498 -0.128850155857127 0.06465668624090583
0.07760175021172257 -0.128310381064389 0.06444321462709886
0.07720879128953945 -0.12863381857942022 0.06481510191933734
0.07717585091434685 -0.12809925923510804 0.06463866681225425
0.07690470139394792 -0.1274424621074451 0.06456040698919752
0.07680956933191041 -0.12686045305348562 0.06443168734302916
0.07643133875166093 -0.1272112130640312 0.06474627598110623
0.07628165845273634 -0.12672445634324192 0.0647064753442143
0.07683692913019483 -0.12629801951216568 0.06425817055483218
0.07616988069851996 -0.12591857705806128 0.06461515693636459
0.07599580969295129 -0.12508483017207558 0.06453318003792337
0.07579762479054335 -0.12441499932104379 0.06450719776574032
0.07559947457469651 -0.12395043902250084 0.06453798531111364
0.07542898343791132 -0.12430976432851851 0.06485389897319672
0.07522432470862944 -0.12372940092786414 0.0648463489397191
0.07488176648698379 -0.1230162736670818 0.06495372655225091
0.07455012333143868 -0.12228846639593181 0.06503310570139832
0.07420330821238898 -0.12155165025640323 0.06510888622353374
0.07383077946133203 -0.1208010532802599 0.06514120229527741
0.07357990825329846 -0.12019389541501015 0.06504332994329697
0.07355146007284813 -0.1205034674006026 0.06540650531622907
0.0732731658843786 -0.11990022726697969 0.06530853763934474
0.07285538210445637 -0.11912559058182347 0.06534124272589834
0.07239748284796846 -0.11834940874743964 0.06538467619038747
0.07196038688391677 -0.11750571468213535 0.0654680256675755
0.07152753734601136 -0.1165407382910245 0.06561570669721085
0.07121844549354746 -0.11548291637457353 0.06564796428892751
0.07093900831285259 -0.11444292617401301 0.06584099609129074
0.07086495231476349 -0.11358787159112137 0.06582574622866032
0.07066380368157647 -0.11298232160126219 0.06614198189643464
0.0708220204121276 -0.11220164623986738 0.0656330586650513
0.07056082596953878 -0.11214393289558748 0.06629290286902557
0.07064100506961121 -0.11161404724840568 0.06592804828636363
0.07045264264246877 -0.11070736958541219 0.06601920660576611
0.07019927080092785 -0.1097445966127635 0.06607143187549443
0.06991392228328289 -0.10902525366947415 0.06630822989964945
0.06956450115777645 -0.10820256640539079 0.06646484668184509
0.06911044729133267 -0.10737529713099024 0.06660917506722532
0.06860677133395462 -0.10652187396607819 0.0667281561383377
0.06811415123729882 -0.1056276302042037 0.06681976877542074
0.06760447006317326 -0.10470999144233765 0.0668990761658317
0.06713556637901785 -0.10376880019969663 0.06697499476407896
0.06670163696177515 -0.10282152955371657 0.0670659784839875
0.06629006565018347 -0.10186149189003484 0.06718378399160674
0.06595004042262839 -0.10094606509719609 0.06737552398828603
0.06546407048033824 -0.1000283685049748 0.0667771699035743
0.06526381087328229 -0.09921767006373519 0.06695695561339757
0.06505042266345902 -0.09833967060411608 0.06710746912192588
0.06481649908283459 -0.09739777188609336 0.06726350077631031
0.0645012822096458 -0.09633850305443446 0.06741323911255916
0.06412649696671482 -0.09543796586010057 0.0671432079100001
0.06380135595997931 -0.09492527572088429 0.06668793779125909
0.06386707844639188 -0.09474148104503516 0.06723290654426
0.06356519909591894 -0.09381864465419408 0.06732632533797077
0.06320595567601327 -0.09278056190971487 0.06750623325300835
0.0628255878937788 -0.09170397674471448 0.06781211162392618
0.06232804357596169 -0.0908241054520001 0.06703927762348326
0.062115987081004256 -0.08991045137085286 0.06745776087333541
0.06200391749500477 -0.0892391930705454 0.0677552572430213
0.06633255302101243 -0.1443258388719161 0.06702515613605443
0.06646656135033907 -0.14401027529417934 0.06721307701622727
0.06604088570651549 -0.14436035216981397 0.06760686512715566
0.06632870864940703 -0.1439156135006488 0.06766643184151003
0.06716520603258651 -0.14324848538355237 0.06699358611742413
0.06713773049343241 -0.1429989644739078 0.06750233376828844
0.06823665716444502 -0.14220449066924187 0.06673223118273602
0.06841317639374864 -0.1416938056881094 0.06717088587575087
0.06938298481143039 -0.14049750787757614 0.06707717497421578
0.07028988106310373 -0.13938867917613945 0.06693042185380106
0.07110047690822155 -0.13835985854602983 0.06678427748127654
0.07187310401469435 -0.13739847224351853 0.06665954263525141
0.07248824182450138 -0.13662199135654826 0.06643693949936391
0.07198292786696564 -0.13709610494614324 0.06693993112570773
0.07255592387346216 -0.13640067475808387 0.06674947935701121
0.07326676269263287 -0.13561469736426948 0.06665235256086205
0.07399793196112919 -0.13479911495099292 0.06648672505365415
0.07476344991395249 -0.13400413198987593 0.06627822331925562
0.07544626356829146 -0.13316934126068328 0.0660447373738888
0.07604320662666687 -0.13240226684325648 0.06585774167956197
0.0764602536469248 -0.13165713803660448 0.0656926107252101
0.07684236152689897 -0.13108817216385285 0.06547610603245356
0.07634478142130083 -0.13140605331634042 0.06591619224740035
0.07666926780160074 -0.13087753641056002 0.06569235373955715
0.07681682412487585 -0.13023677643235806 0.0655311782024849
0.07686496795021105 -0.12958721394025494 0.0653622999964211
0.07697557324120453 -0.12905939179274742 0.06511120748665497
0.07656547943292501 -0.1293797508399976 0.06550561315444037
0.07659077572814511 -0.1288320465847727 0.06528607593167289
0.07635759440267885 -0.12818785955553286 0.06515122072969752
0.0762862845384566 -0.12763300317490037 0.06496257203311086
0.0759206923071801 -0.12795058854350042 0.06533163772985182
0.07584020889328996 -0.12739355818373133 0.06520069025901196
0.07558123273059292 -0.12669829793114354 0.06519749647806392
0.07551445543656046 -0.12612731056596385 0.06515132825241567
0.07517437172459326 -0.12645700439581226 0.06547771319232185
0.07507217362267607 -0.1260163451656203 0.06550270143822196
0.07554553905515116 -0.12556596712188337 0.06503405847994409
0.07501654854971739 -0.125367824484212 0.065485288990095
0.07547763890437215 -0.12489048505770853 0.06497470812261745
0.07496679405232 -0.12454581350314108 0.06540067251302868
0.07470445351350632 -0.12376063877229128 0.06550920422349295
0.07444603057158902 -0.12300194162093288 0.06558842102903223
0.0741712855948929 -0.12226561522201623 0.06567272545448091
0.07384593010810421 -0.12153891873045708 0.06573502765206811
0.07364352869211088 -0.12095975052540922 0.06565192851914461
0.07354587400096374 -0.12125408334342917 0.06600901340589235
0.0733270464689039 -0.1206570138413891 0.06592358791506996
0.07292413909750331 -0.11989549460975533 0.06595529051389744
0.07249401210522295 -0.11912218259511546 0.06599391825366441
0.07203897822020847 -0.1183252345706193 0.06604802777087551
0.07158545750826437 -0.11747986809821395 0.06613865051730627
0.07127584973731134 -0.11679349966141535 0.06614083216455936
0.07125640215323989 -0.11719869997407113 0.06647747859161164
0.07101399420706735 -0.11665903280344621 0.06656890396438403
0.07108510218273784 -0.11608753311814829 0.06610789501729408
0.07072919107904616 -0.11588203637878734 0.06668937254960287
0.07082699422874944 -0.11520122004089896 0.06622892201649203
0.0704241161382595 -0.11494916994102496 0.06692641268933325
0.07059824108636129 -0.1144278357084186 0.06643551839450325
0.07050806484403636 -0.1135377182470556 0.06649061260899182
0.07041417511072637 -0.1126822711138179 0.0666124500102751
0.07025835200667481 -0.11211201390505308 0.0669479086317616
0.07045211072634973 -0.11129261255429454 0.06644326980505402
0.0701848267292434 -0.11125676895093596 0.06714067684647712
0.07028452809781782 -0.1106933247561471 0.06677725592837054
0.07007359313073433 -0.1097831403498404 0.06688153448344786
0.06979734197374064 -0.10882345905100757 0.06694533077620797
0.06946830297159805 -0.10811254156885049 0.06718338181232555
0.0690615476383669 -0.10730080172798112 0.06735383370118304
0.0686011890281358 -0.10646791681969085 0.06752486038532562
0.06814805816696005 -0.10558463309525173 0.06765144428081572
0.06767751648842539 -0.10468497475557202 0.0677498125720891
0.06722106198430985 -0.10376078140379982 0.06784189148495402
0.06682172060195045 -0.10282142763267947 0.06794589625040942
0.06643045035817875 -0.10189378169231292 0.06809155018921634
0.06610152721434656 -0.10098113225981291 0.0682667652105197
0.0656970001033308 -0.10008620853744163 0.06759578756229173
0.06545501562310468 -0.09920242182480826 0.06778698848796848
0.06522408647108136 -0.0982975696963106 0.06797144863131346
0.06496695316842806 -0.0973444758357389 0.06816200160347156
0.06471328758455139 -0.09643179685266913 0.0684038758658766
0.06431435544285827 -0.09552293305574643 0.06779919018698126
0.06403129331843892 -0.0946452181021954 0.06800250096526123
0.06371121800841932 -0.09368589827931474 0.0681750398205003
0.06335448655101247 -0.09274570235175139 0.06838397527901231
0.06308406486165888 -0.0920157954140593 0.06865770211433295
0.062401990382137396 -0.09069740660891387 0.06779417617056116
0.06263906106637782 -0.09104018700185011 0.06859239203319352
0.062248945770673345 -0.09021353124925423 0.06819322467844566
0.062082784477360806 -0.08950939599298262 0.06830702378048109
0.06197236093186379 -0.08899074824420304 0.06859202283800327
0.06580110129725279 -0.14435101067002717 0.06813889060289512
0.06614169448770099 -0.14382764609492865 0.06821654659283895
0.06693464310169459 -0.142814284644513 0.0681238985109671
0.06790828870312955 -0.1416664120878913 0.06801064646265345
0.06899357682799406 -0.14046483951268157 0.06783945270383952
0.0698998880408591 -0.13938172639782173 0.06764555129680666
0.07073112467489 -0.1384438394237485 0.06751248257855173
0.07137955927744033 -0.13770211291714038 0.06729769595049025
0.07082812489015772 -0.13814626623445506 0.06780737620066811
0.07145427729939738 -0.13742482447559357 0.06760620454701305
0.07218220681978287 -0.1365560154312 0.06750089469239501
0.07291107051727053 -0.13569420926512304 0.06735850828600375
0.07368069592800264 -0.13486104931127504 0.0671693987480951
0.07435591476256641 -0.13402606422697158 0.0669602877217427
0.07499765537927319 -0.13324653396882133 0.06675579561688426
0.07548709003574151 -0.1324841443858031 0.06656129287570536
0.07591935269454536 -0.13187264096883552 0.06627838606286815
0.07540991323410416 -0.1322202215015869 0.06678540002337963
0.07577837366387287 -0.13164402871355885 0.06651929934573327
0.075983085069978 -0.1309687800502408 0.06633400862674485
0.07611561170990716 -0.13030340214799374 0.06615334873969943
0.07630862703887915 -0.1297959431107265 0.06586091535535497
0.07587303675844043 -0.13007934843982313 0.0663181587341636
0.07597310984368945 -0.1295574491461145 0.06603903288133912
0.07577928888399912 -0.1288997905331756 0.06586986782443364
0.07576059045365616 -0.12837860963079542 0.06563448050939055
0.0753555728381531 -0.12866807263563196 0.06603836762439114
0.07530650252383837 -0.1281225332189491 0.06584564791953522
0.07502458606612696 -0.1274170278106284 0.06577362954017918
0.07501490364302223 -0.12685783552660476 0.06565806918123669
0.07465827263808013 -0.12712008867721114 0.06598853540963742
0.07466968997350339 -0.12659887031139386 0.06593790531340778
0.07455042315104747 -0.1259678438173843 0.06602771573408249
0.07447339010050359 -0.1252542501456975 0.06606315934431285
0.07436158440110227 -0.12449102237251769 0.06610606561459129
0.07420837286892183 -0.12372661717817016 0.06618564391767592
0.07401147946492985 -0.12296611232182975 0.06624542468495187
0.07376486912567004 -0.12222743347023854 0.06630367490839656
0.07359019513550688 -0.12167878599992642 0.0662276569023283
0.07348434775541433 -0.12193889509947217 0.06660461725969433
0.07329199717634746 -0.12138992464026029 0.06654405672604781
0.07293912713052123 -0.1206522313649315 0.06661287765668304
0.0725519438355959 -0.11989507122819118 0.06665679665189964
0.07212445702865702 -0.119116433978522 0.066688814199575
0.0716891809565598 -0.11831355702414281 0.0667341432992457
0.07139077026569841 -0.11767445073824133 0.06666027591995691
0.07136124862889152 -0.11800076742002409 0.06704166902101752
0.0710882696503238 -0.117380708889549 0.06700856626621622
0.07073075665660246 -0.11660862043444677 0.0671783904223598
0.07040773929734807 -0.11581750752217637 0.06735424288655362
0.07015534290619933 -0.11512912440045597 0.06759200772757075
0.07032357478193846 -0.11410640378208517 0.06688872747995395
0.07001810703974054 -0.11417001901443609 0.067619384056497
0.07017058495528535 -0.11352759266642165 0.06716019427641928
0.07009218794440485 -0.1126652236695309 0.06729245784874827
0.07002681656090516 -0.11181464097565627 0.06746220941209964
0.06987054068767141 -0.11124443698849727 0.06785820568698821
0.07008190021637441 -0.11038513519491414 0.06731987391217899
0.06980828417046553 -0.11037926432366806 0.0680694374776466
0.06989864098395765 -0.10979906857734517 0.06767406791076154
0.06967299220297754 -0.10890144132813609 0.06776631236588357
0.0693310356461539 -0.10796205836677436 0.06783696262038506
0.06900628426452388 -0.10725216340212097 0.06812801987430192
0.0685800424495524 -0.10639881058371005 0.06833592004442565
0.06816968392953862 -0.10552161129504126 0.06847555487253923
0.06772390756294593 -0.1046343200403166 0.06859309932191084
0.06728177691944492 -0.103715832001093 0.06870291099490436
0.06686517251715676 -0.10279212215960577 0.06882755538254524
0.06649119375780232 -0.10187189638440232 0.06897654378075853
0.06615278235254184 -0.10093555008297533 0.06915605127498031
0.06582958507496384 -0.1000718522224255 0.06846260364553708
0.06556586605844165 -0.09915601362707284 0.06865877789217997
0.06531739130307625 -0.09822532055643045 0.06885866020975796
0.06505775839056742 -0.09730490825719824 0.06907800610451362
0.06481937526669003 -0.09639363419170772 0.0693337640658676
0.06446794063767748 -0.09551917953597315 0.06865588133622746
0.06414820452674327 -0.09457704383375336 0.06886871365228713
0.06381719472478013 -0.09360199338357503 0.06901702656308994
0.06343729240456324 -0.092702403697507 0.06917694600830743
0.06303850873934477 -0.09182140114336929 0.06934337030040025
0.06260462696393157 -0.0908730047627679 0.06950595355026241
0.06227310050064691 -0.09010109436830194 0.06890997641787303
0.062048177700695886 -0.0893445134297713 0.0691719419432538
0.06195185584758746 -0.08898064649617968 0.0693310210155948
0.06569879102057176 -0.14424533556717856 0.0685647251619649
0.06599449812314338 -0.1436373035773733 0.06879547395113987
0.06654470805040416 -0.14279961610971834 0.06892310666206611
0.06745721056029994 -0.1416441718767364 0.0688835814702664
0.06869060784584581 -0.14036264176202717 0.0685170046623774
0.0696196656723717 -0.13939917748673106 0.06827918318002082
0.07024735002980678 -0.13874663987235689 0.06816026222862918
0.06951803286028288 -0.13931313099357617 0.06872252175331268
0.07026740752676136 -0.1385095508893469 0.06853660402154772
0.0709995148521651 -0.1375925251518857 0.06845207076687697
0.0717904530271557 -0.13666543383121169 0.06830202641545319
0.07251930017628654 -0.13578981001570417 0.06813767488712993
0.07325612207231377 -0.13494087512671826 0.06793495345289384
0.07393488508361976 -0.1341175863536002 0.06771950886675845
0.0745122321576739 -0.13333055794959475 0.06750616240595185
0.07497182733473931 -0.13269293791948003 0.06719293090617295
0.07445872829914137 -0.1330478512254887 0.06775073752345029
0.07486235837506065 -0.13245399439393762 0.06745499118546255
0.07512682309697796 -0.13174857254917902 0.06727120324822863
0.0753381420681461 -0.131020964241393 0.06704770119541914
0.07555982356361379 -0.13046995654290236 0.0667011705632316
0.0751732647033225 -0.13074158123642382 0.06719382714651075
0.07529898152307017 -0.13022150902693397 0.06687597422558335
0.07519921257980762 -0.1295945619727163 0.06668383120725722
0.07518077653607451 -0.12907680617407383 0.06636629020119657
0.0748516661284281 -0.1293412162760153 0.06682610557606183
0.07479842192942578 -0.12881422774665005 0.06658144299594143
0.07450388578100041 -0.12815924407983234 0.0665592352740924
0.07447278843993549 -0.12754592509287183 0.06628641747758002
0.07404634497869463 -0.12780350595264922 0.066885332283579
0.07424344164533671 -0.12718358114886985 0.06645736541171396
0.07408574955889394 -0.1266264928551138 0.06658059957319097
0.0739927070976177 -0.1259379276152511 0.06667807106201537
0.07392415807390802 -0.12520298216332962 0.06676200245900994
0.07384653197253846 -0.12442871238547346 0.06683928901707624
0.07375119584536566 -0.12366014882630028 0.06688180005054215
0.07359888865345653 -0.12291810487722347 0.06692009136602473
0.07349753589065079 -0.12235498382364708 0.06684448718003153
0.07333139912277492 -0.12264341163017058 0.06725273660643818
0.07319312742769228 -0.1220789420415141 0.06718393642124403
0.07287884673535965 -0.12137687874772542 0.06728393049125633
0.07253422570999501 -0.12064714725222146 0.06735445140816239
0.07215122239686464 -0.11988088671317848 0.06738267214158476
0.07174622367572632 -0.11909778250161154 0.06738772785573878
0.07149085068622726 -0.1184691725362748 0.06727752973449695
0.07143564680782447 -0.11876663428192741 0.0676761557460573
0.07117407401361422 -0.11814136706149801 0.06760877986739941
0.070785440934787 -0.11736049182050486 0.06772779937401595
0.07042195733016143 -0.11656954952303496 0.06786675874209472
0.07011168591855992 -0.11578456998475381 0.06802743953642547
0.06988574455442824 -0.11497117954442379 0.06818711998439696
0.06970489147373761 -0.1142448915148176 0.06841557990881883
0.0699337790241992 -0.11324862910646355 0.06766881909732354
0.06964289142667973 -0.11334403363669322 0.06838607788989921
0.06975196997474807 -0.11266587564494794 0.06801654603938642
0.06972439499966598 -0.11185018618632885 0.06811931084031944
0.06960046658247893 -0.11095697049557904 0.06852325169980654
0.06950460593425906 -0.1103082080969936 0.06885341241454601
0.06969376969258001 -0.10953382019691862 0.06823005758210328
0.06947879192950467 -0.1095810652056415 0.0689382225634353
0.06951037407002006 -0.10897534740249125 0.06859871756184918
0.06929014591003686 -0.10811194860675716 0.06862341548360959
0.06889982618401617 -0.10713399528211698 0.06894071360835632
0.06852991772688381 -0.10628323156825743 0.06912383075333271
0.06814369170861147 -0.10543564612199245 0.06929701465866642
0.06772421824628959 -0.10455705785840697 0.06943590708031692
0.06727772634734326 -0.10365694244970947 0.06956782694737486
