# .PCD v.7 - Point Cloud Data file format
VERSION .7
FIELDS x y z
SIZE 4 4 4
TYPE f f f
COUNT 1 1 1
WIDTH 789
HEIGHT 1
VIEWPOINT 0 0 0 1 0 0 0
POINTS 789
DATA ascii
0.0757570377612313 -0.13618053319303755 0.06001268815336266
0.07681011513636075 -0.13522557160032161 0.06001868162079612
0.07769735260121115 -0.13433317452786492 0.060045763746744855
0.0785091711248423 -0.1335680040505308 0.06010603607123213
0.0792403814392277 -0.13284240085520785 0.06017730675834468
0.07983130555889315 -0.13221153480786796 0.06008538376652068
0.08012363811383938 -0.13180090548842163 0.06008046171401168
0.08004356683545054 -0.13201469071954464 0.060364827865315863
0.08025435744428944 -0.1315408437145652 0.06032757184241997
0.08051768138504373 -0.1309967531444907 0.060377403553507285
0.08069884450153347 -0.1305273500614451 0.060457223041915295
0.0807981190385748 -0.13013605387117957 0.0606061973729749
0.08041753908289181 -0.1296830617575635 0.060282318904110885
0.0803633388671184 -0.12919966649843778 0.06048817153206335
0.08028013036087958 -0.12868814125231082 0.060648001668005526
0.0797361976095842 -0.12817675477544566 0.06024568155282439
0.07964136852226945 -0.12764952489942308 0.06035249401489435
0.07948070611886346 -0.12717614286414508 0.06041688140708668
0.07932198995111371 -0.12681450133792532 0.06048583270831619
0.07883837573364422 -0.1263469991413544 0.060315070425672586
0.07851726688073374 -0.125813181823877 0.060446032673442104
0.07822177143322588 -0.1253430050369358 0.060600178115505866
0.07746212631066024 -0.12487866949843478 0.06016516194886382
0.07702432079840683 -0.12433668240434108 0.060263611800742405
0.07642228802717241 -0.12388190981293566 0.060120201198102866
0.07681176549271923 -0.12389981161371807 0.060549717812274896
0.07610478484870666 -0.12346468104569874 0.06019247099184118
0.07566677317328332 -0.12291105921459583 0.06026587734030828
0.0752337203689114 -0.12229388739921654 0.06040837923610835
0.07482779405507455 -0.12164138628651856 0.0605356198845391
0.07445225863384235 -0.12097429950035256 0.06066195674270349
0.0736201863931327 -0.12032144813031322 0.06018475982100196
0.07327066495440979 -0.11958150049358234 0.06028380281485241
0.0729135847546552 -0.11880855694879681 0.06037517626911545
0.07256561612374003 -0.11798413695211447 0.060427969882786085
0.07224056636876715 -0.11712313797953262 0.060428179378135397
0.07190503183560662 -0.11624884436749428 0.060406024348572555
0.07156200659351668 -0.11543319166429909 0.060420993420877075
0.07112344144749738 -0.11464416817989914 0.060456558820070665
0.07059944576647625 -0.11383441702728746 0.06055243237618491
0.0700511360301414 -0.1130077755414131 0.06070816115418929
0.06922201846860085 -0.11240498182104293 0.06010777499970072
0.06875555157221364 -0.11163098689342868 0.06028681976161181
0.0683749180344696 -0.11089770700957526 0.06043315631315703
0.06812839580797626 -0.11017152469128298 0.06055705159418395
0.06789606498331442 -0.10939474770230123 0.060586733175130365
0.06768953450708573 -0.10859928687265252 0.06055630453915261
0.06721910526059427 -0.107849091663876 0.05992297556467701
0.06715197952578711 -0.10705884793686866 0.06019663018217868
0.06672901637517854 -0.10592555471043506 0.06017384621425264
0.06628960246373677 -0.10492104337184088 0.06016257404935325
0.06583070462047924 -0.10394382473580521 0.06015693861702234
0.06537791432467092 -0.1030077771652288 0.06018258860995388
0.06491675663344376 -0.10207957938242664 0.06023244786130802
0.06441974943085642 -0.10112954195203352 0.06028854104160788
0.06384127322528124 -0.1000078328183162 0.0604332501690011
0.06312665682044598 -0.09916469096470112 0.05953028279838175
0.06256084948247852 -0.09798361475261927 0.05969629085751972
0.06194359321915388 -0.09685618018291203 0.0595405165080003
0.061573364216571856 -0.09607141533264929 0.05980648358850459
0.06124577041001072 -0.09512434332158456 0.05999838959448116
0.0610096519822603 -0.09425482137003902 0.060097741625461255
0.06071006672419948 -0.0936647104936322 0.05961193101972937
0.060821182815446434 -0.0932669982220021 0.060278484211635404
0.06726741434416987 -0.14383380772630094 0.06029253701027798
0.06769544966319807 -0.1434256256800798 0.06034597201317737
0.06864463193920727 -0.14251196258597743 0.060462288082449765
0.0698208518749877 -0.14145559327570523 0.06057261988900555
0.07105171204696681 -0.14036959599109866 0.06063926674888855
0.07223553020280701 -0.13926541952123478 0.06067114477921212
0.0734314882349038 -0.13808835807471162 0.06069345644626785
0.07480269105761439 -0.13685734506556016 0.06054823555882918
0.07597649697526453 -0.13583259220615124 0.06053484140979077
0.07696511742264765 -0.13492186197570422 0.060542820119782
0.07786117288400476 -0.13410087278348257 0.06057137614597515
0.07864686488144404 -0.13342507233772305 0.06057897900930565
0.07917033216154934 -0.13295901339615812 0.06063253374364284
0.07877979158550463 -0.13331140210020617 0.0609077402483151
0.0792301875702686 -0.13282278319263527 0.06094613591125236
0.07964540917618954 -0.13248222036223686 0.060514699355401505
0.07987682003386971 -0.1321287012757918 0.06084179212616376
0.08034565638142699 -0.13147024794615375 0.06087884884620586
0.08069021929581745 -0.1309223225225417 0.06090236994546859
0.08094855364032044 -0.13050487265632627 0.06091880643660817
0.08102070202280119 -0.13020612364143336 0.06100737331070844
0.08080201041678954 -0.12974310510295764 0.06090310271755645
0.08069887327349068 -0.12918182191925665 0.0610121700295415
0.08059294136951349 -0.1286949757480442 0.06116082538747887
0.0801826376579202 -0.12817034759228027 0.060805642969542356
0.08002444941927103 -0.12758798216853115 0.060939893574182585
0.07968185878811815 -0.1271000253445006 0.060795941426552196
0.07997457320987965 -0.12714092645547692 0.06119080625092593
0.07950149900093562 -0.12672400607130563 0.06084759854901176
0.07923831655497018 -0.12626673827789137 0.06088246132813342
0.0789288302906852 -0.12580358425606844 0.061001647995304144
0.07859228892861082 -0.1253281567889477 0.06115134677385748
0.07787000527846633 -0.12485809879840382 0.06073886128856957
0.0775289493914809 -0.12438567943477549 0.06089568344193906
0.07718596942848355 -0.12388838251917662 0.06108875583842705
0.07645360579370664 -0.12340264103389774 0.06070787992343923
0.07603568410549287 -0.1228536237605483 0.060855347508847676
0.07561512923525383 -0.1222329628543001 0.061001254170102534
0.07520760154321963 -0.12159156134699639 0.06111874458959178
0.07484393605506308 -0.12093583523929524 0.06125191825584679
0.0740921848267666 -0.12027129339625882 0.06079409709958375
0.07372146571109417 -0.11954129569278427 0.060923906752306106
0.07335057295638726 -0.11875296542549257 0.061019919213950856
0.07298554435909022 -0.11791641986086504 0.06105162520860814
0.07263343730754027 -0.11705826360700249 0.061048934400647986
0.07229212641350229 -0.11620073002920925 0.06103344358013642
0.07191691568346043 -0.11536394827835925 0.06106131416478063
0.07146678473721425 -0.11453238092140362 0.06116117118303986
0.07095758964398158 -0.11362433161384829 0.06140107704095646
0.07029410636707584 -0.11279376542204078 0.06135412733054599
0.06951483567158356 -0.11216246292342565 0.06095753373628979
0.06894381414251068 -0.11140690084179448 0.060895389263308196
0.06869375858293407 -0.11079081193392759 0.06108247653143851
0.06844116191662031 -0.11005817065284132 0.061201669786642175
0.0682487942491358 -0.10924521132656329 0.061248600554818323
0.06796510012977229 -0.10850789437043555 0.061043133270878326
0.06759283576455509 -0.10798084173815801 0.06060407698855257
0.06795717879783296 -0.10800422338367209 0.06122754583256689
0.06755048846138247 -0.10692586092430967 0.0610832628680676
0.06708776838863076 -0.10588269874827831 0.06099846555724744
0.06659044659599762 -0.10488418421284293 0.06095833529187811
0.06607138641722309 -0.10391433757745562 0.06094716869574501
0.0655780525602881 -0.10295816792631414 0.060972611844290064
0.065064462841943 -0.1019900189506667 0.061023653733317605
0.0645909461141526 -0.1010436507526005 0.06112577689691819
0.06422812000743494 -0.10028697157690478 0.061316610521699906
0.06320116881353881 -0.09895021218384412 0.06028517708053645
0.06366419292431202 -0.0993183888607074 0.06115321189748763
0.06297608830883676 -0.09835517700543626 0.06060257718201156
0.06238595010336381 -0.09730358550886936 0.06049569766794492
0.061970641871507144 -0.09619890610741443 0.06077682260228929
0.06162260457516338 -0.0951051611132829 0.06097156860608567
0.06113843540858005 -0.09413229216530526 0.06068150300765228
0.060886536394832685 -0.09365834442874456 0.06022778364402838
0.06106431031387315 -0.09356622599767989 0.06080766846958286
0.061077319351618656 -0.09308851330306758 0.061018983835025443
0.06729752944038744 -0.14375480586207964 0.060841941320802555
0.06789088423335353 -0.14320808849481106 0.06106082842724217
0.06892245401930207 -0.14224212093639654 0.06120343232964111
0.07011080078921483 -0.1412293448159495 0.061271235358622805
0.07122349802490292 -0.14016858187908543 0.061311026613435855
0.07227446890675795 -0.1391285481181312 0.06134171635526642
0.0731174783823859 -0.13829198917216023 0.0612707754456794
0.0726233117330007 -0.13873981304469246 0.06165112155032912
0.07322013213725126 -0.13808760667077652 0.06166534644715658
0.0740048582611503 -0.13747361397901803 0.0611284305181295
0.07414268191803024 -0.13720410316488824 0.061635842609461186
0.07502836732219292 -0.13649204992437378 0.06106673006492429
0.07516002975968464 -0.1362592752849625 0.06158974166046753
0.07612464809297007 -0.13556550416579102 0.06105210003844768
0.07622758505378784 -0.1353173737224178 0.06154213287776996
0.0771428921168714 -0.1346850492478176 0.06104013315106442
0.07729856928535309 -0.13442105756499764 0.061500623839957476
0.07806056961495486 -0.13388864844844683 0.06100021721159252
0.07840230166936084 -0.13351384088344304 0.0613743296249588
0.07919439815738302 -0.13270504529928873 0.06139446421095356
0.07984901370573803 -0.13200012573660075 0.06137191375592004
0.08037185551147925 -0.13139248031838954 0.06137695347123208
0.08080073127792196 -0.13086172618368025 0.06137185134062676
0.08104753954868536 -0.1304687928624571 0.061233867033325624
0.08094695977599901 -0.1306224809116177 0.061534547219945814
0.08098961092629887 -0.13020028826110705 0.06140483763045087
0.08093372270659245 -0.12965177434429664 0.061426657916251515
0.0808405955243969 -0.129165896870099 0.061483525352252225
0.08074661746954563 -0.12879319686029517 0.06157750929640678
0.08052164111548636 -0.1282653988529026 0.0614239186467368
0.08034922989762366 -0.1276568461654278 0.06154635646260613
0.08022074622767274 -0.12716254707464403 0.06164229922544229
0.0798120754247471 -0.1266966011432606 0.06127823788224757
0.07955600903462588 -0.12624341374386577 0.061367106138406166
0.07923317925125654 -0.12577104561415003 0.06150345081990781
0.07887895074258888 -0.12531672785145945 0.061634578839493234
0.07824528527742178 -0.12485773508290311 0.061281177249208965
0.07787258148204237 -0.1243770226178212 0.061443709199144304
0.07746711155499063 -0.12388372499788404 0.06161945426891774
0.07678130177171477 -0.12337042736427074 0.061262002428447294
0.07633802888954504 -0.1228048213571103 0.06144231539057685
0.07590649913273778 -0.12218306007894349 0.061561579909114775
0.07550363562713902 -0.12155979543380889 0.061664161662563215
0.07516480966177463 -0.12095674556298076 0.061803540809965175
0.07451173142879086 -0.12025838988414167 0.06139675015147715
0.07413684662564941 -0.11950932268170145 0.06153417995660047
0.07371128194373015 -0.11868927089968154 0.061600704562643015
0.07332055402408347 -0.11784747716781378 0.0616182550522954
0.07296182026021002 -0.11697555730203114 0.061613149094330834
0.0725777575636625 -0.1161226430621281 0.06163162561747886
0.07220187191991467 -0.11527076697124503 0.06169460313186331
0.07180203259580605 -0.1144529845469158 0.06183487477624286
0.07150987980255617 -0.11378840704605932 0.062061888116018975
0.07008235525857803 -0.11228500625881556 0.061625919047356814
0.07087209390400381 -0.11289527171405349 0.062083019843117926
0.07025560407286646 -0.11205485621414016 0.062085913882027464
0.06947897121966824 -0.11148144489015278 0.06161712361402907
0.06897737726208693 -0.11064138539957016 0.06161719822692483
0.0688634714888238 -0.10999909023246862 0.06182797055186493
0.06861396886250447 -0.1093362824252731 0.06179703238661249
0.06830804639695588 -0.1088055068150472 0.06150252424282284
0.06870609253744536 -0.10893374983352458 0.062058048328844616
0.06837767293343067 -0.10790930097919782 0.0619677970740653
0.06794925941680856 -0.10687372727305247 0.06187482128425028
0.06743142014449466 -0.10587826094009732 0.061809687918215776
0.06690107456063354 -0.10487702781397369 0.06176474709662169
0.0663196763676111 -0.10389791118491473 0.06175802856630932
0.06576630748192377 -0.1029231752705482 0.0617838780912795
0.06524327603351728 -0.1019670405638377 0.061839912284267
0.06478866981219804 -0.10106113352063442 0.06193409313981597
0.06432555064108153 -0.10016186407199426 0.062004077393163985
0.06390702305749439 -0.09924215022819877 0.062093604404425864
0.06321434942228926 -0.09829762399071638 0.061359556400068314
0.06282239787110476 -0.0973250062055064 0.06153875549552802
0.06245391968378339 -0.09637204624561793 0.06179189730350869
0.062235581412730966 -0.09545420368665168 0.062055592853544006
0.061525986967595835 -0.09434592878211222 0.06138700802209985
0.0614243820116221 -0.09355392280588737 0.06158833594082231
0.06138446335728867 -0.09282419728637138 0.061876396648571266
0.06138621773577025 -0.09223861372841945 0.0622056056359135
0.06751650577144114 -0.14358916388817425 0.06157231931092515
0.06814452848401818 -0.1429989602002394 0.06181752590954696
0.06920931600062274 -0.14208703876639106 0.061918578029120035
0.0702928249556927 -0.14109802784292144 0.06194805128553232
0.07124680957756968 -0.14012461495578402 0.06198752121763348
0.07201914655708914 -0.13934160257124384 0.06188681108232307
0.07159626598131819 -0.13978575319058686 0.06229749670324938
0.07231968657142823 -0.13898471315678523 0.06220789462309157
0.07313677274308057 -0.13803223384758714 0.06223326820466342
0.0741576237396198 -0.13706271229455042 0.062181795570500235
0.07520543844684528 -0.13605438219582483 0.0621217115492738
0.07626950614246329 -0.13507176087195435 0.06204921331688668
0.07739498274829512 -0.13417913149142346 0.06195511276977456
0.07837740915487304 -0.13333465083212004 0.06189345216807091
0.07913458006134812 -0.13256930818617793 0.06185274907296308
0.07979862068729193 -0.1319118216316818 0.06182556450595953
0.08034142595533462 -0.1313345158640461 0.06181304595010146
0.08072097746440374 -0.1309125519392723 0.06174007498091583
0.08042477349548317 -0.13110249761872114 0.062022660063022185
0.08070336811967783 -0.13069353206887335 0.06192325477221709
0.08084256306941003 -0.1301291464261952 0.06189552907646421
0.08091168629674421 -0.12956432681174868 0.061871728068891664
0.08088188074010819 -0.12911179264704883 0.061787259349435165
0.08086100060295465 -0.12926674124987458 0.06201927139914398
0.0807546177599755 -0.12879986375165745 0.0619340264455188
0.08060420056219081 -0.12819349778949174 0.06193473294143926
0.08047089550038036 -0.127653181403491 0.06199504911181506
0.0803007708215501 -0.12722664124132854 0.06206655725263199
0.08000840433743399 -0.12672446961817663 0.061748474258105306
0.07971157521432706 -0.1262546830018532 0.06187874015038971
0.07937431195974282 -0.12576625634511973 0.06197204666035738
0.07901618059187925 -0.12533504006938542 0.06209747755120358
0.07849357552882107 -0.12487291174978077 0.06179580870600723
0.07807847732085939 -0.12438494030684576 0.06195514780115259
0.07763943843610144 -0.1239102436363412 0.06212811031080963
0.07703266843243163 -0.12336727430347973 0.06181589132657287
0.076560346023376 -0.12277093780951526 0.06198231829584237
0.07607277731770863 -0.12215145900101697 0.06207710172814712
0.07567948565897487 -0.12155592511182468 0.06215281960763709
0.07538942209501766 -0.12109735170646375 0.06224689302607262
0.07486820357854386 -0.12038434554979564 0.06207927823892296
0.07438223927349921 -0.11947232218174983 0.06214080391182606
0.07394424641193822 -0.11861277388321115 0.0621575946440103
0.07353179007779001 -0.11774838823702206 0.062176677261878775
0.07315385343822142 -0.11685751979356371 0.06216456315763272
0.07277202429047659 -0.11598896070948507 0.06219009683318508
0.07240686406850291 -0.1151425513344677 0.062284726803688274
0.07203815241041456 -0.11436297550551433 0.06243850845309422
0.07166193751646736 -0.11359244330786027 0.06258250556836327
0.07134048474053128 -0.11292103319727136 0.06276445642202698
0.07001893557208048 -0.1115240604094597 0.06227864862687455
0.07071875805986652 -0.11202353031022803 0.062739388659087
0.07009530368355416 -0.11119197109505163 0.06263369476776431
0.0694975481369851 -0.11081408157573726 0.06216817013854442
0.06933214359163355 -0.11019616138365095 0.06232886565757053
0.06900821161942582 -0.10966809936284734 0.06217209336230995
0.06949642008203548 -0.10987134957031348 0.062686323047653
0.06916812280358275 -0.10887197685230952 0.0627409630894918
0.06877756546875043 -0.10787135777595741 0.06271511422720587
0.06832184086053592 -0.10686215691662714 0.06265856423663764
0.06777207748790438 -0.1058685738023426 0.06260320481838964
0.06718389853066462 -0.1048850310861146 0.06257637420899231
0.0665768368968964 -0.10390956737708067 0.06257484213997305
0.06598905201164564 -0.10293636381720482 0.06260593768769071
0.06544587846519184 -0.10199199886762075 0.0626695438514553
0.0649762417732952 -0.1010516302005349 0.06274255518580492
0.06452937617366827 -0.10013368568839004 0.0628312857989802
0.06418384383044644 -0.09927175978306835 0.06295498604408628
0.06358104268820705 -0.09834111259939596 0.06226327640443965
0.06330694125345819 -0.09750548645276803 0.06252216737425673
0.06302703641201364 -0.09662286055423552 0.06279810440578977
0.0627953586454112 -0.09565776953008864 0.06301184878329773
0.06206585140952455 -0.09452122194800185 0.062273991764375786
0.061859574371145504 -0.09357528237744239 0.062468788114233315
0.061654414806015384 -0.09261350775591261 0.06269781399630144
0.061480619822119484 -0.09208122143059208 0.06256399656813397
0.06770164304527528 -0.14345816579270615 0.06236440158136961
0.06837179108413768 -0.14288024417278217 0.06257642555962711
0.06945834291035848 -0.14193886461175798 0.0625995362478925
0.07036284573380537 -0.14104973062550732 0.06255393878172394
0.07102079087760953 -0.1403952616539245 0.06254196710846646
0.0704799426285299 -0.14092625976716067 0.06298215174602292
0.0712824359301115 -0.140065660050578 0.06289236647837526
0.07213672220436493 -0.13904156047821756 0.0629055706308801
0.07307352255666077 -0.13800563425439039 0.0628618958966686
0.07412141362395921 -0.13692539914349627 0.06276733476284314
0.07516849404954387 -0.13590014112330143 0.06271939073578531
0.07634669204938699 -0.13483550641037084 0.06251607152312202
0.07736362740619589 -0.1339426508191758 0.06240862700815915
0.07830289407207201 -0.13316629514401127 0.062347164633382614
0.07908256148386039 -0.13244372239756846 0.062257496120960105
0.07971640782236603 -0.1318483571139196 0.06220297683309019
0.08008967827264253 -0.13144346530477877 0.06220055146799414
0.07962764343594318 -0.13174972580089614 0.06249588725126388
0.0800449370625345 -0.13126449854097502 0.06242109694983394
0.08038953269331865 -0.13068181268114837 0.0623799740921458
0.08062285692255237 -0.13008269547291568 0.06234830324590166
0.08077974029099992 -0.12960496994885817 0.0621951505765903
0.08055790934737304 -0.12982180406830995 0.06250459484725533
0.08061794438466452 -0.1293366162560158 0.06238708265108753
0.08058896927226665 -0.1287395344462894 0.0623813020358304
0.08050834623440555 -0.12815458319131545 0.06237112469760453
0.08041295124772661 -0.12766952270434379 0.06237056681239522
0.08026227785183415 -0.1273544597718439 0.06242435494768848
0.08001425802698363 -0.1268373476289411 0.06228254869548958
0.07966094815333176 -0.12625325451173716 0.062334101451988165
0.07933890595436006 -0.12577483992936617 0.06237173434770468
0.07905382721321698 -0.12542501385285268 0.062459883969546964
0.07860054030445124 -0.12494744320326048 0.06233307169969719
0.07809076187402926 -0.12440397093981195 0.06239152775325128
0.07773624708964841 -0.12400853184268433 0.0625081083399082
0.07720274441739401 -0.1234337100423349 0.06241163141345254
0.07660040028510733 -0.12272044886593564 0.062493652280408374
0.07609702720875944 -0.12204284160470151 0.06256573726017389
0.07570826221675761 -0.12149574450632476 0.06248364947153766
0.07583882725394049 -0.12169948657200712 0.06274628251851633
0.07542183423759094 -0.12110709454908301 0.06264548619003045
0.0749228407777819 -0.12025616627597076 0.0626701733757051
0.07446339120043334 -0.11939347970372147 0.0626880372320554
0.07402573817622364 -0.11851874854150685 0.06269769834296322
0.0736032976175959 -0.11760670800167357 0.06268976540519945
0.07319959442443542 -0.11670731947941645 0.06267811459733708
0.07283614625578141 -0.11582821305728916 0.06273494450126396
0.07247119859775769 -0.11496730630545779 0.06287112344908438
0.07212209107737069 -0.11414597011669067 0.06300642760499728
0.07179164001547483 -0.11339605665801082 0.06313722838583996
0.07142043227435846 -0.11264649227394344 0.06328029913637388
0.07107765422608091 -0.11190841099710934 0.06340444112364438
0.06976582655023901 -0.11061336780624291 0.06264063769149246
0.0704141523486777 -0.11095168552304642 0.0631855027253757
0.06996987517768713 -0.10980090355785006 0.06337036584414409
0.06957495526516146 -0.10881103248833 0.06343796224263828
0.06914282723565239 -0.10782333168378076 0.06344944031145253
0.06863166208679147 -0.10685196475983265 0.06342262936678592
0.06805219543084444 -0.10589656631693214 0.06340233727575398
0.06742775844575011 -0.10492324619325859 0.06339394877911966
0.06681923922288562 -0.10395763960381148 0.06341015993315101
0.06622279480523645 -0.10296145270552305 0.06344148343093216
0.06567602414912764 -0.10199592425016807 0.063499822438715
0.06518216009095629 -0.10106234838978961 0.06358530876381507
0.06476948304552331 -0.10016917209202307 0.06368622080054949
0.06443257515138076 -0.09933735237174085 0.06375093164166543
0.06392464836123675 -0.09849945665903305 0.06315426546634846
0.06380311565055495 -0.09781179852151542 0.06358543822596867
0.06349604065383155 -0.09677258114946731 0.06376931921647808
0.06321825251624523 -0.09577620360381296 0.06395018730811647
0.06257195745464011 -0.09467382940081094 0.06320441928980365
0.06234121633284767 -0.09366865664508352 0.06341190450134696
0.06210487217530804 -0.09275067947370871 0.06372391902372562
0.06171066594910066 -0.09216595818608196 0.06319300617747842
0.0671829255768933 -0.14404620915858474 0.06400456246061419
0.06767783833896936 -0.1435305728793022 0.06328283291107809
0.06767643109236546 -0.14358135842507028 0.06400824464017896
0.06858158739873887 -0.14276539348499875 0.06328888406512338
0.06870908871248685 -0.14257726615259528 0.06394834646034846
0.06963081346560442 -0.14176836843619725 0.06319641404853275
0.07000814508270765 -0.14131602542391006 0.06369820893396133
0.07105266894690468 -0.1401484492146354 0.06367082298117226
0.07196377750426985 -0.13906852844730302 0.06361155098373271
0.0729294319058574 -0.13793762113572683 0.06354683249954739
0.07401522617091601 -0.1368641552188292 0.06330303208196125
0.07465145748158646 -0.13623498710151186 0.06327514124192464
0.07397680428828354 -0.136790843193704 0.06366423238397287
0.07454364851702314 -0.13616399149991476 0.06365385877409706
0.07543477179920263 -0.13547492326482447 0.06308663819247128
0.07535598177752328 -0.13529123315479663 0.06355952579226957
0.076344226752264 -0.13459076976341805 0.06296694530368045
0.07627587518241581 -0.1344322100227866 0.06345084831664285
0.07732592359319451 -0.13376871526162382 0.06287605239111843
0.07725828166176768 -0.13360504852899538 0.06331302471658207
0.07825283798552876 -0.13300741371819635 0.0627682293589926
0.07814894339979489 -0.13282190288110807 0.06317025816000017
0.07901760663837035 -0.13228318015523638 0.06264209960177078
0.07907477192847313 -0.1319950454250474 0.0629495056346353
0.07963255450180048 -0.13130472162986231 0.06289861656872886
0.08001182672897143 -0.13067678739703786 0.06285787944187321
0.08030479547048157 -0.13017113082593162 0.06273582849656459
0.07995418766083691 -0.1304375455544854 0.06304722452545818
0.08016333821407028 -0.1299439751657215 0.06291248039114922
0.08024777571526782 -0.12932420574374104 0.06287428042432122
0.08030182196218699 -0.12869868179889862 0.06280240079912301
0.08028681795964274 -0.12810835667864826 0.06275245822044927
0.0802717141212099 -0.1276629023445314 0.06263091951910835
0.0801009307083627 -0.12787341668951388 0.0628871393473787
0.07997623850392606 -0.1273945066737176 0.06276193697060584
0.07969183929809405 -0.12677231987274967 0.06272965281606921
0.07940769189650967 -0.1261733732906904 0.06272141130585256
0.07920505073825582 -0.12572618604847435 0.06266194151448344
0.07911661493947605 -0.12589263375331486 0.06288942103400064
0.07881299165858745 -0.12544345475534552 0.06280130137377228
0.07828310841835842 -0.12484800331574121 0.06278705409557118
0.07795514989280389 -0.12435892723681961 0.06272134119188755
0.07792993001389405 -0.12452449618936642 0.0629701099687989
0.07755286038485644 -0.12400867139430494 0.06289958966600061
0.07696891253292182 -0.12332408381896891 0.06294100045484345
0.07644312060768038 -0.12264649199851076 0.06301414295797236
0.0760885233187937 -0.12209605828137869 0.0629404396500071
0.07614411014160447 -0.12234481779133832 0.06321996895843324
0.07578193939313256 -0.1217782864431806 0.06313273716713542
0.0752887067687764 -0.12102376233070307 0.06317284243728709
0.0748513375959736 -0.12019123895276596 0.0631975071671563
0.07440803838103659 -0.11933627315961497 0.06322795513555289
0.07393594616931784 -0.11842065239379755 0.06329664275986721
0.07349258986814597 -0.1174093907307392 0.06319166346125148
0.07310184412296948 -0.11652555053597351 0.06320339757479665
0.07275193984882042 -0.11562950396054034 0.06329673149401063
0.072394529703329 -0.1146577715203977 0.06349317130882805
0.07209579029652273 -0.11384627975102969 0.06346479920535356
0.07181734543899035 -0.11315931677257914 0.06368883053032368
0.0714713528700156 -0.1123470681726966 0.06384554634811751
0.07108231878884276 -0.11152071363215052 0.0638896078607493
0.07067406229510083 -0.11060691212379752 0.06396437689593444
0.07027652958414542 -0.10965691000294421 0.0640740923128415
0.06986781367258328 -0.10871894254556141 0.06415691449162898
0.06939321203640247 -0.10778052516230507 0.06418806116702144
0.06884656967802011 -0.10686221824813323 0.06420519760560443
0.0682563983300448 -0.10592997429013014 0.06421955255147016
0.06764902436817967 -0.10494229755175227 0.06421452483168252
0.0670397075987696 -0.10396044553682139 0.06423569120181587
0.06645224303834507 -0.10298378752645902 0.06427993205287824
0.06593949010455716 -0.10203551790894519 0.06435667717154361
0.06544633356971134 -0.10109067650375589 0.06445596853253296
0.06501030851870762 -0.10009852131334057 0.06455495464503183
0.06455691680485245 -0.09925213772494541 0.06430668301803416
0.06421955590350845 -0.09872013983563209 0.06384813131122502
0.0643945093834082 -0.09864783396741669 0.06442485513704158
0.06416206552275734 -0.09779265366053876 0.06453812720008605
0.06387561740328752 -0.09682268314030446 0.06468930966487015
0.0636115800760745 -0.09586291740480875 0.06486079444498437
0.06300588419566747 -0.09479947896188537 0.06414771658790039
0.06275182940789971 -0.09381704390091168 0.06440443193913932
0.06247774299605239 -0.0928024546909287 0.06479854693422747
0.0619794611781318 -0.0920310659221008 0.06416123860911858
0.06197937707065068 -0.09130933659875153 0.06474384569506593
0.06714335598139755 -0.14407178125439668 0.06458675552256846
0.06769178408015952 -0.1434786327579293 0.06470650660589843
0.06875240198383827 -0.14242643993570553 0.0646388933044374
0.06987475067038347 -0.14124925577208117 0.06450943844867192
0.07086127328894756 -0.14016155230560431 0.06440543028109473
0.07175383002427792 -0.139087456473928 0.06433389602309884
0.07244168512191779 -0.13824701527190908 0.06418198709487963
0.07187487779503539 -0.13875667247802703 0.06463645673250927
0.07246030317582296 -0.1381295788951688 0.0645450760680161
0.07319893256567592 -0.13750586376435808 0.06390244615461493
0.07344871527391111 -0.13712795459304658 0.0642665190177071
0.07426633147665013 -0.13613688702921373 0.06420517383551015
0.07515478968683809 -0.1352010716218015 0.06410151049432164
0.07612987205884243 -0.134292567282862 0.06394810777782811
0.07712106331145036 -0.13345593897113692 0.06376952639286951
0.07799821122863053 -0.1326826213806832 0.06359734582294517
0.0787202045890896 -0.13195931725033402 0.06345642845199227
0.07920949210424942 -0.13133482685147796 0.0633962333365211
0.07961152306471879 -0.13084425614358244 0.06326885853372996
0.07914640148386733 -0.13114069940815576 0.0636033899019023
0.07945444051084596 -0.13062656922815932 0.06346434579658862
0.07963035081618383 -0.1299825055834687 0.06343090525179296
0.07976694458498797 -0.12931612755615027 0.06337476454534424
0.07996498284012754 -0.12862714194947988 0.06313435792809043
0.07999144496391393 -0.1282104878741153 0.06306900025959347
0.07969444998897178 -0.12851341944729822 0.06337749764457519
0.07965990999873257 -0.1280250535374061 0.06325982607870943
0.07939405863659757 -0.12734712300688397 0.06322172102008006
0.07929564570850432 -0.1266785531878876 0.06306948765089403
0.07914050109787919 -0.12623527445770935 0.0630297247364693
0.07892211870188905 -0.12652071467130271 0.06328623764711612
0.07871701494176007 -0.12600442189581879 0.0632001172480973
0.07827621717157804 -0.12540537387037992 0.0631837583065616
0.07802747552857729 -0.12489487950407971 0.0631110957824228
0.07787589204661724 -0.12513669186913207 0.06338039588552408
0.07760843169187215 -0.12460202801389204 0.0633168591545364
0.07711857487487371 -0.12392704350509433 0.06334621057320752
0.0766501730652599 -0.12325410923489233 0.06343033298510065
0.07632935340288075 -0.12273302982863026 0.06337717128490314
0.07631383108506902 -0.12298519712736733 0.06365551505322053
0.07598588728449492 -0.1224580568410392 0.06359131402697366
0.07553465272567372 -0.12173636902229872 0.06364790579202825
0.07509674288567883 -0.12097751835602605 0.06369587987074542
0.07466849243681774 -0.12017637435549977 0.0637354410349073
0.0742404176234903 -0.1193606900764046 0.06378578327959378
0.07391352094041652 -0.11870140900558811 0.06377356924590828
0.0739901076879854 -0.11911237447240404 0.06406059654712354
0.07369554469872379 -0.11859765200698683 0.06410051418155913
0.07362202569240872 -0.1180309567830625 0.0636809580108934
0.07332218391024246 -0.11787731502845254 0.06411271441132041
0.0732580388291043 -0.11720295640116064 0.06366043928011911
0.07295140914439983 -0.11704995690616085 0.06415451533334764
0.07288396336784483 -0.11634186426348175 0.06371832778935152
0.07258145689942722 -0.11614317439343251 0.06426868162239133
0.07256282649821527 -0.11543289805114222 0.06385742488444343
0.07222783542138866 -0.11512928276453928 0.06447213610555108
0.07231136962818827 -0.1146778905743226 0.0640292654372816
0.07207536279836 -0.1138631779895966 0.06401156452102881
0.07170604131799764 -0.11280305450814947 0.064362040510781
0.07139114732388847 -0.11197913637713663 0.06433062531001423
0.07113108900774631 -0.11123980938624074 0.06449180247599826
0.0707942385660209 -0.11038713940669058 0.06462398190608185
0.07045861453480139 -0.10951756536832669 0.06475574962463786
0.07003983258658986 -0.10862314588234015 0.06485446622811808
0.06952488373379044 -0.1077550528263261 0.06493062819857262
0.06899189358243629 -0.10686079577029695 0.06498459591962488
0.06840214421522166 -0.10591146411207664 0.06501378715635667
0.06778925607765351 -0.10494821349846647 0.065037524678605
0.06722379859578986 -0.1039825756367063 0.06507378437750155
0.06667904032832701 -0.10302982901216055 0.06514457143238456
0.0661914118882193 -0.10208165152824268 0.065239293275445
0.06573862459058075 -0.10112447892003208 0.06533757376901449
0.06537520939982784 -0.10026315142963856 0.0654274925167651
0.064872558905787 -0.09944896587872624 0.06492296876953432
0.06482111002678244 -0.09879100217315603 0.06528700174963122
0.06455693855926346 -0.09778303108553085 0.06540615092771597
0.064282074174599 -0.09682569196542867 0.06554855086869017
0.06399620057361202 -0.09589816377208218 0.06570361646248292
0.06335846045058335 -0.09492437572424847 0.06506932437273859
0.06314206236758947 -0.09403997897154748 0.06536817307242368
0.06298749565307415 -0.09329297549105336 0.06570569922862078
0.062136121190694615 -0.0918355168076402 0.06483142728393133
0.06254500987454523 -0.09221367687938356 0.06563223743692131
0.062135982450727927 -0.09134881284699249 0.06522178786080647
0.06204878438674265 -0.09085088721234372 0.06543292267042974
0.06708521574236398 -0.14401403472130853 0.06531067506602173
0.06760531217803209 -0.14340567660383374 0.06545273654947607
0.06862064820243725 -0.1423353238475743 0.06536371711510712
0.06969894669011244 -0.14122076169514075 0.06520428625794757
0.0706642216511693 -0.14017003581663315 0.06510042970026315
0.0713064116012958 -0.1393479397201009 0.06492673747819865
0.07082490244092035 -0.1398133371620634 0.06539454278790215
0.07143654374004209 -0.13905499265199514 0.0652251107383135
0.07229375049884258 -0.1381058334382777 0.06510749689993962
0.07317161009989766 -0.13709093784267384 0.06495637378489279
0.07397239869235168 -0.13610114685814115 0.06484624094518607
0.07489275525430288 -0.13510395834506905 0.06474208016517925
0.07602061177745714 -0.1341230238786537 0.06442513766966862
0.076944412518004 -0.1333119015281452 0.06420507410912625
0.07772746672813076 -0.1325867182399359 0.0640370519348817
0.07836641928837595 -0.13196257652739254 0.0638809976005746
0.07869484476267583 -0.13153029542237354 0.06381785183073208
0.07812909222174107 -0.13190192822661262 0.06418775017283018
0.0785153180923987 -0.13135287762693953 0.0640850319471853
0.07883153457179028 -0.13071021405472386 0.06405471345278992
0.07904390537714484 -0.13006077302715374 0.0640036074072774
0.0792624391341513 -0.12954233964048326 0.06385641996744258
0.07884719484226667 -0.1298854131424118 0.06420726748372486
0.07892574927090339 -0.12945166445703388 0.0641033154152761
0.07951041066498143 -0.12903106374313597 0.06361181911025034
0.07911008666080846 -0.12876169779535498 0.06384479136906167
0.07895299759808079 -0.1280932973877855 0.06373335450083141
0.07889328581017623 -0.12755282108985533 0.06361259095410839
0.0785574878633664 -0.12788780817811424 0.06389562527835142
0.07841766206548238 -0.12745683388146722 0.06383259138010154
0.07891081261315216 -0.12703124338042515 0.0634339258093571
0.07828499488704578 -0.12670047091435294 0.06367470234590945
0.07809469139085004 -0.12596176323294467 0.06352120709912668
0.07788421894663018 -0.12551244073823484 0.06351452496285087
0.07762118479933866 -0.12580863221632974 0.06378408662037634
0.07742450299454035 -0.12525091531203764 0.06375698133431636
0.0770490228645412 -0.12456457722302589 0.06377521342604256
0.07667286145268962 -0.12390103446104786 0.06384348416443375
0.07643623655098875 -0.1233713569705494 0.06382390044137148
0.0763277914162337 -0.1236499348020383 0.06410853915523944
0.07606671972738199 -0.12312690973246672 0.06407955011796793
0.07564539061293801 -0.12244938256827317 0.06415931454889427
0.07524970374563374 -0.12171594626418868 0.06423130242365956
0.07483376565177995 -0.12097132642989862 0.06428659327551216
0.07441738707409593 -0.12019793439960434 0.0643133289835224
0.07413796986533541 -0.11959251597474296 0.06423876044737878
0.07413356849023597 -0.1199129121049147 0.06456298141880418
0.0738555827456605 -0.11930729196515916 0.06450677004057495
0.0734072346060897 -0.11856583076566173 0.06455869038327339
0.07297258117430801 -0.11778217329214757 0.0646084146064631
0.07257623578007724 -0.1169035268092863 0.06470338441002821
0.0722127822555733 -0.11596312714504946 0.06483738337623221
0.07193431823664177 -0.1151298430715291 0.06502828339718622
0.07208368827142758 -0.1142955934872855 0.06441462239007341
0.07180863686203051 -0.1142497162882679 0.06499885142008173
0.0718230503634824 -0.11354282108406613 0.06468063498320033
0.07149084019308188 -0.11320537175239363 0.06535467946035474
0.07158426394490566 -0.11278419450303381 0.06495131200220629
0.0713472331959485 -0.11188656755472726 0.06501749171494284
0.07107502377600732 -0.11095264064612921 0.06505260132217879
0.07081788643439557 -0.1102144147725764 0.06527159436774799
0.07049295861370057 -0.10937714975776855 0.06541657294152459
0.07008478916170265 -0.10854533009890764 0.06555992116029004
0.06958790980066874 -0.10769962897956681 0.06567761984787322
0.06904555677823439 -0.10682337116959469 0.06576539382049891
0.06846882827855619 -0.10590220836153923 0.06582357413799515
0.06790407051623515 -0.10497019962930372 0.06587725093616448
0.06739074752514466 -0.10402371015486823 0.0659358075929349
0.0668993102418355 -0.1030739057773842 0.06601491556110195
0.06642012265375967 -0.1021057037129098 0.06612314236040663
0.06596929160384285 -0.10105909034936265 0.06624649442313049
0.06550926332586472 -0.1001696712293098 0.06598310845304138
0.06517491096390485 -0.09964474498025032 0.06553423027766352
0.06531591073744077 -0.09952652807334857 0.0660661234563114
0.06509396258486068 -0.09866906152504862 0.06613195321520364
0.06485852596156838 -0.09774280866958301 0.06625891740983307
0.06457297964173951 -0.09679217311107884 0.06639068130999948
0.06427885769398593 -0.0958857947205817 0.06646295475946025
0.0637338880928533 -0.09503554847840225 0.0659052393784923
0.06358444596584951 -0.09427247560942283 0.06631649448250472
0.0631695354802201 -0.09316701861966849 0.06646977601859921
0.06278673843082702 -0.09210853559671608 0.06666094578774845
0.06230654733333404 -0.09123214219181427 0.0659743669353077
0.062150108806740226 -0.09043458817219757 0.06640453868548411
0.062109471396681645 -0.0897745145032366 0.06696110140105734
0.06690324094563721 -0.1440007253284443 0.06607397676098548
0.06738797250048897 -0.14338600351533712 0.06626108516009328
0.06852941038752698 -0.14221210862240005 0.06600160083576703
0.0695496290943636 -0.14119860186580097 0.06578698469014792
0.0702237188348374 -0.14047847518318549 0.06569994680527468
0.06952443836102581 -0.14104786409689674 0.06618159900864705
0.07027318485356111 -0.14017562639680015 0.06602860299534655
0.0710982684396234 -0.13913990275295485 0.0659391439632138
0.07195282463920287 -0.13809199359350507 0.06578579915628545
0.07279451268328783 -0.13710542909934703 0.06565117564311236
0.07354383089060644 -0.1361340612353852 0.06554041914526458
0.07423661118988059 -0.13541342807812842 0.0653772121861153
0.07356837002683446 -0.13585800655048752 0.06583735453892153
0.07410333740340524 -0.13534242333563934 0.06576060147678875
0.07500852597690634 -0.13473269717183725 0.06511123710531794
0.07485273559613917 -0.13460987740171174 0.06557818161589929
0.07589842724507356 -0.13395370368619622 0.06487992755451535
0.07567503100400727 -0.13385831109545912 0.06539092352263935
0.07672263789401144 -0.1331849175855447 0.06467752889216466
0.07647194687316122 -0.1330760841113953 0.06515212410998977
0.07749432568310151 -0.13248333227889725 0.06445151221065651
0.0773625705138473 -0.13220908013728705 0.06483105434376875
0.07783346537979745 -0.13146788023861147 0.06474804008689887
0.07817385601512333 -0.13079873499010958 0.06465885061605449
0.07851046540253158 -0.13028202307576406 0.06446861711411166
0.07801853754536481 -0.1305893986498967 0.06485166896021152
0.07826912626026288 -0.1300935066683692 0.06464089749980471
0.07832775559228082 -0.1294602018344665 0.06449768823366717
0.07834365996274974 -0.1288288862120964 0.06434210799762699
0.07840390075388193 -0.1283070870382176 0.06412919074837672
0.07799375703900407 -0.12862263696564 0.06448967508195005
0.07796605809200385 -0.12810418436622711 0.06431459440278692
0.0776929922689127 -0.12746729924689879 0.06423545961140914
0.0775998773084026 -0.12690021439966065 0.06411150205510069
0.07720723027234704 -0.12724235501802936 0.06441044010539314
0.07705633091327153 -0.12676748349414046 0.06437381756492604
0.07763138798119704 -0.126353159007293 0.06394920685392837
0.07694521936069529 -0.1259816803221616 0.06429537568466083
0.07676708713589052 -0.1251699849666046 0.06422654605647682
0.0765632567414595 -0.12451402026996093 0.0642084237208353
0.07635778976664254 -0.12405804727612553 0.06424269001136663
0.07618039898640168 -0.12440918170509428 0.06454438272186862
0.07596735392503226 -0.12384033998669289 0.06454288674269777
0.07561127879232346 -0.1231416018225438 0.064655402259902
0.07526725599986238 -0.12242724471854376 0.06474067339933913
0.07490799177721483 -0.12170275289423763 0.06482330646106477
0.07452230321534276 -0.12096318557753101 0.0648601149578007
0.07426336311139883 -0.12036439621073425 0.0647692863256805
0.07423285202907653 -0.12066872486586985 0.06512013760700701
0.07394529888183368 -0.12007349198870892 0.06502833173049896
0.07351342781545829 -0.11930679496851153 0.06506375866834974
0.0730394652758991 -0.1185393812149676 0.06511052358417292
0.0725877092008344 -0.11770334502988253 0.06519792893943752
0.07213984281153835 -0.11674446593095003 0.06534848580903874
0.07181628221894527 -0.11569194661087671 0.06538683885081066
0.07152110696119171 -0.1146558864011181 0.06558500514507859
0.07143661916493901 -0.11380477813384723 0.06557872568425051
0.07122340099951387 -0.11320136207114613 0.06589463940548045
0.07137762924055424 -0.11242743743360963 0.06540856835219233
0.07110792258248651 -0.11236713828699997 0.06605283118293971
0.07118537660565157 -0.11184223223049675 0.0657042462348768
0.07098347853161066 -0.11094102909937137 0.06580431071869057
0.07071474240175145 -0.10998389558949609 0.06586496442748267
0.07041458558042268 -0.10926873173526061 0.06610418124259695
0.0700486386651335 -0.10845118192499804 0.06626551252103492
0.06957463354341949 -0.10762970439440915 0.06641442592775833
0.06904972915111784 -0.1067827033038412 0.06653825664907936
0.06853700569792869 -0.10589402799293153 0.0666343574437255
0.06800670306473858 -0.10498145387739999 0.06671820203306382
0.06751845239276441 -0.10404395428232394 0.06679822173657805
0.06706540052611892 -0.10309931003399754 0.06689272717988476
0.06663391156284838 -0.10214032694776291 0.06701317266498337
0.06627541154790764 -0.1012243676103763 0.06720665460121013
0.06577153299837046 -0.10030721067314134 0.06662014153211901
0.06555683669222657 -0.0994943845392074 0.06680062663510425
0.06532789064951182 -0.09861406189282798 0.06695224771818149
0.06507760874938014 -0.09766928467070915 0.06710969051336979
0.06474298911544232 -0.09660648710017031 0.06726129003953933
0.06435140099410927 -0.09570307602752588 0.06699688556476233
0.06401511559848605 -0.09518873073106161 0.06654739603995613
0.06407831989267428 -0.09500397765972465 0.06708777280554713
0.06376047242981786 -0.09407740910376033 0.06718287484208108
0.06338259267288583 -0.09303429458600586 0.0673638315890265
0.0629818636978298 -0.09195299577535569 0.06767012333298268
0.06246546415426127 -0.09106780389801195 0.06690535471380422
0.06223774066041011 -0.09014971728334728 0.0673227433185622
0.06211546429576595 -0.08947441088410273 0.06761972440174059
0.06659318285564038 -0.14408553284857037 0.06679701859541241
0.06673372468523285 -0.14377022008690202 0.06698056026470862
0.06629203203624615 -0.1441227627797615 0.06737192648467931
0.0665926155905996 -0.14367829321366604 0.0674280327156822
0.06746069278011031 -0.14300814399030398 0.0667594115459013
0.0674346317594838 -0.14276184168992467 0.0672589952609743
0.06857540689392802 -0.14196445670314026 0.06649422914928586
0.06876206034079556 -0.1414560829863812 0.06692225267865895
0.06977435385134503 -0.14026175507879088 0.06682075944257042
0.07072161789758231 -0.1391556653920184 0.06666632722188243
0.07156978215380944 -0.13813108472951333 0.06651301555430005
0.07237862720687006 -0.1371761309273782 0.06638040394374994
0.07302286815193865 -0.13640343663627308 0.06615303838498993
0.07249424855944332 -0.1368788873481576 0.0666539272842981
0.07309345899985703 -0.13618924864808704 0.06645925264087452
0.07383535178963328 -0.13541454782417575 0.06635452672891937
0.07459881067203462 -0.13461132175735585 0.06618257812062861
0.07539842876063163 -0.13383275426492527 0.0659685767802673
0.07611351939442103 -0.1330152327017428 0.06573059896588443
0.07674067546703357 -0.1322693061048162 0.06554108962800696
0.07718129923054556 -0.1315447143177909 0.06537119315479725
0.07758527862116137 -0.13099150388097316 0.06515709436164076
0.07706400493376878 -0.13130267090314024 0.06558765020505002
0.07740738102713371 -0.13079177315569585 0.06536599560746957
0.07756813766429049 -0.1301739443206742 0.06520141969852536
0.07762623317907438 -0.12954634225347125 0.06502980121402524
0.0777470908849271 -0.12903592580584575 0.06477960153612987
0.07731897842189259 -0.12935022597427034 0.06516320917018006
0.07735257441192567 -0.1288180795265293 0.06494492503233702
0.07712082542467696 -0.1281944603623862 0.06480559841353602
0.07705383539424171 -0.12765339648283766 0.06461825809788532
0.0766737309044624 -0.12796445866078857 0.06497657045298526
0.07659597507929586 -0.12742034612877762 0.06484908509083284
0.07633452369033962 -0.1267412110778212 0.0648483116308727
0.07626822192103473 -0.126183150159111 0.06480977630163783
0.07591584714808192 -0.12650411618331883 0.06512259973751479
0.07580941262940522 -0.1260739003685658 0.06515192237874391
0.07630042841335248 -0.12563593954195834 0.06470361133873227
0.0757512830837783 -0.1254400997159953 0.0651430296627626
0.076230793690269 -0.12497727662326052 0.06465538191237807
0.07569906153810897 -0.12463736395217877 0.06507136482794411
0.07542609127704245 -0.12386870632556618 0.06518557448318528
0.07515766929479833 -0.1231238637016836 0.06527073985377248
0.07487294543603425 -0.12240089528730808 0.06536237005721077
0.07453553752792583 -0.12168692053938586 0.06543117435907597
0.07432696209044598 -0.12111807441756277 0.06535648996668428
0.07422349680575463 -0.12140618045132402 0.06570036492512854
0.07399866273793934 -0.12081809690738991 0.06562304413034105
0.07358297900768551 -0.12006615939114332 0.06565891604249187
0.07313931104968362 -0.11930214662269696 0.0657019544437471
0.0726700975344292 -0.11851408433340144 0.06576039613522769
0.07220260743278116 -0.11767585346541092 0.06585445784887148
0.07188232020135346 -0.11699484422637338 0.06585956155894598
0.0718636017270628 -0.11739636636401231 0.06618807403744077
0.0716122150017295 -0.11686018018860511 0.0662808136151871
0.07168306155943356 -0.11629284210098167 0.06583190222487262
0.07131514548073294 -0.1160871799481748 0.06640398156796296
0.071412237298257 -0.11541026900616454 0.0659566296529077
0.07099485476350127 -0.11515800329465836 0.06664321088905584
0.07117096154484898 -0.11463942269104982 0.06616587847065784
0.07106947922350078 -0.11375300272966127 0.06622906175465586
0.07096331427114627 -0.1129014350266173 0.06635816601590487
0.07079639944351032 -0.11233316375265442 0.06669380969282139
0.0709873260311376 -0.11152030013850925 0.06621173164680769
0.07071068156598583 -0.11148157116056029 0.06689349872199078
0.0708084670857899 -0.11092319201918682 0.06654595218758699
0.07058245392500026 -0.11001906674710947 0.0666587181087423
0.07029023467433985 -0.10906567093384688 0.06673133804636254
0.0699447232139061 -0.10835927052300387 0.06697185938759746
0.06951927317118548 -0.107553440073263 0.06714727618567749
0.06903915073763224 -0.10672651900777902 0.06732361580738218
0.0685671564516803 -0.10584865011366879 0.06745539492017896
0.0680769509586945 -0.10495407117990442 0.06755837362532208
0.06760096694793327 -0.10403371079373411 0.06765453536279796
0.06718343540032705 -0.10309665202926258 0.0677618227236009
0.06677308704306695 -0.1021702040772754 0.06791040803370066
0.06642610493748723 -0.10125722748092308 0.06808737751923293
0.06600626084483224 -0.10036308721003206 0.06742794611554946
