# .PCD v.7 - Point Cloud Data file format
VERSION .7
FIELDS x y z
SIZE 4 4 4
TYPE f f f
COUNT 1 1 1
WIDTH 789
HEIGHT 1
VIEWPOINT 0 0 0 1 0 0 0
POINTS 789
DATA ascii
0.06302880978997416 -0.10035691687364809 0.08057687082705205
0.06279851907828082 -0.09940247105404593 0.08064307931823683
0.06256861922082049 -0.09846003022726689 0.08072422624778497
0.06235722608983936 -0.09753246026895095 0.08081972741077784
0.06218697633663727 -0.09658625646450276 0.08094820546594604
0.06200237974137001 -0.0955629520637539 0.08117363569802795
0.06196998560200066 -0.09474108918374648 0.08027958608893694
0.06175078632331408 -0.09377748646826713 0.08059583705333033
0.061532856486023024 -0.0928465064142551 0.08056905801316944
0.06130187394206813 -0.0921570901917218 0.08091333304261009
0.06097907255442499 -0.09123326888251101 0.081121854709073
0.060693736468025096 -0.0902888952991191 0.08130222053526555
0.06069025603533031 -0.08957230420108185 0.08055582492221453
0.060539133823421465 -0.08906438680394435 0.08087313027227294
0.06395746005865122 -0.14175379352558126 0.08113893800359244
0.06415511610468413 -0.1412274316200867 0.0813786518608483
0.06447875240620397 -0.1404011018449197 0.0814715321499901
0.06484593109331073 -0.13953690613808198 0.08157535952836581
0.06516446253234362 -0.13863587056612997 0.08162667636896222
0.06541015413586088 -0.13785395952787582 0.0817682529218419
0.06596871115724029 -0.13594206643348858 0.08074453801856979
0.06572474421294051 -0.1367661675379845 0.08159257217656786
0.06600516139513132 -0.13567946356804356 0.08141836562587915
0.06619773829207769 -0.13488349372906538 0.08060349986736925
0.0663550290821374 -0.13386687883665838 0.0805068439225822
0.06639595302377102 -0.13313701828135555 0.08075951321763548
0.06637384057422692 -0.1322751662054832 0.08106208243280694
0.06628878873239026 -0.13151790488806547 0.08103576424788557
0.06619042680777365 -0.13091975796826552 0.08056807595085146
0.06600887830783592 -0.13019723697838834 0.08047709577157382
0.06581373137618093 -0.1295757679101669 0.08083567377351358
0.06566758666446323 -0.12904850461163678 0.0802477749169881
0.06548962718810766 -0.12844164762701138 0.08059764294916293
0.06513371954451655 -0.12715903994849698 0.08015835653623606
0.06528523735991805 -0.1277537222948362 0.08056413975201225
0.06507794923390814 -0.1269560239550822 0.08096375245042643
0.06494850941024334 -0.12638418119326783 0.08021608207476318
0.0647783704778054 -0.12562362859282009 0.0807201364101344
0.06457202508787004 -0.12399008240674031 0.08010956763620557
0.06462453266246077 -0.12467459547797788 0.08078479352632682
0.06451977379012029 -0.12373925529206865 0.08076953602111624
0.0645200243177699 -0.12302052558134734 0.08003021059849193
0.06449034884918645 -0.12203595409847753 0.0799304200325023
0.06446807431708344 -0.1213152320637235 0.08014043257166768
0.06445348637614033 -0.12049906329161968 0.08027954121787409
0.06442669872311495 -0.11968237393149816 0.08045831140828597
0.06437638699952972 -0.11884676629764174 0.08062586644780224
0.06429636529369642 -0.11801462018727021 0.08078997255957522
0.06418306255217662 -0.11717855777308622 0.08094537627818316
0.06405507408776201 -0.11644454187756832 0.08117822690901949
0.06370054696828253 -0.11483685925657212 0.08041725195541183
0.06385995735267848 -0.11549392106634425 0.08114401366722929
0.06362873992843984 -0.1145209581365771 0.08111470191807645
0.06346213872806974 -0.11380867898495278 0.08036360453802738
0.06324588873168546 -0.11275003476128835 0.08031000233482598
0.06311162155680963 -0.11198116270721181 0.08054004876584345
0.06298568308553475 -0.11111754351815727 0.08068624059977925
0.06290340413575587 -0.11026396370491649 0.08084786499570018
0.06286440349715658 -0.10939416080649642 0.08098891609863429
0.06287131811600775 -0.1085272702987543 0.08110054159751441
0.06292180585168784 -0.10782344358728893 0.0809489065654619
0.06298929279288534 -0.10732888446096787 0.08052876333099443
0.0629838290590482 -0.10739416445130087 0.08131823315005267
0.06311970458082401 -0.10645274966036501 0.08141293023352941
0.06323662163468974 -0.10554350855411866 0.08155840368738645
0.06333100971991437 -0.10472309140573971 0.08162843713331486
0.06341386487257478 -0.10398261106619465 0.08094661136519107
0.06338494442529571 -0.10325428982083865 0.08135307621981602
0.0633087059755644 -0.10224366050494191 0.08143506953887349
0.06315146592984534 -0.10128145561217572 0.08151023187543406
0.06294141973706222 -0.1003226346701183 0.08156557111527293
0.0627060900211949 -0.09935728791481063 0.08162305840061213
0.06247819193415945 -0.09839853795362181 0.08169504115293098
0.062276634965273074 -0.0974622149629926 0.08179000739087716
0.06210672674950493 -0.0965457290132199 0.08192998060424732
0.06196145443333989 -0.09580421771453994 0.0821228791845922
0.0618519685695782 -0.09462790427064426 0.08105868016205389
0.06180708694746873 -0.09493972949003564 0.08187342971322567
0.06170712389355395 -0.09416596779525771 0.08142786603302272
0.06147609363971644 -0.09330847880610987 0.08162099846072049
0.06110674137225443 -0.09212892593529019 0.08190713497998074
0.06075053944715864 -0.09110437016252461 0.08209719064515973
0.0604995985979931 -0.09017040611476376 0.08227665642704284
0.060492774355924796 -0.08947248497984389 0.08154070511397636
0.06042814231844462 -0.08910436575652331 0.0816735284858252
0.06374403087187797 -0.14220962895387557 0.08274717127670816
0.06388124702752083 -0.1418009378765167 0.0822826504379005
0.0641692971465224 -0.14108402156985125 0.08211561823233722
0.06448794599763756 -0.1403267198278447 0.0823259141092419
0.06488572359303865 -0.13938165863160845 0.08239265188877055
0.06518747862068926 -0.138507296476694 0.08243493204039135
0.06544216145612511 -0.13763383758971973 0.08249348455754658
0.06564686270007085 -0.13686560201127293 0.08264707480033429
0.06613568683447825 -0.13500966200210626 0.08167971134708067
0.06592478572341966 -0.13579317638981334 0.08248888917318545
0.06615333644751169 -0.13471539610678734 0.08233883911483728
0.06628455623957277 -0.13396807200657138 0.0815776110817407
0.06636984245128538 -0.13297720980163455 0.0815719925401817
0.06635912615253133 -0.13242721506906557 0.08192671363369482
0.06619931431457289 -0.13102586386636123 0.0814500323109628
0.06630233675873218 -0.13165599665210032 0.08188893119495878
0.06615697917999513 -0.13083664725800875 0.08226814215553546
0.0659986385495816 -0.13019394441805307 0.08153983306666472
0.06576349045209928 -0.12940115388255835 0.08162473533776514
0.06559853761606496 -0.1288281826218207 0.08125989456798893
0.06540442002862253 -0.12815179921361647 0.08124019637092852
0.06522166906788383 -0.12750202673041722 0.08160621882746269
0.06501180541773896 -0.12669676462327656 0.08194235366395723
0.06487833336421814 -0.1261598367549498 0.08128192976033742
0.06471511753810097 -0.12536943962057862 0.08153261392640324
0.06460320409069994 -0.12470190117532791 0.08178149309136022
0.06447247433935135 -0.1231267693696795 0.08106959811900898
0.06450571005441823 -0.12379505764966245 0.0817719621924527
0.06444160631153338 -0.12285112761150474 0.08171074158359046
0.06445094598504855 -0.12214814970927343 0.08095591133794998
0.06443902666248415 -0.12115593911172108 0.08087226363491089
0.06441560444346167 -0.12043316138075225 0.0811330524975909
0.06437984519420786 -0.11955881718162624 0.08133404310674522
0.06432282033116252 -0.11867197657764061 0.08150693668176137
0.0642499141477985 -0.11777326770640538 0.08167552634825863
0.06413822048919052 -0.1169220562438209 0.08179954415257791
0.06400121935727082 -0.11613490788213633 0.08189892036600281
0.06386464730872236 -0.11544817530295011 0.08215253049908004
0.06348157696115458 -0.11387106045765771 0.08143160025727922
0.06364506068147308 -0.1145259215610148 0.08214403733628219
0.0634241738251988 -0.11356653786193699 0.08209819952612325
0.06327124093589936 -0.11286134112183283 0.08134725856439233
0.06308232737200499 -0.11182817441425302 0.08128601035593548
0.06297863510675325 -0.11108723850719171 0.0815523753435292
0.06290034553767723 -0.11021943272038269 0.08172681152545865
0.06285618259701686 -0.10936305353705068 0.0818868188995396
0.06286406236101984 -0.10865540353970589 0.0818099532300054
0.06289842009642004 -0.10811881049065425 0.08148220962042466
0.06292144416378508 -0.10828869480550452 0.08222634958176775
0.06301136984353944 -0.10734632515835704 0.08232424962257803
0.06311299127680498 -0.10640201505249416 0.08244083555881176
0.06320893465547404 -0.10540933957466457 0.08257345480962466
0.06331752121143289 -0.10457099257674125 0.08224647560877973
0.06337760034383029 -0.1040916793525996 0.08170370352631663
0.06333471080246802 -0.10394622046040543 0.08231853767191309
0.06330257601945218 -0.10312517362800981 0.08236032131497782
0.06320946866441775 -0.10221082310730187 0.08244449772487651
0.06303720008758418 -0.10126002962721871 0.08251470970516046
0.06283580406575627 -0.10029459174749378 0.0825628280982938
0.06259756238060901 -0.09931760058153395 0.08261688460617764
0.06238905057602068 -0.09835084897035815 0.08268391603366985
0.06220536045820202 -0.09741326866271527 0.08276938587750048
0.06203758848085042 -0.09648552073513793 0.08286459414630844
0.06184943876070831 -0.09552109551962391 0.08282875343723022
0.061685101105532346 -0.0947476422911921 0.08251742658334203
0.061631858002260245 -0.09424734647824093 0.08203983458152536
0.06155051195320627 -0.09416981145457136 0.08278914169197475
0.06124567494363095 -0.09308513847190378 0.08281402513878305
0.060889610610654746 -0.09200318609590626 0.08295398386875842
0.060567428723952016 -0.09096491652643644 0.08310329579939667
0.06038106683770883 -0.09010964361453115 0.0831689797144123
0.060374974832698214 -0.08954491555534451 0.08241292532448004
0.06385755812189188 -0.14193910297024803 0.08297369201808598
0.06404899575139868 -0.14150683406231865 0.08339257404337443
0.06415068394524003 -0.1412005084456847 0.08295394660555264
0.064613453751021 -0.14007535694789294 0.08326105851164999
0.06495387225307925 -0.13913114186814748 0.08306302195790821
0.06519789531113039 -0.13836042558691858 0.08322918211627368
0.06545344095371096 -0.13747613956020946 0.08329961062768657
0.06568601367992313 -0.13661762770237726 0.08333228554072954
0.0658673299034033 -0.1358515356143573 0.0835091497728247
0.06624003281347218 -0.13405686885535734 0.08261833643390538
0.06610618586586567 -0.13478473121994322 0.08338168283136355
0.06627383874372149 -0.1337523595376481 0.08326147348505666
0.06632002479466442 -0.1330774709745015 0.08257662091591207
0.06632402031232804 -0.1321478359093424 0.08258784415714704
0.06624437628422644 -0.13137624973900164 0.08299209562364886
0.06610443570135915 -0.13063532912745945 0.08305892172524726
0.06596566770366044 -0.13009441213352219 0.08273346042681115
0.06561729245797711 -0.1289223005936519 0.08208127377393754
0.06577376674959161 -0.12944096939432354 0.08241824570509568
0.0655423655433359 -0.12868229752912574 0.0829002162836036
0.06540364999296407 -0.12817362388288747 0.08217612768708357
0.06513920720285404 -0.1271941678721737 0.0827323382499244
0.06494977646462056 -0.1264372361888495 0.08276544719847777
0.06480968110030258 -0.12584172201409352 0.08230337080819147
0.06465732146427197 -0.12511267001039955 0.08226554972327556
0.06455121967649138 -0.12447426539062673 0.08249792760890096
0.06447282556620587 -0.12380397845876989 0.08274832726889439
0.06441381832446956 -0.12223674556501828 0.08195824786428696
0.0644195097257773 -0.12287738256774142 0.08269503624362516
0.06438959139650043 -0.12191498123162178 0.08255472486827876
0.06440999191743728 -0.12134393664343048 0.08177664254131049
0.06437565543102197 -0.12033902594892966 0.0820463160825087
0.06433893194310063 -0.11940140339258593 0.08223824306733353
0.06428545193465002 -0.11845603733865055 0.08241981337052101
0.06419223765651276 -0.11742683803493432 0.08267385635182327
0.06408376643784709 -0.11658770545537565 0.08249294702314289
0.0639675697219372 -0.11591877821757869 0.08270527941480944
0.06379936626224093 -0.11516860592514197 0.08287527113716621
0.06363720907218164 -0.11449791052227616 0.08313693254063767
0.06328911803058027 -0.11293882634576409 0.08236433863738492
0.06343316208993131 -0.11357352255458682 0.0830864143633454
0.06323300513701717 -0.11260408963122354 0.08295733454682794
0.06312863894772358 -0.1120280074330603 0.08218416128422885
0.06298425755725419 -0.11102675765218849 0.08242167332414344
0.06291086947610294 -0.11017515503156038 0.08251839000661705
0.06288242445773685 -0.10957047689564521 0.08260967214359034
0.062871463393982 -0.10902608819169281 0.08233582778965635
0.06292065178828392 -0.1092552602616878 0.08309326921331978
0.06295632428316342 -0.1082847138840326 0.08321794230438044
0.06300874602764539 -0.10733079017024585 0.08332516652866058
0.06307457177619923 -0.10640352778974826 0.08346657310503049
0.06312703499676979 -0.10557119028831935 0.08368015458067028
0.06324598303083294 -0.10470853250648526 0.08299500142455185
0.06324044225343854 -0.10396554112176051 0.08320107390930699
0.06319164755311478 -0.10313280431102856 0.08335124940086933
0.06307312748460984 -0.1022126303021716 0.08346395241252196
0.06290829987928451 -0.10125010682975776 0.0835273307189659
0.06270218608607094 -0.10026767589100587 0.08357664116171108
0.062482095647926596 -0.09928826157696759 0.08362544708990229
0.06229952271152677 -0.09831757920871353 0.08368696346227737
0.06213098149621548 -0.09735994337406578 0.08375839358562703
0.06196257227349889 -0.09633448083284647 0.08384258932938835
0.06181871322537736 -0.09547502012657014 0.08354597713657969
0.06171635032011896 -0.0949494895333194 0.08307412531069648
0.06168595151765846 -0.09489058685753923 0.0837086663270972
0.06140897266058553 -0.09401650811365961 0.08379780362790182
0.06106356471096338 -0.09296359664429113 0.0838866834714888
0.060707178088056 -0.09188240545764272 0.08401248373841184
0.06042114032576215 -0.09081351838470435 0.08415825652893892
0.0603369007512229 -0.09011606017754929 0.08380089133951632
0.06032802443245503 -0.0897400502916469 0.08316891490516502
0.06434781182180978 -0.1407751706894607 0.083796553838674
0.06461301617921393 -0.14010798289234255 0.08411606350855588
0.06460455685926225 -0.14032087455732628 0.0847769990895076
0.06473703942100358 -0.1397531541208437 0.08461924223712512
0.06489798405605779 -0.13924937345631833 0.08390910683377277
0.06525197303268007 -0.13812759956481163 0.08412552891461776
0.06551739549759855 -0.13720973894867738 0.08392248684009462
0.06571988834693385 -0.1364738640812261 0.08410124261359038
0.06593076936752698 -0.1355726485650104 0.0842328266567835
0.06610948768915724 -0.13475943871796014 0.08438316190460117
0.06631794518826999 -0.1331140796362207 0.08356452653414179
0.06627746838173762 -0.13377742483182992 0.08426436029675584
0.06633070253075686 -0.13282425577218027 0.08422256373367906
0.06630707009508703 -0.1321935444605495 0.0836004119614758
0.06625177802763989 -0.13141273463983305 0.08375745341887984
0.06597651093111467 -0.13011957092572055 0.08350540258524729
0.0661328116506762 -0.13072073023979225 0.08386169255415167
0.06593067802598505 -0.12985890418606968 0.08430434134784433
0.0657441677422381 -0.129262205693827 0.08362967903194927
0.06547832447701506 -0.1283959815011853 0.08374332461821163
0.06529888689647237 -0.12780807455377602 0.08337063776218476
0.06511807993235597 -0.12715368973923624 0.08352859638235938
0.0648334585489792 -0.1259163637520712 0.08313911943520477
0.06496050759291518 -0.12645110044358387 0.08367302629319608
0.06478762680791249 -0.12566133172726962 0.08374096498869314
0.06466781439155742 -0.12509893659339275 0.08316110933332041
0.06452611910402427 -0.12425780375999705 0.08319626156961189
0.06445547352564757 -0.12355793801844807 0.08348992392710135
0.06439250361453527 -0.12281115648146823 0.08369600173225053
0.06436410711364292 -0.12111601383101141 0.08276651869337051
0.06435540324205662 -0.12195638411145976 0.08346190933401314
0.06434103217848337 -0.12016469118765437 0.08296241479919318
0.06433931294712077 -0.12092717724554508 0.08368182038998875
0.06431943525754111 -0.11921683621570453 0.08314806449136103
0.06432823887285731 -0.11997737262414712 0.0838594689877267
0.06427072474142748 -0.1182689676994516 0.0833606924019175
0.0643013476316984 -0.11903404612332627 0.08406110793436081
0.0641915201595362 -0.11747701970037211 0.0835929248106246
0.06423670914904936 -0.11801767488940747 0.08434683849298381
0.0641477386382408 -0.11714620864115881 0.08417717539970361
0.06406403591098414 -0.11654312021980003 0.08346537326156293
0.06390447068135388 -0.11564698833490493 0.08341158646553132
0.06375694984911265 -0.11498621752763197 0.08366515516575353
0.06359152194879046 -0.1142272428565526 0.08384110812001516
0.06344533885647675 -0.11353136093962073 0.08406876154286783
0.06311201051770399 -0.11178042384070783 0.08314389720426876
0.06327806229723383 -0.11263898833891339 0.08386663900395123
0.06300082182924095 -0.11081956500449809 0.08322077694657366
0.06311691318424877 -0.11151453711683665 0.08401731993825942
0.06293664408098677 -0.11003445835385067 0.08310056007682133
0.0630025653866981 -0.11033450374879684 0.08394260583815703
0.06295915348510484 -0.10925475070316287 0.08409924473331021
0.06296157721226012 -0.10826120015961886 0.08420452338286429
0.06297961399112638 -0.10731980461837966 0.08431690170961258
0.06300722894529244 -0.10644675795875082 0.08446009222169402
0.06303538599541543 -0.10566672379060915 0.08463836985892606
0.0631469160189849 -0.10482352292296057 0.08393726901941943
0.0631147562222219 -0.10407349032265308 0.08420015334754637
0.06305196405891639 -0.10320827348871052 0.08440018943843988
0.06292804653106933 -0.10223412964171663 0.08450105684826228
0.06277123273373196 -0.10124667442999678 0.08455466091203055
0.06256310650509582 -0.10024997792308132 0.08460434114215908
0.06237238198347668 -0.09926510680334415 0.08465208713473577
0.06220274062007579 -0.09828978633478128 0.0847107472809071
0.06205801089445544 -0.09733357908564383 0.08477683250084182
0.061949642563367414 -0.09651339688956195 0.08487705577045829
0.06183111649400174 -0.09570624573284033 0.08429694347431739
0.061656071122620094 -0.09507936795255771 0.08476803656938828
0.06128052202685775 -0.09397328602166816 0.08485715318205826
0.060917092529077406 -0.09289486714661259 0.08495649599679075
0.06056435309012389 -0.09184493839577335 0.08509223397916829
0.06039128489718767 -0.09102169485278268 0.08529782088859325
0.060341717864898704 -0.09045185647828777 0.0846685077306508
0.06464146596146057 -0.14107368078745172 0.08597825386354997
0.06467697299803214 -0.14097465148747187 0.08611959382962589
0.06470761771249267 -0.1405938852127383 0.08584024570358706
0.06497661422987042 -0.13901372917054755 0.08479443034506355
0.06480867906320843 -0.13977701666708336 0.08535707890869307
0.0652060666717373 -0.13823467104927323 0.08496396633663951
0.06510301709701073 -0.1387811071239978 0.08568251027133161
0.06534488896310042 -0.13786716640646732 0.08542575932624058
0.06548617110230201 -0.13732981106773556 0.08472063216584207
0.06577017269201886 -0.13629590705573905 0.08491071084378492
0.06605055976620788 -0.13525634544045237 0.08512132788430934
0.06621068685316908 -0.1344012883932504 0.08495090220254274
0.06632536882865718 -0.1337642078479089 0.085250940177891
0.0663105463317456 -0.13222033882298248 0.08454926132072302
0.06634854500387843 -0.13280143537809158 0.08518740970539662
0.06629209865879122 -0.13192296755624033 0.08516792264282246
0.06623131218670505 -0.13134625433954056 0.08462612821767207
0.06605768822890772 -0.13029488244317347 0.08491988962398685
0.0658822529509074 -0.1295978873614447 0.08511217578493074
0.06573630042878438 -0.12909887630846884 0.08482763741855952
0.06533669037987781 -0.12784874854155198 0.08417460029257878
0.06550208923780489 -0.12830303905844276 0.08464476701470537
0.06530090525247233 -0.12755957526557324 0.08477620952948924
0.06513713313352769 -0.12707805556094706 0.08430042923697514
0.06496990925887064 -0.12637494243720535 0.08446568692916406
0.06468452810247294 -0.1251115024738595 0.0840539906537684
0.06482942236426018 -0.12563578944589476 0.0846001777267006
0.0646695817833852 -0.12477819886783807 0.08465722780801746
0.06456111895826668 -0.1243033697388375 0.08402241717307436
0.06445909530153719 -0.1232322375827614 0.0844588819951706
0.06437924868537216 -0.12238479678158735 0.08426680950741107
0.06434431330655922 -0.12160276414174875 0.08440231471476876
0.06432865002601289 -0.12070259023804478 0.0845388332248705
0.06432521352320361 -0.11980740593920688 0.08473157285477406
0.06430274825649183 -0.11890827938256937 0.08494831243868176
0.06425534480121843 -0.11814635070559135 0.08522360159402824
0.06406746499898851 -0.11653873269641833 0.08441533302658057
0.06414802042679782 -0.11715656483772856 0.08514416619129364
0.06402266073765688 -0.11622705294802606 0.08502681106365502
0.06390753052595778 -0.11563407822797488 0.08434997671042216
0.06372137282548875 -0.11473428733196984 0.08434864825759535
0.06357474155380617 -0.11402841774871285 0.08465532725422686
0.06340521052253559 -0.11316542292475691 0.08476831815622982
0.06325244877536453 -0.11223429856304054 0.08481788897160378
0.06312376518437719 -0.1112304845999753 0.08490595510711355
0.06303441961236 -0.11018538828495943 0.08498169828439502
0.06297133131292833 -0.10917281852216186 0.08507832098834806
0.06293806433946687 -0.10820798957279738 0.0851630976339114
0.0629350720600884 -0.1072982815278527 0.08525674050783189
0.06294362552204978 -0.10646629877529384 0.08537519030706871
0.06295236238524453 -0.10574215683792179 0.08549329050312834
0.06302753759376156 -0.10497034288406634 0.08489266076808696
0.06296025163202235 -0.10432753439069525 0.08537596040196879
0.06289898541846016 -0.103248814638153 0.08548544788986252
0.06278131268784967 -0.10223479455096243 0.08555247342613458
0.06261866772301768 -0.10123300657142795 0.08559873884724846
0.06242457982399134 -0.10024314146280543 0.08563938655319812
0.0622613423701579 -0.09925120199947751 0.08568980982230137
0.06209619863525951 -0.09825238802389641 0.08575543792654465
0.061984698089858854 -0.09726748275168558 0.08577451634324294
0.06192589381859371 -0.09650521816208477 0.08552818715296152
0.06184809010149171 -0.09596446580683154 0.08506005915616897
0.06179007961047762 -0.09600321631227911 0.08584410926849322
0.06152237491726151 -0.09497475292626267 0.0858548890861204
0.06115745623308315 -0.09391513177639485 0.08592555299895392
0.06080288201398312 -0.09286355297510732 0.08602227848364262
0.06052225375800237 -0.09189710415920152 0.086150241541397
0.06039371125936766 -0.09125210142453834 0.08628027346201651
0.060343033809981184 -0.09067529438111001 0.08543584101104189
0.06479860398526087 -0.14052367650078973 0.08639347426984062
0.06503215785278739 -0.14003214575403441 0.08702972596796305
0.06494946531980346 -0.1397981178374393 0.08634573187550398
0.06524457036928451 -0.13877686731801012 0.08666923194534693
0.06561832531332004 -0.13705525036526472 0.08555383064182107
0.06541016891355791 -0.1378788624324125 0.08615058481626103
0.06589854024708884 -0.13609268613973433 0.0857599424957196
0.0657502535147442 -0.1368879933727006 0.08640980951271299
0.06611845000082907 -0.13528926040302028 0.08595385280099772
0.06608815484343991 -0.1357769221386795 0.08667134047211487
0.06625855294622807 -0.1348799212587332 0.08649894785810786
0.06626121436304547 -0.1344392552490182 0.08578781035380412
0.06639042405395204 -0.13334955660393347 0.0861052489126984
0.06639784364849828 -0.13262038348391517 0.08603998663690873
0.0662541679334223 -0.13135954428727534 0.08555639741211568
0.06633220708979977 -0.13191752948367996 0.08601996036263834
0.06623240561623163 -0.13099179148849338 0.08634521735586703
0.06614617178418947 -0.13061690015065913 0.08568253886919289
0.06577093250761162 -0.12910311344370387 0.0855521705968721
0.06593865462783902 -0.12958282116282138 0.08597757776968201
0.06575681588497193 -0.12881716759195064 0.08614959426592461
0.06560445983787898 -0.12837762171609493 0.08570992892969388
0.06519174059552044 -0.12702766879966 0.08513408204094997
0.06535041101501221 -0.1274496847411006 0.08559753892783743
0.06517097153809936 -0.12670906427047005 0.08571684427572204
0.06501637976430316 -0.126261170945949 0.08522884435329144
0.06487870587670806 -0.12553941190599444 0.0853686574125268
0.06459191174558924 -0.12400258113286416 0.08501826445446244
0.06475143033189487 -0.12477699165666141 0.08550086351546546
0.0645064005145816 -0.12321503821110998 0.0853499489144203
0.06461517697535049 -0.12365424123601147 0.08601002672803251
0.06449902206469176 -0.12284893828185958 0.08591587489299812
0.06441490503751997 -0.12229120752088564 0.08522206462658859
0.06435628487314854 -0.12131716008900167 0.08511446121703652
0.0643568912323422 -0.12055160729991952 0.08536719803229685
0.06433961086547033 -0.11965446890226779 0.08559147297920122
0.06430177835910082 -0.11877078823324226 0.08579926811264679
0.06423645248730703 -0.11788381021330747 0.08595427986352783
0.06415690884187904 -0.11710823565549804 0.08610631082265849
0.06391802506790113 -0.11562267667320025 0.08528311594293851
0.06402544686329864 -0.11619220134033365 0.08597980510449565
0.0638675875510774 -0.11527321260257045 0.0858898988477343
0.06375180831700342 -0.11478457228168441 0.08519466810538588
0.06354549751674146 -0.11370069416833757 0.08560367445531267
0.06337674403706013 -0.11280207622074986 0.08546918722314127
0.06325510987283686 -0.1120070397032405 0.08568426071766257
0.06313678285281539 -0.11103078658334246 0.08582111293779311
0.0630427744660079 -0.11003486839597727 0.08592287469001983
0.06296296543882285 -0.10906330308547725 0.08599573826106487
0.06292183903257481 -0.10812487186807318 0.0860627572168359
0.06289610374081843 -0.10724782981585766 0.0861279583983425
0.06287743877205426 -0.10642386606104028 0.08623856677156289
0.06288470042904784 -0.10573990258810266 0.08611059335643348
0.06293352276686158 -0.1052103996112227 0.08567411953672686
0.06285495265025674 -0.10529860279592813 0.08645394773807956
0.06282878720916481 -0.10426261464011818 0.08648542790846551
0.06275387806499907 -0.10323131791534385 0.08654680204350829
0.06263389641789223 -0.10222552981229165 0.08659056654523538
0.062467067828089244 -0.10121838449516095 0.08664002704647579
0.06228836964254037 -0.10022741923881884 0.08668370286519304
0.062110814278226914 -0.09922548505964163 0.08674841694259383
0.06194369830687457 -0.09819161318164464 0.08683928810368838
0.06191314409049551 -0.09732138773802723 0.08655983478747332
0.061914092908968966 -0.0967709259455344 0.08609542498614524
0.06181483220631761 -0.09677720671380127 0.08675397328338955
0.06163632887844264 -0.09594618007559606 0.08684651838355306
0.0613883861534711 -0.0949345064057193 0.08690162381809648
0.06103430917511246 -0.09388832449906143 0.08697286223170907
0.06072943456113984 -0.0928668849029602 0.08705598916394557
0.06048845465663011 -0.09196814987909907 0.08715358632789097
0.060407026742700654 -0.09150380635972664 0.08733158649538836
0.06519115900261163 -0.1394418455134489 0.08725325555564223
0.06532171536814692 -0.1397172318839831 0.0879639622384254
0.06538944177623836 -0.13871197547600742 0.08737589787740908
0.06546085119698229 -0.139045348813177 0.08796930313380841
0.06560253575712202 -0.13828950341121893 0.0878058768473172
0.06558591776030648 -0.1378155989427231 0.08708772369336669
0.06595838825782341 -0.13668885987275975 0.0872558671178046
0.06622432787096803 -0.13582532244080542 0.08748344212231632
0.06637548615567289 -0.13406577750116033 0.08669900333415875
0.0663830923999363 -0.13477470184552706 0.08744477954226783
0.0664283692325705 -0.13327697800807886 0.08693427807932841
0.06645970834349839 -0.1336067749935408 0.08752379534813644
0.06646453955494855 -0.13289493326091922 0.08749284367596824
0.06641385179191887 -0.1324162656126353 0.08692159562999552
0.06630788443254618 -0.13132946281067506 0.0870365463259257
0.06619316058076757 -0.13059758584100803 0.08709014034390172
0.06608546581801894 -0.1300823124082561 0.08670174862037258
0.06594849540479693 -0.12941778821479277 0.08680376070372793
0.06567024708859336 -0.1282744761742427 0.08652052205570106
0.06581332494669709 -0.12870959209519262 0.08698067401165306
0.0656499605700713 -0.12792616194260698 0.08711212647237451
0.06550040376715795 -0.12750630875012098 0.08663512994053135
0.06507976630179176 -0.126163407940922 0.08604258131771275
0.06524862234795645 -0.12656675809096168 0.08650883040263004
0.0650773207823145 -0.12578878261270438 0.08661258433591587
0.06492966302066781 -0.12542524848310654 0.0860770652196811
0.06478715752468703 -0.12431876845501123 0.0866301159149592
0.06466883305956607 -0.12355907740735624 0.08674108630623771
0.06447094401343588 -0.12225647483628331 0.086129039008012
0.06456977717299861 -0.12278994021330067 0.08676572708141293
0.06448468485366689 -0.12190435527102653 0.0866752117587815
0.06441294298598546 -0.12140897592065983 0.08596469568928483
0.06439000809776904 -0.12039975806185645 0.0862469972646503
0.0643518925514398 -0.1194713752694028 0.08645695026460437
0.06430412674416551 -0.11854763226838057 0.08665051039769708
0.06422836979111612 -0.11756997531440662 0.08686617965705265
0.06413277065017722 -0.11675444321954101 0.086669378143564
0.06404107128001248 -0.116143484024668 0.08694547708829052
0.06371838122415728 -0.11449409600804111 0.08620059803437108
0.06388492964625472 -0.11526871857566083 0.0868086152119208
0.06358167843763433 -0.11372348919969226 0.08648175798065695
0.06369449110739672 -0.11418542794539271 0.08718077419622264
0.06353023711260082 -0.11333546180544816 0.08705803018213268
0.06341585310205673 -0.11285587584534995 0.08633274325030839
0.06326338810380253 -0.11182140111850081 0.08657180914784533
0.06315140650437395 -0.11083502685375118 0.08671428681986525
0.06304679558422462 -0.10986536850176787 0.08681145572138373
0.06296481152903143 -0.10891849973931232 0.08686372024565601
0.06288925931014444 -0.1080007154237672 0.08689393209647148
0.06284171601877966 -0.1071818321397553 0.08688724080388696
0.06282703509571985 -0.10658664767288954 0.08693057513081169
0.06284109924769327 -0.10605503634713832 0.08663921750863499
0.06278760056607947 -0.10625030575262881 0.08739316260203984
0.06274007861887582 -0.10524411176338334 0.08747101080675641
0.06267900593856399 -0.10422070982903882 0.0875276669577032
0.06258980293400694 -0.10320349424421144 0.08757711354466619
0.0624574333954743 -0.10219615511849445 0.08762689964688841
0.06227898056069022 -0.10119867328023266 0.08767630528984707
0.06209799949382051 -0.10021373481425756 0.08771972696266898
0.06192411320559134 -0.09923789840343906 0.08779581153008927
0.061788081499619354 -0.09843600277483705 0.08791900976978269
0.06182534783895693 -0.0976203930246085 0.08732843059669204
0.06163429227848992 -0.09702301975255774 0.08783360147114472
0.0614182048842255 -0.0959325665309884 0.08790394291721484
0.06118284388055618 -0.09489168054280113 0.08794989608458906
0.06088563543694253 -0.09385771560046023 0.08800685158707704
0.06064735697233215 -0.0928598018655765 0.0880547745687999
0.06047240296106803 -0.09196738834919234 0.08807146778536169
0.06041521105450762 -0.09153137477556166 0.08789131410395336
0.06554007330934197 -0.13972737524561732 0.08868548203935687
0.06578219824659576 -0.13946497511813874 0.08921912719206887
0.06563014163855402 -0.13932240195157344 0.0886686179543566
0.06590561944101468 -0.13742251428006222 0.08792000516802845
0.06585783888033127 -0.13830182985667702 0.08857968527508599
0.06620221686513957 -0.13640409826421993 0.08802081863490929
0.0662777309582618 -0.13699903268553792 0.08878642644666179
0.06642918585096205 -0.13546358688338067 0.08811757350028976
0.06646322979304875 -0.13598951248817173 0.08863041367619956
0.06654217718608806 -0.13468424941623144 0.08833148019363414
0.06663652200623706 -0.13505831499885207 0.08895473622508257
0.0666290342570189 -0.1342747007604484 0.08889227391058915
0.06653615316530351 -0.13382724906660204 0.08841690302567415
0.06647027302765345 -0.13233067604733825 0.08781746164972076
0.06650944784085008 -0.13277842540206378 0.08830843558771166
0.06648324553962526 -0.1319792450792292 0.08841173255500345
0.06640078587409651 -0.13150961258631516 0.08795828787834872
0.06612516997255878 -0.13003941553409262 0.08745285963731057
0.06623653004141204 -0.1304899111859676 0.08789401573933682
0.06611211228289102 -0.12972300419829366 0.08801499620093926
0.06598553795504743 -0.12927651899370668 0.08756022073774938
0.0658602868608932 -0.1285617486865435 0.08773641021853099
0.06555844842874115 -0.1273481496662041 0.08745731775811735
0.06572389802239324 -0.12777499447722152 0.08795560435808214
0.06555783462616258 -0.12695282399260327 0.08803245571096256
0.06539994749809935 -0.12657562030844455 0.08753442787993083
0.06498141011140782 -0.125043453911446 0.08703983690635603
0.06517815962708935 -0.12571021276683017 0.08735645072390867
0.06486902485441032 -0.12428421718743414 0.0874562672086933
0.06504690749883082 -0.12468692247966584 0.08802586967115114
0.06486880488378176 -0.12389377464670064 0.08803093792492667
0.06472274132889866 -0.12343537105713406 0.08747270500016067
0.0646171117285802 -0.12268348319053538 0.08750708306209003
0.0644556013064449 -0.12111439917613619 0.08690286524382013
0.06454920497442562 -0.12191370827992298 0.08751096586390272
0.06442050386811836 -0.12017467021051158 0.0871301987847926
0.06448372233362801 -0.12085294257812566 0.0877928462995286
0.06437081511049433 -0.11925117029324435 0.0873247429074996
0.06441147907082569 -0.1199312361817411 0.08798180372115681
0.06430306621254235 -0.11833775479758042 0.08753134394187154
0.06434658969357718 -0.1190266812810769 0.08821210533603517
0.06423600388290589 -0.11758816809672423 0.08771103056800647
0.0642727876283802 -0.11804492000725889 0.0884498799212446
0.0642094152006559 -0.11721980065355227 0.08823631288742637
0.0641538254644895 -0.11678017266766086 0.08751647380701719
0.06401071498074747 -0.11573441369604573 0.08779212486978961
0.06384574166892835 -0.114866101015754 0.08767579448736967
0.06372843167771057 -0.11424126928788789 0.08803996204519253
0.06339497733844851 -0.11253687116636307 0.08728114679525535
0.06354987019190851 -0.11332983790603238 0.08795243336722995
0.06326474182609514 -0.11157088445726733 0.08745951382347734
0.0633864179963194 -0.11224288157784865 0.08818447955697023
0.06314820589965169 -0.11061161204306746 0.08758022498630745
0.06325330523862713 -0.11129840732709086 0.08830218585479525
0.0630415817669619 -0.10966425264494029 0.08766026604848084
0.06313389161837103 -0.1103716797419871 0.08841839975672239
0.06293005199755193 -0.10872071033204406 0.08768430589954822
0.06299325695230669 -0.10942902019415575 0.08848019602645261
0.06283749781609392 -0.10779098096532112 0.0876297109908385
0.06284642949501584 -0.10845475961980852 0.0884701356417509
0.06280757361687365 -0.10703223123356567 0.08743441171558188
0.06275302933677153 -0.1073133480952135 0.08830742508230645
0.06265135828034238 -0.10622371265761718 0.08842767289716194
0.06256367998030211 -0.105194615671102 0.08848693283316153
0.06247117434473852 -0.10416918057785773 0.08854593932913844
0.06235768328032843 -0.10315862529083852 0.08859880838670775
0.06222521122955599 -0.10216619647998111 0.08864612403795065
0.06205822031585295 -0.1011687609872929 0.08870936156069613
0.06187352037953064 -0.10017177647645663 0.08873020161632511
0.06168126932836323 -0.09921366123661467 0.08877823056991384
0.06161639459905132 -0.09846744425164158 0.08860451811674504
0.061690410531901746 -0.0979141410789246 0.08812722672527282
0.06147417641463077 -0.09801419387508928 0.08895324102455743
0.0613413761796055 -0.09694413873132234 0.08893690437289428
0.06116571851319865 -0.09589045226579791 0.08895005014142439
0.0609756704776897 -0.09484668905757583 0.08899261543896476
0.0607488999469931 -0.09382733338924164 0.089030156202923
0.06058343862832767 -0.09284803966754393 0.08901200310045189
0.06049129111811329 -0.09216218703215714 0.08870278108179022
0.06043368351227323 -0.09171731965089666 0.0882657756122336
0.06597878941839279 -0.13887703485656475 0.08935857067248854
0.06611041959038545 -0.139128224735051 0.08989591013243194
0.06629055988949385 -0.13787087007087215 0.08945094860410942
0.06635413309401374 -0.1384868300472226 0.09010890694692161
0.06654818108841523 -0.13695609387566185 0.08958900838667823
0.06666543956443896 -0.1374059135895025 0.09030594843093932
0.06677370331779764 -0.13646636862649913 0.09010584352020522
0.06664804314554837 -0.13600886186030992 0.08943484445417711
0.0667702640190459 -0.13496893981713792 0.08993837489762571
0.0666209697221018 -0.13369169384272633 0.08920842908494737
0.06669257218876254 -0.13409005339864224 0.08970853431862473
0.06662262232980658 -0.1333181220760216 0.08978274275835815
0.06655345415289092 -0.13288173590505561 0.08932499477135057
0.06643964351866156 -0.1313887026005316 0.0887635809776534
0.06650082769116367 -0.13183520760287235 0.08922348664102177
0.06642712418136829 -0.131018006960107 0.08935005274554787
0.06633714818252352 -0.13058772632069723 0.08890214912208427
0.06603238116937114 -0.12918969600110164 0.08836073645669448
0.0661549924237676 -0.12960952963489955 0.08880549534821464
0.06602699987850866 -0.12884171507998812 0.0889446389054243
0.0659125773277083 -0.12847538410377887 0.08843679743388679
0.06579946242562215 -0.12752595232438316 0.08906108060537161
0.06547369779435622 -0.12634933022425465 0.08834165451820555
0.06561819597037259 -0.12671386252076577 0.08884400129424595
0.06546180047555099 -0.12592820424191975 0.08891593053854698
0.06530045666117078 -0.1255711221567911 0.088367425820292
0.0651554216442823 -0.12455722943860313 0.08903893495014167
0.06478959777254191 -0.12331588427688014 0.0882915694698176
0.06493258291337693 -0.12371118477564605 0.0888203590385663
0.06476247229453953 -0.12293418233195502 0.08882708039728096
0.06466334361719538 -0.12256448792131297 0.08821437126545695
0.06454833152055302 -0.12143835820955573 0.0886099317398034
0.06445232107610975 -0.12051338340757675 0.08853512066910871
0.06438143741127297 -0.11974247177722261 0.08883594588978305
0.06429886984403217 -0.11883526905970132 0.08910812628771671
0.06423307533392378 -0.11807508536545856 0.0893154351775156
0.06413346858410446 -0.1164731092818318 0.0884567472383984
0.06418880999802971 -0.11723393081941337 0.08910715169731459
0.06402238504717565 -0.11572041341556326 0.08869132470964439
0.06407615893228921 -0.11616862622720003 0.08944374913800321
0.06396070776451097 -0.11532087709421035 0.08926269143942533
0.06387698307275894 -0.11490209637587893 0.08853934432668498
0.06369951219715211 -0.11389860190303672 0.08881364284546867
0.06350501759708603 -0.11279682635049047 0.08907533327424252
0.06336240640903082 -0.11186336447011053 0.08892599051105841
0.0632431543441406 -0.11105156668417597 0.08915750143474861
0.06307003301170763 -0.11010259044326759 0.08925824646955309
0.0628854259853555 -0.10917733020492332 0.08929718743166777
0.06272668393902978 -0.10820744608330195 0.0893322267856258
0.06257407950167118 -0.10717144904392527 0.08937666063692908
0.06243543633489062 -0.1061420785633087 0.08943505971432789
0.06232089468454319 -0.1051138293880797 0.08949559451400878
0.06219922495149451 -0.10409792659757192 0.08954777098779747
0.062095014301942295 -0.10310932277698709 0.089590509796506
0.0619721848692162 -0.10213214247327267 0.08966754540360826
0.06174102554002351 -0.10109258372059832 0.08980209952735589
0.06160182010687999 -0.10004804323779215 0.08957667284356564
0.061494764470632714 -0.0993796215376133 0.08953651501012946
0.061495525814370566 -0.09880979926116551 0.08918227236023314
0.06134217854380067 -0.09900600502753636 0.08997991537217338
0.061229626466338 -0.09794970831860873 0.08998424644086737
0.061096368135092824 -0.09687151244418005 0.08999747555839273
0.060956381980170865 -0.09582279561734493 0.09000854115440748
0.06078338497278311 -0.09479563838041578 0.0900365546494152
0.06063013342621894 -0.09382134294656609 0.09002621716648514
0.06057291861194137 -0.09312234956073755 0.08971448819543024
0.06053860691999736 -0.09259830534572368 0.08922662811024092
0.0664558870987582 -0.13876907175784253 0.09057954850031519
0.0666975793979212 -0.13814261050872964 0.09081541043544036
0.06689821201023204 -0.13734728930687923 0.09106763845358912
0.0668528589213826 -0.13564341147083891 0.09036160114286108
0.06695217805915511 -0.1363225733271085 0.09106458543995186
0.06685266457623901 -0.13489430640170183 0.09066585876358933
0.06693547836284539 -0.1351897413277853 0.09120524289518249
0.06686953467459558 -0.13451584717899298 0.0912187176520067
0.06677479817734855 -0.13411882181264478 0.09074722691800605
0.06658773346597878 -0.13272841648459163 0.09013929286909014
0.06664357219443391 -0.13315362539153616 0.09062660817146262
0.06657055768707523 -0.1323575742415098 0.09076297895026411
0.06652879212029969 -0.13191546953807662 0.09028741035190292
0.06638974544810747 -0.13043586970963164 0.08972015882118173
0.06646300075096846 -0.13086676265717959 0.09018569866197275
0.06638197077831676 -0.13006292447648302 0.09033050313978512
0.0662881155247462 -0.1296531326861011 0.08983446951129698
0.06596178876543378 -0.12813461090556166 0.08939025877648389
0.06610855523801411 -0.12877815616279967 0.08968133190629148
0.0658900376963368 -0.12741240204198953 0.0898226058359751
0.06603206152920735 -0.12777147153207982 0.09037175849642064
0.06588612234621477 -0.1270016859737075 0.09040120256419965
0.06574892641330025 -0.12664501158587277 0.08988492592933524
0.06535535067672624 -0.12519212674315608 0.08935167303967508
0.06554337223219049 -0.12582174600253587 0.08966678898775703
0.06524588619486807 -0.12446516804163389 0.08978250591358261
0.06538702408798067 -0.12482050567509065 0.09033369883761043
0.06518836723688745 -0.12406999536565776 0.0903635849050535
0.06503465044249537 -0.1236988150914883 0.08984573197245554
0.06465518819520436 -0.12218422336919336 0.08916419585696463
0.06480809426893355 -0.12285571841909508 0.0895812229756239
0.06455007969809744 -0.12142100716208586 0.08949860912705501
0.06458973333044055 -0.12185356117105799 0.09015931385079479
0.06446591171292321 -0.12102298579497671 0.09007040101496804
0.06444583817497096 -0.12057152188774944 0.0893922957818967
0.06431107326403489 -0.11955728217479628 0.0897429517707419
0.06420390922799861 -0.11855054894206228 0.09004297899322096
0.06416399631943429 -0.11771151517279792 0.08984056502780534
0.06411081615267018 -0.11696556323069203 0.09005903442665712
0.06404870922885716 -0.11619678127411269 0.09035603539608479
0.06383566644573442 -0.11452468532077968 0.08950530338547301
0.0639460702464349 -0.11527698129889329 0.09020483814683622
0.0636606910567884 -0.11355944920827198 0.0897618931088966
0.06378653575620621 -0.11418135490745895 0.09045809775170251
0.06352245603170473 -0.1127554875924367 0.08998573697156279
0.0636223654465774 -0.11316844172988212 0.0907136317087376
0.06347243793299422 -0.11233734658446998 0.09055964171231544
0.06337945944899781 -0.11187577810318662 0.08982385336256515
0.06316182048488955 -0.11072976458007044 0.09013306964314596
0.06295706608390639 -0.10979292090867611 0.08994759166130259
0.06276392340311433 -0.10900102969945219 0.09015416366066277
0.06253554733681459 -0.10803051788773228 0.09029046367269801
0.06233230305112907 -0.1070350351829308 0.09036394624439871
0.06219664323132245 -0.10602115799199059 0.09042347279182093
0.06203361967363808 -0.10499939369790832 0.09048523185918084
0.06191488926206071 -0.10400651236184232 0.0905137399270631
0.06182107617668021 -0.10305068252441962 0.09056434369569895
0.061627292157885136 -0.10212656215176838 0.09072813857039601
0.06150139434603328 -0.10137005496771793 0.09071510125123051
0.061450500544569416 -0.100608502576016 0.09042225513462468
0.06132386147744985 -0.10117661729543148 0.09127669118895036
0.061410625753665606 -0.09983134008286286 0.09011104021183794
0.06125787742685288 -0.10009458040621065 0.09100502615373708
0.061123112780455485 -0.09894326578696028 0.09104681260350155
0.061012368162594297 -0.09784459438966055 0.09103806791276021
0.060887869839499356 -0.09677685934065298 0.09101784676552994
0.06077406471582982 -0.09576155710153955 0.09099653824073424
0.060663624159483995 -0.09479532139335263 0.09098242770496974
0.06059649643983962 -0.09412533613428967 0.09072538575432873
0.06058187760239414 -0.09359821117145083 0.09025583869899435
0.06672436306158194 -0.13841212950811627 0.0910701429224102
0.06696115656682883 -0.1376972939220185 0.09140116512459383
0.06710112150973727 -0.13688424656596543 0.09165448940837488
0.0671493690450837 -0.13709250831040687 0.09192152610997643
0.0671479489714616 -0.1361509053443605 0.09190640478478201
0.06721817152214027 -0.13634228520177705 0.0922474452459415
0.06722852262731509 -0.13573815578907916 0.0924042852867871
0.06710140758174547 -0.13534511464496574 0.09203347252538985
0.06681486567314014 -0.1339711996280216 0.09155697257486715
0.06693306992442825 -0.13436833728558295 0.09200251303848388
0.06680235364071346 -0.1336160854780001 0.09214609415020161
0.0666949125421969 -0.1332065821593863 0.09170206984618684
0.06652388111222517 -0.13176334362382436 0.09114276223375732
0.06659348992777367 -0.1321917136734766 0.09160721383100458
0.06653056342442182 -0.1313786104216537 0.09174412954637974
0.06650415474525423 -0.1309435585885944 0.09124699542910217
0.06634325333996786 -0.12945637702479018 0.09068523514643932
0.06641917093028424 -0.12989514070180005 0.0911855161113525
0.06633819631083321 -0.12902631468984052 0.09134349901977075
0.0662243908631437 -0.12865347859164467 0.09071964522479914
0.06611629744801326 -0.1276560982345672 0.09138111364560642
0.06581035136230676 -0.12641048921941375 0.09069746072616036
0.06594241519688153 -0.12679492592353467 0.09122018622839456
0.06578052165983234 -0.12599477728512 0.09131608488996759
0.06563987016145595 -0.12565842620683457 0.09069080123512598
0.06542009231273127 -0.12469670033332689 0.09132259673310013
0.06501937029708044 -0.12349549440410526 0.0906733025729189
0.06514901848942493 -0.12387419277321102 0.09119320386744742
0.06490610083141213 -0.1230821311513257 0.0913085916870891
0.06480131489365105 -0.12272768193524991 0.09064505066005552
0.06452260533701645 -0.12172921973702322 0.09121784217530175
0.06433695487675048 -0.12025947295233053 0.09035823692598172
0.06437876110744407 -0.12096732525890254 0.09085876620478542
0.06421295160166482 -0.11933970087322665 0.09067118497627381
0.06417951101751682 -0.12003735127722186 0.09132465513718394
0.06412518072029368 -0.11857486624724356 0.09090939963646594
0.06401124743951749 -0.11902512749125686 0.09165835390442062
0.06401335057360305 -0.11820414525908679 0.09146033898858208
0.0641053038096173 -0.11774042052695426 0.09068658574247551
0.06403158853938007 -0.1167672022392196 0.09095291434605436
0.0639474679154704 -0.11582087985951221 0.09111713072821948
0.06383562556858187 -0.11473240940331868 0.09132149000851733
0.06373020133449518 -0.11382350230739076 0.09122363573996217
0.06362268296162892 -0.11318549278084787 0.09155852229194988
0.06332405153236861 -0.1115480670359545 0.09080528614957682
0.06347399790005866 -0.11231075132239988 0.09143332744555283
0.06315628865667287 -0.11076644215838664 0.09102959389602074
0.06324050312714938 -0.11123359151476188 0.09173953867352821
0.0630258654719638 -0.11037895216822802 0.0915983837326499
0.0629389559306238 -0.10988607126325571 0.09082605395820856
0.06261346265899108 -0.10883508939754137 0.09109510056311362
0.06232232267993263 -0.10784946692642618 0.09124692565582698
0.062102194901914036 -0.10686723424015628 0.09132144089505256
0.06191810641553186 -0.10585385468003067 0.09139984051984702
0.06172652162986635 -0.10484746850394967 0.09143403972233057
0.06162853605986439 -0.10387375050102275 0.09143859957405111
0.06151760161702858 -0.10299658773854782 0.09145119649708652
0.06139610748146311 -0.10238544191373664 0.0915288866266508
0.061400632970791284 -0.10183154797024833 0.09127472282034277
0.06126134033243599 -0.10207181010079724 0.09205618456845371
0.061177125699765564 -0.10103445263336491 0.09212280757596006
0.061088445367988985 -0.0999341016313577 0.09209812988942045
