# .PCD v.7 - Point Cloud Data file format
VERSION .7
FIELDS x y z
SIZE 4 4 4
TYPE f f f
COUNT 1 1 1
WIDTH 789
HEIGHT 1
VIEWPOINT 0 0 0 1 0 0 0
POINTS 789
DATA ascii
0.06390673379370627 -0.12969291855702933 0.07425220642640896
0.06365183373046686 -0.12887937904917995 0.07394834319205902
0.06383762720855082 -0.12910151021639477 0.07468241618352219
0.06352750620624298 -0.12834992792854552 0.07414527953113724
0.06332579194968917 -0.12759760882361704 0.07432491610785946
0.06307950437093632 -0.12672217263762248 0.07443486138716829
0.06288566672867747 -0.12594104797016784 0.07448540161247018
0.06278902469988598 -0.12538822973493707 0.07461745059016202
0.06259646409947642 -0.12453541680066468 0.0744052115514922
0.06255403591355775 -0.12346476857492515 0.07454312971499491
0.0625572620810721 -0.12244481496365921 0.07465907881825924
0.06256366529094165 -0.12144924635425769 0.07473331694541134
0.06253042277320156 -0.12051489999858825 0.074791502560921
0.062470014292473244 -0.11968310780540903 0.07489468055091238
0.062417060681902836 -0.11895459728976249 0.07510350752322362
0.06204254045577549 -0.11809686194415968 0.07447466153354806
0.061956585218622864 -0.11720869785119936 0.07471220098993125
0.061823901278339116 -0.11622416989208918 0.07480771753376991
0.061701739161279745 -0.11524196044890785 0.07485651480091217
0.06161361956398375 -0.11424981801759283 0.07488534225600418
0.0615558937209387 -0.11323861040834425 0.07488289050162455
0.06151045412104139 -0.11222059469570775 0.07487417215351527
0.061488147730979194 -0.11122082933228178 0.07493958408869308
0.06149101296841132 -0.11028731969380393 0.0750705967433699
0.06148134550015807 -0.10938840621724803 0.07520078568545677
0.06149313271848441 -0.10860673732243611 0.07541975736286635
0.06064524741348459 -0.1067590356572377 0.07479339774937349
0.061214405902631705 -0.10752496039836701 0.07537933380461372
0.06088614014793594 -0.10644384017236276 0.07533358215001999
0.060353847409989336 -0.10566995409394651 0.07487477503653964
0.06002347543106053 -0.10460554108982976 0.07480013139251701
0.06005382661033904 -0.10397911183130515 0.07516440702711011
0.060089963807367745 -0.10329696138472245 0.07558206168569485
0.0671300189032741 -0.14003321693757131 0.07556478833041791
0.06704952381450884 -0.13958123517833626 0.07529033593735424
0.06687140331821204 -0.1387917337950989 0.07501853561997797
0.06664698907552537 -0.13788969794554917 0.07483382663661244
0.06642440639932566 -0.13705493304484964 0.07478636786779652
0.06624189848869305 -0.13648916300383362 0.07471712013426418
0.06596230889721018 -0.13583142040994928 0.07457268173806463
0.06563417703505055 -0.1350573367321386 0.07442447022590365
0.0657958503945513 -0.13534982150662878 0.07502264299205469
0.06547226350788365 -0.13458986331322295 0.07481856790854825
0.06508542324238822 -0.13362788406613185 0.07493067852988049
0.06475656290119026 -0.13282048895905094 0.07468468741598462
0.06494064849633345 -0.1330863244417838 0.07545224175948263
0.06464010700349507 -0.13231631400523958 0.07490504350143079
0.06447163109045824 -0.1315568363694023 0.07504390385331328
0.06427826710295664 -0.13066124673367263 0.07514930956987526
0.064107811616212 -0.12988654373509978 0.07526742584010983
0.06403716053682752 -0.12936809712199843 0.07546274547469768
0.06378253729528018 -0.1285388245000112 0.07518180792774873
0.06351299606099833 -0.12756009512177754 0.07527174144740151
0.06325425175573103 -0.12664462421932327 0.07529604072294954
0.06300496851895684 -0.1259197403419667 0.07507251175232213
0.06322107309181327 -0.12620939622012534 0.07562736913934703
0.06300860334327658 -0.12544576165823668 0.07538927430512968
0.06288937263145347 -0.12441927975473399 0.07539720477919398
0.06285030124945852 -0.1233945223666602 0.07547271331561103
0.06284562551280226 -0.12238842524558548 0.07555458568873567
0.06282975289008867 -0.12142378516455997 0.07561863161392213
0.06278493751494234 -0.12052169059975759 0.07567643034083123
0.06271567001991632 -0.11973897154261946 0.07573066499145889
0.06267161595304217 -0.11918311388277153 0.07587302949017992
0.06242775690134112 -0.11829969349969065 0.07558264257839291
0.06227995332386721 -0.11724148437799475 0.07570352497639758
0.06214822264947625 -0.11623963836051829 0.0757820834292628
0.06206921577519576 -0.11523594303191662 0.07581911937583895
0.062033995133291386 -0.11421765697595837 0.07581716992234645
0.061994463868994015 -0.11318807100546686 0.07578749986985339
0.061991173702464326 -0.11216694207193062 0.07578261554122735
0.061978232805462156 -0.11117213217352849 0.07582733426196848
0.061980597007186444 -0.11021957891001481 0.07591299800505313
0.06196536946180302 -0.10931034537510054 0.07603384420185523
0.06186844665157698 -0.10840288260277081 0.07614994362261351
0.0617998439897999 -0.10760516731674158 0.07635037880274242
0.06081183525058663 -0.1057608426658209 0.07559664019345964
0.06144155058620628 -0.10653186919885843 0.07627340923779355
0.061048735433879585 -0.1054323003428522 0.07617572846279955
0.06045016438318804 -0.10476504451881367 0.07552477609509975
0.06037157096650882 -0.10363643431793881 0.07598225099616987
0.06021997635681454 -0.10285811433744238 0.07605601050791777
0.06031672050349281 -0.1023556167220671 0.07648158952374282
0.06719239843464762 -0.14052333260422603 0.0760574689285924
0.06706755076954488 -0.1397948009275141 0.07579321455027052
0.06687790178226206 -0.1388227764147435 0.07577531584030398
0.06665747351919454 -0.13781667253690325 0.07577344847356124
0.06634087859657707 -0.1367594153291397 0.07543282240707921
0.06657637154097469 -0.13741324429988944 0.07626643436385248
0.06640806585084419 -0.13680787020076884 0.07637950508165788
0.06607771658925699 -0.13601594589482774 0.07560724654913681
0.06617609426698398 -0.13610429410819266 0.0765392761968783
0.06582723876177655 -0.13532295677096132 0.07575544593699342
0.06551565893254688 -0.13455354120893967 0.0758576213238577
0.06524474867525634 -0.13384911865120624 0.0760019231213964
0.06510839454250018 -0.13336195157449537 0.07621963673314279
0.06486312322938925 -0.13254517646603625 0.07597661893803342
0.06463992262476777 -0.13156988700336975 0.07608999796851952
0.06444012025164848 -0.1306425104290764 0.07614528863698511
0.0642299707466463 -0.1299093799267514 0.07593199655252524
0.06440267016786232 -0.1302190049333473 0.07651295191571558
0.06418397236273174 -0.1294612755171609 0.07627673515687139
0.0639405650659738 -0.12847631004491886 0.07628003157312123
0.06370983817458133 -0.1274924826371847 0.07627817583491152
0.06347870218047043 -0.1267371189617809 0.07603375394387164
0.0636810606344174 -0.1270418338189571 0.07660521741010308
0.06347006447387954 -0.1263166432327096 0.07636466809129977
0.06330977763723906 -0.12538110946269226 0.07636775312169657
0.06320343964150163 -0.12439600624459124 0.07641085806085067
0.06314180237300772 -0.12339155675460446 0.07647494313071777
0.06311709947940128 -0.12239100651035799 0.07652758126249172
0.06307683071056586 -0.12141440569253457 0.07655826682555282
0.06299929272879469 -0.12046825856934151 0.0765544681486549
0.06286829689997366 -0.11972489589944156 0.0763304663795595
0.06300847935999239 -0.12003024339519783 0.07687029937775376
0.06284854513872482 -0.11926552924617896 0.07664635681979354
0.06267830242256128 -0.1182639500678575 0.0766599667393417
0.06254655493916256 -0.11726581988652657 0.0767277738587166
0.06247662453592916 -0.11626438544360498 0.07677769304207874
0.06245175176017124 -0.11524639889306972 0.07678548980844564
0.06243547771096175 -0.11421070472723763 0.07675793826900015
0.062435159206148984 -0.11317316228691746 0.07672665911914855
0.062435411881675215 -0.11214613798325844 0.07672592763527347
0.06243416732601832 -0.11114282307713685 0.0767457977672619
0.0624226617487563 -0.11016148042792577 0.07681011209649174
0.062384411217603186 -0.10919943844326577 0.07688627284717602
0.0623031080509793 -0.10826804027803731 0.07697337083079468
0.062158866280856415 -0.10735285989321634 0.0770609785714107
0.06204356030156497 -0.10655417135114095 0.07722901059301374
0.06094299700323963 -0.10456761774081617 0.0764863119526021
0.06164373090843239 -0.10556282276497833 0.07707190070137461
0.06082242373135728 -0.10373658994881348 0.07678465193063558
0.06148603429469182 -0.10437521821891528 0.07745050446154493
0.06107471769512103 -0.10339588472067748 0.0773191309739754
0.06054614393174948 -0.10284449919247195 0.07670068623709098
0.060583236005385 -0.10199131658013667 0.07712877762091791
0.06070698467444536 -0.10129553684232137 0.07757167207374237
0.06763106579642889 -0.1427054994544384 0.07732734450258691
0.06745357351907073 -0.14197783006637346 0.07690534726913488
0.06752253526395399 -0.14226266497237702 0.07736972089179661
0.06738200068612263 -0.1416226518865332 0.07697842076949178
0.06730471018107016 -0.14126037918436074 0.07655144073868725
0.06723746703832899 -0.14080237508563426 0.07674930910175236
0.06708097561543723 -0.13979763152386618 0.076755783924199
0.06691812676674454 -0.13880713270898853 0.07679284320770159
0.0667513235274005 -0.1380277324687218 0.07663762042692972
0.06688625845450429 -0.1384287921671091 0.07724999118415767
0.06670039449777623 -0.13770768840165656 0.07714565342576976
0.06648552179547791 -0.13692642645150158 0.07731480917841126
0.06626565605550226 -0.13622356273698863 0.07749262610963294
0.06591604096559853 -0.13538216717167895 0.07673792504314819
0.06560673724244338 -0.13457362875735093 0.07687141076116571
0.06531944535225574 -0.13387772831761954 0.0766589631267352
0.06549575464789262 -0.13414216542575796 0.07720834789020431
0.06524296536358086 -0.13342466669030634 0.07700092152473295
0.06499858026572444 -0.1324890906476352 0.07707064512599893
0.06477484514388608 -0.1315191521299857 0.0771282525016385
0.06458348782820701 -0.13075717337357426 0.0769229052086668
0.06471383686669867 -0.13107034556044192 0.07748913900072509
0.06451796373685553 -0.1303430349841228 0.07727282844129894
0.06431121333678104 -0.12942884872338023 0.07729872229077549
0.06409795020469468 -0.12844144048046663 0.07736365370229019
0.0638782417348067 -0.12759026220194325 0.07706455427471526
0.06405490971340481 -0.127889113897417 0.07782758671710453
0.06380930607333983 -0.12708357063522033 0.0772400205840048
0.0636983345183312 -0.1263173060141525 0.07731985055663822
0.06358440692293742 -0.12539028539635594 0.07737935521507097
0.06350085017722197 -0.12441803093269138 0.07742636322159405
0.06343260026742176 -0.12341612099132283 0.07747039379353952
0.06336459595919498 -0.12239559640895886 0.07751220310543692
0.06325779905721503 -0.12136683652796405 0.0774936394486719
0.0631322382966694 -0.12057914773510035 0.07725385184435576
0.06325753493485686 -0.1209065134974693 0.0777946288380586
0.06313670959525149 -0.12016303855450372 0.07758725908785187
0.06300619357534017 -0.11924000404944865 0.07761800616129143
0.06288125578758966 -0.11828408170376975 0.07767383741549423
0.06281665046655066 -0.11730592804667407 0.07773026197937065
0.06279684506759585 -0.11630241007019664 0.07776118590915365
0.06279611234856723 -0.11527426972788249 0.07775842351122506
0.06279460632944116 -0.11423076693577722 0.07772380110611353
0.06280257696469528 -0.11318852612134753 0.07769831200611675
0.06282342248812414 -0.11215579481473137 0.07768486220730189
0.06284405545239899 -0.11113003559740672 0.07770522958349892
0.06285453804247255 -0.11009704559694211 0.07774936440566217
0.06281864319174801 -0.10906587699384768 0.07775623065953301
0.06270382520648779 -0.10807546500708379 0.07776984497715542
0.06257456119454796 -0.10714265198755088 0.07785821602754324
0.062355378828594016 -0.10621811576293137 0.07791262209010637
0.06214141301151526 -0.10530248906284487 0.07802545246034243
0.062067744053681866 -0.1045507063036522 0.07830469335766992
0.061020450262036174 -0.10259738159770736 0.07756388714916118
0.06170603351078215 -0.10356125222925004 0.07815745931297076
0.06096925225761747 -0.10167030789098364 0.07785150681805826
0.06156409020282438 -0.10246052862168574 0.07842892081314476
0.06101624010941758 -0.10086565735629553 0.07818842889029884
0.061470672671826536 -0.10146529402925533 0.07864858212329294
0.06107117112561744 -0.10022734241793688 0.0785291969949783
0.061414675057463015 -0.10049345404245771 0.07892559410885758
0.06125720331195756 -0.09996559001508554 0.07889630948669007
0.06840864573003268 -0.14525849595314055 0.07875860462853641
0.06819815239684292 -0.14450530264198297 0.07860855460716777
0.06787600052493943 -0.14351330766166898 0.07794522078555724
0.06771539387732439 -0.14296642921219363 0.07785868896475141
0.06760474257388367 -0.14248144645573607 0.07796938200249784
0.06743601918384073 -0.14172270898315517 0.07770899661859493
0.06726672185465274 -0.14074282222840934 0.07774426495629505
0.06712896391033085 -0.13976628482301545 0.07778420618443124
0.06700842664438506 -0.13899967915276612 0.077621647379516
0.06710019476099578 -0.13937096677892188 0.07820879324963514
0.06695464462810218 -0.1386333536556297 0.0780580997437911
0.06675389873647491 -0.13777581531603544 0.07814368346551707
0.06655168148271365 -0.13700208851324 0.07818876006133886
0.06638597457679099 -0.13641760722670193 0.07826524750238241
0.0660648936057774 -0.13553073908531524 0.07795163899384894
0.06573199760756931 -0.13465957088717684 0.07767411154595837
0.06589517826478618 -0.13488878869624193 0.07847850801078636
0.06557812121418106 -0.134128380148284 0.0778531289314149
0.06537031091847263 -0.13337290597788398 0.07798886342401416
0.06513260576457396 -0.13245691128383874 0.07816858689484055
0.06489493817564254 -0.1316177666088047 0.07793080004243659
0.06503678844939426 -0.13189942283564807 0.07869963649043885
0.06478379553616923 -0.13109967699149397 0.07811669613478749
0.06461667521876728 -0.13035826458372654 0.07822682843473173
0.06443451037521937 -0.12949759374270753 0.07835067575167778
0.06428919666710382 -0.1287101643755797 0.07845468649968235
0.06419327290202072 -0.1281525846930077 0.07858436439486559
0.064018954304662 -0.12732606499039867 0.07825230593191655
0.0639057550894544 -0.12637249501548392 0.07832000366728842
0.06382282208959604 -0.1254313591632157 0.07837390619549982
0.0637556805306319 -0.12445871563457064 0.07841917679627146
0.06368517610674095 -0.1234459783760937 0.07848343823259173
0.06359102350331615 -0.12237201759467892 0.07855763407023028
0.0634135396452534 -0.12147801432133519 0.07824897770090651
0.06359487175334795 -0.12177838947186503 0.07899005071447204
0.0633728110078598 -0.12095138049943124 0.07841938840282119
0.0632848394392988 -0.12017451424334145 0.0785230139542785
0.06317627601076019 -0.11926680223971216 0.07859696372490166
0.06310935963940245 -0.11832732889969283 0.07866246598360349
0.06308246557577525 -0.11735428759919862 0.07871943628158756
0.06307014377118285 -0.11634729051831383 0.0787415405221973
0.0630778386436295 -0.11531463624261434 0.07873672268460544
0.06309197079327801 -0.1142711740204871 0.0787075516433491
0.06312868868813334 -0.11322968801200996 0.07868672862519896
0.06317279063186504 -0.11218714011270724 0.07868236732922046
0.06323667790832584 -0.11112468061040964 0.07872560181242831
0.06331743647585719 -0.10998807665956983 0.07876541320034273
0.06320557146771753 -0.10883721595074913 0.07853875798656615
0.0631171354744083 -0.10786973200700413 0.07855320654543181
0.0630027813243406 -0.10686163417170622 0.07872590560208628
0.06266522891138726 -0.10593820886740384 0.07857821170674337
0.06259304355847518 -0.10521938475543566 0.07883276101318905
0.06242972700738663 -0.10431464755772904 0.0789866353805027
0.0622486431278012 -0.10331548941964423 0.07909569464634462
0.06209068216398072 -0.1023031880015161 0.07926445279480418
0.06199700586510673 -0.10134322120318365 0.07943064425475294
0.06195727872943082 -0.10058218511332158 0.07964065188452184
0.0617257982013607 -0.09981509910291662 0.07959518798116821
0.061854402898955385 -0.09902503639085343 0.08003048920043808
0.0685651831989448 -0.14590290861957847 0.07928342370945388
0.06843822499142609 -0.14532106642852546 0.07917452022041149
0.06828752723036603 -0.14465537442042561 0.07933913026636837
0.06797635748526103 -0.14372047027187623 0.07867766413782269
0.06775291756542969 -0.14297236766718976 0.07843168413977616
0.06789892996671743 -0.14318927728058728 0.07920820708412067
0.06764253955965056 -0.14242455358284614 0.07858765852934375
0.06749961617413992 -0.1416218842005838 0.0786954780872253
0.06734286121116939 -0.1406761408316435 0.0787764328281468
0.06721234046755013 -0.13992102933618755 0.07858638584531503
0.06728587024692738 -0.1402388160461567 0.07915047426959779
0.06715616466962185 -0.13952029381278488 0.07896551775884672
0.06700065840064393 -0.13865666456128953 0.07903653125393059
0.06680959365856465 -0.13774545148221065 0.07914369391474818
0.06657822469800943 -0.1369419597985995 0.07881361269356803
0.0666873937516326 -0.13715825786463673 0.07957580110174156
0.06642225133438752 -0.1363875161989599 0.07893083641392283
0.06623581994925569 -0.13571288483617064 0.07915320127500738
0.06605130209571311 -0.1350327882946095 0.07947504167504403
0.06572045640338775 -0.13421417967777977 0.0787621284293454
0.06551027360086537 -0.13346168492889243 0.07901181590017205
0.06532678707019744 -0.1327517399301385 0.07929442719611052
0.06519113957389505 -0.13212754044163869 0.07962212041635107
0.06490376899613524 -0.13125979846107327 0.07901799779537128
0.06474706367588794 -0.1304767492285636 0.07925421242627259
0.06456279480783837 -0.129539781205426 0.07943928406249481
0.06435279382581933 -0.1286952432327716 0.07912283156510162
0.06448472448188314 -0.12890785770585989 0.07989175681487662
0.06425830953752294 -0.12810512542706595 0.07920543482689571
0.06416091383877918 -0.12730183176534596 0.07923899322330798
0.06408801922675036 -0.12640974613790107 0.0793131503359368
0.06404186998913634 -0.12547759173943385 0.0793656403799641
0.0639945807958045 -0.12450204296660682 0.07943877308342218
0.06393651326352873 -0.12349768278239408 0.07953995740354382
0.06384820030164069 -0.12262348831053115 0.07961014131851375
0.063783362946084 -0.12201860453792703 0.07970773745088451
0.06359070011731284 -0.12116675143747556 0.0793982956933722
0.06347362543844078 -0.12020490553296562 0.07948012980424486
0.06338535175648555 -0.11929778652002541 0.07955091794856119
0.06334271965039556 -0.11836938476253736 0.0796293659728925
0.06332606932126089 -0.11740060133195526 0.07968968211749544
0.06332835532082931 -0.11639531291095608 0.0797150306607435
0.06333898645047395 -0.11536483736212894 0.07971947664940612
0.06336620513677707 -0.11432652360987947 0.07969694168099367
0.06341936187876428 -0.1132883864839292 0.0796890372581441
0.06351235089944281 -0.1122468840676453 0.07972468751969228
0.0636697908874665 -0.11115052609415348 0.07983762075553848
0.06369372053927178 -0.11021678338310192 0.07961697686339225
0.06361123179236247 -0.10947004625931984 0.07931421301009925
0.06385169146181405 -0.10989964217088298 0.07993462060006885
0.06355335994861439 -0.10861048386520437 0.07925147150662777
0.06387474209894997 -0.10927537275232632 0.07993297027894714
0.06350902880902225 -0.1077563371564764 0.07934144706055604
0.06388418257288642 -0.10849551891291599 0.07999062200126049
0.0634893927412315 -0.10705415633745971 0.07954927500065946
0.06386639000441693 -0.10769841758588816 0.08012227636677594
0.0637654376690332 -0.10686795077972841 0.08025390707419902
0.06319471352374108 -0.10614006973863455 0.07942328384301789
0.06305121832747677 -0.10512832812100255 0.07968880640668104
0.06290241098724489 -0.10415266208804182 0.07984510147105407
0.06275170299701406 -0.10315723925058715 0.07995991835834274
0.06261389869271805 -0.10216868297212613 0.08006047705745772
0.06250042696633705 -0.10122879200156717 0.08017482854348554
0.062333143911573886 -0.10029866167098424 0.08023386410736809
0.06217932432648493 -0.09935322135087353 0.08033227670483076
0.06212824700540935 -0.09850593698488963 0.08059292812840946
0.06216795616174334 -0.09780018870569779 0.08091689887302066
0.06871816206748585 -0.14668021051660018 0.08007193089576818
0.06862567138460962 -0.14610222856242058 0.07993685053085153
0.06850717187880055 -0.1454073386242478 0.07995254872814998
0.0684057239103469 -0.1448712563290879 0.08007730551453951
0.06820744386101266 -0.1441129466356389 0.07987869633251422
0.06807717170703331 -0.143345581352279 0.08024616448187695
0.06777209921265229 -0.14248236581060247 0.07952554909628043
0.06761074993572815 -0.14159952921277733 0.07981105251659677
0.06740899218585529 -0.1407724558359668 0.0795904147647236
0.06754078240558689 -0.14102692169457703 0.08037996455498936
0.06733310967438173 -0.1402509607962344 0.07978153534521142
0.06722647768607311 -0.13952006123460195 0.07989545417541921
0.06708975307419572 -0.13871643785393956 0.08003170175678785
0.06694954519317288 -0.1379768903829311 0.08022239668825346
0.06683713640937564 -0.13734466514197075 0.08049649236460826
0.0665566450136744 -0.13654306139051348 0.07988700234921077
0.06638550993576768 -0.13586128527968136 0.08021149342180962
0.0661930748935887 -0.13513175485826043 0.08050502023004506
0.06585838052777382 -0.1343143333188905 0.07976508731497323
0.06564966406588747 -0.1335747274204786 0.0800302962234094
0.06546223138665759 -0.132880798353345 0.08021024658801984
0.06533315560969463 -0.1323372706076583 0.08037062832913454
0.06509302926705861 -0.1315238688229878 0.08011208445509581
0.06489998328963183 -0.13060400954246223 0.08032523342109946
0.06475098097732673 -0.1297988068341078 0.0805891414479663
0.06464984383898481 -0.12904220725536178 0.08084514139446353
0.06440203887289217 -0.12817351996375964 0.08008331489699386
0.06433775263894279 -0.12734628112636626 0.08019509323560935
0.06430101582569733 -0.12645561099643862 0.08028804181191718
0.06427528960726418 -0.12551872751022466 0.08037546764454351
0.0642395582521516 -0.12453218284776622 0.08049165395662679
0.06416588309994141 -0.12344680288158759 0.08063439712979287
0.06397331073034726 -0.12254623336375188 0.08025676891112353
0.06417126244562342 -0.12266523944082944 0.08103825862319149
0.06389849124456969 -0.12189025346272116 0.08032665187267486
0.06377278782514605 -0.12103921931439793 0.08032897060539039
0.06366082012460976 -0.12017593312843694 0.08037799700620389
0.06359642449979515 -0.11931366087448643 0.08047656146506188
0.0635740905761318 -0.11839984127193004 0.0805762911534838
0.06357374004193751 -0.11743971382315023 0.08064832352092123
0.06358868279792618 -0.11644109018746818 0.08068590737293599
0.06360386748792199 -0.11541942338583508 0.08069533626704115
0.06363914917677274 -0.11439161392983928 0.08068840903421236
0.06371681062159329 -0.11337314701326026 0.08071549146046368
0.06384533952081144 -0.11238085080619822 0.08079530978967525
0.06402232726389905 -0.1115112638450337 0.08099574883401917
0.0639314925789355 -0.11058229643876458 0.08034337683545834
0.06407681025483296 -0.1099559012570871 0.0805651583555129
0.06415761629399332 -0.10922579118694656 0.08067709072263066
0.06419895798168052 -0.10843678546030182 0.08080224972596503
0.06417629231454 -0.10762109801308307 0.08096366510835655
0.06410452964904124 -0.10677474865319132 0.08117336385814249
0.0636195398625426 -0.10596250311467326 0.08042027092512923
0.0634920496883787 -0.10500590695945371 0.08063325119906348
0.06335362420026776 -0.10400852054468493 0.08074284456391442
0.06320821195006708 -0.10300436337656943 0.08078277733834541
0.06308094647579852 -0.10202073760722406 0.0808375376851725
0.06293643458247133 -0.1010359450714484 0.08089312901185816
0.06278054026074226 -0.10003597426072978 0.08094428821286383
0.06262175581575452 -0.09904251807757361 0.08103733749219379
0.06245768135243878 -0.09811212735602846 0.08118849040195814
0.06242344753006615 -0.09747935251750733 0.08143554061720656
0.06879534947347851 -0.147299116742316 0.08079571728417285
0.06876234640376541 -0.14691686297949286 0.08082015347839765
0.06869397875338787 -0.14610624048184673 0.08088322056215361
0.06856208345713137 -0.14535135567054047 0.08057819073433327
0.06867708001163372 -0.1455363872917798 0.08132598414289291
0.06847673121262104 -0.14483487015254337 0.08075586745006967
0.06836503895607073 -0.14415706653155166 0.08097308113808771
0.06822394893503024 -0.14347847808957476 0.0812708175532457
0.06794274734513868 -0.14262639868504154 0.08061666942672022
0.06781193204681005 -0.14190841815001926 0.08101796835640801
0.0676844756669735 -0.14118452576589285 0.08137010115504481
0.06744776886886841 -0.14034308264956097 0.08066519269252537
0.06732966208751964 -0.1395804222107289 0.08085578011805418
0.0672074358135126 -0.13879320943175957 0.08101838305840522
0.06707746545739872 -0.13806681395498197 0.08112147044797825
0.06697570009052088 -0.13752148111597004 0.08124243273771209
0.06674891252842162 -0.13677057590064323 0.08099166561712205
0.06654656975825242 -0.13594604230743587 0.0812517183411813
0.06635430101566085 -0.13518690990556867 0.08153941382695884
0.06599293846033241 -0.13437810750597273 0.08079954786708134
0.06576681384550881 -0.1335511574197062 0.08107888370155511
0.06551778026211506 -0.13281280115370717 0.08085898532427993
0.06566563698184615 -0.13294822199709203 0.08159457733414449
0.06538317628401086 -0.13224622533388242 0.08100521145178197
0.06521307251933277 -0.1314914022283902 0.08114050904207046
0.06506101791872765 -0.13069095001368727 0.0813668352352033
0.06493239325424995 -0.12990471256990552 0.08160538854759643
0.0648544916156055 -0.12911072832726644 0.08182023013015302
0.06458928977008722 -0.12824354722078585 0.08102769244572784
0.06455267104821347 -0.12738963183577914 0.08116619727053812
0.06452981739729427 -0.12648745308365122 0.08129117545828525
0.06451400273033002 -0.12555200789424575 0.08141016564481512
0.06450787320206179 -0.12458349515292838 0.08158258884968443
0.06451158856927088 -0.12358388502000114 0.08193709816379978
0.06437876178563601 -0.12263794470783371 0.08185485050363235
0.06410584803164347 -0.12178379616717801 0.08126764308146402
0.0639188504794267 -0.12088049561555149 0.08107950484577185
0.06387300110212922 -0.12017404693049222 0.08125275502333008
0.06383788263204226 -0.11931760897978423 0.08137266405565667
0.06383084820556785 -0.11842294583192202 0.08151104222571924
0.06383192964260433 -0.11746650812702597 0.08159749717645191
0.06383428725720962 -0.11647527906047624 0.0816545482354305
0.06385698444793556 -0.11546823763873795 0.08167383582283506
0.06391146823383918 -0.11446022162619897 0.08168854703362134
0.06399588878482046 -0.11346993084511518 0.08173996793858251
0.06412361631155895 -0.11253011464107847 0.08184841208893405
0.06429008369769086 -0.1116614798616914 0.08200954973607182
0.06420288658781999 -0.11075706757569397 0.08122916547704391
0.06434735401539347 -0.10999919564826782 0.08139676925240447
0.06444598410038054 -0.10921097897629654 0.08152982519017352
0.06448615384599977 -0.10840142501838293 0.08168597012836785
0.06447554244735781 -0.10758343928350238 0.08189152994702019
0.06443518845644255 -0.10675224482501647 0.08217509431975618
0.06401296355937755 -0.10587881311450846 0.08143412881556165
0.06393734535232104 -0.10488822307750567 0.08169386666111007
0.06373853293011145 -0.10381023880143411 0.08157780237087335
0.06361734513943583 -0.10283514370865725 0.0815717278478739
0.06351600556132195 -0.10185308891360532 0.08159879875054532
0.06339081430114424 -0.10084206878773319 0.08163231599843952
0.0632437169047345 -0.09981733698836584 0.08168264493300367
0.06306575617310242 -0.09879668433562933 0.08175971244082156
0.06287358677155762 -0.09783966037832127 0.08190564705438823
0.06274950544648764 -0.0969856420769163 0.08221653828042287
0.06266524444130131 -0.09605079196966199 0.08269044704801572
0.06883225886796543 -0.14769809657835575 0.0817709195326476
0.06882231971390605 -0.1470412171401388 0.08182796015086398
0.06880964830138693 -0.14627257682095576 0.08192736203574323
0.06876899850127856 -0.14571382994771415 0.08206739436861274
0.06861390005613417 -0.1449815427227458 0.08179093164864179
0.06846611702099527 -0.14419773235300903 0.08191011126091012
0.06834628932083103 -0.14364353065752222 0.08204801673551623
0.06813407359890974 -0.14287363330164926 0.08180848736186636
0.06795508266194128 -0.14203050705362413 0.08210397151223127
0.0678269621640674 -0.141256799080446 0.08238533728121417
0.0675718039013175 -0.14042302020114844 0.08163855565559582
0.0674647451199949 -0.13962297400364848 0.08185198123946401
0.06734220825782927 -0.1387399735902095 0.08204634736631342
0.0671488304257595 -0.13798000806773386 0.08175420963353629
0.06728490776538025 -0.138116341750412 0.08250889405724468
0.06703687997817263 -0.13742847362179406 0.08187419580790338
0.06687585144373663 -0.13671518630143628 0.08202024956850462
0.06670428977630861 -0.1359608649717038 0.08227549293609775
0.06653110109426214 -0.13520847944885905 0.08256688145430756
0.06616456431883558 -0.134429911862321 0.08184180100779992
0.0660048480744131 -0.1337000166870984 0.08219282416172088
0.06586178891111771 -0.13299358560593627 0.08253648792591627
0.06552756351017662 -0.13226168335820224 0.08187310839631286
0.06538709210649629 -0.13150911275359017 0.08211102989405805
0.06525295168516419 -0.1307321906027859 0.0823502822213353
0.0651524325178166 -0.129942975021007 0.08258298779555565
0.06509101054861065 -0.12912652547826745 0.08280103066034768
0.06481547932533423 -0.12827818305574507 0.0820070326354975
0.06478446672559662 -0.12740595416517045 0.08215598237717402
0.06477378490791584 -0.12650432476330348 0.08228360309957128
0.06477334963084887 -0.12559010708161825 0.08242888689050545
0.06478240922985255 -0.1247023001586874 0.08264066631925457
0.06481728958391146 -0.12400061310893458 0.08294711182783446
0.0643941068792171 -0.12211328992616971 0.08217665036176745
0.0646963731409967 -0.12297056555416927 0.0828857944779386
0.06454894827446483 -0.1219793975082325 0.08280518032879527
0.06423814386519607 -0.12111971064255107 0.08209589912866222
0.06408193050656327 -0.12009167924634846 0.08201564530812265
0.06409245582325782 -0.11934820532760439 0.08228251656548916
0.06407779339718409 -0.11842272635927811 0.0824416979853395
0.06407193306765926 -0.11747023781480743 0.08254330832289823
0.06407667679046349 -0.11649560042757777 0.08261313920895283
0.06409239417460788 -0.1155033849944277 0.08265110871175592
0.06413672420295892 -0.11451204379872156 0.08269850807906674
0.06423041318320143 -0.11354447743467795 0.08276553296950728
0.06437485151898899 -0.11261770809018465 0.08287087090058347
0.06454733334150424 -0.1117340482903204 0.08299498093251231
0.06446634278477865 -0.11083765015446118 0.0821632604899727
0.06461740058756735 -0.11002403638500241 0.08230282300546202
0.06471787984765698 -0.1092101049298286 0.08244847655160426
0.0647661508510672 -0.10839980232665981 0.08263435720183027
0.06475707736914518 -0.10759552793506784 0.08287947057592988
0.06474496929631908 -0.1068171656369952 0.08321650414729544
0.06440494010668112 -0.10586554039712205 0.08255914111760504
0.0643105442474905 -0.10510951233968327 0.0825584275781442
0.06415803719811655 -0.1044374936911845 0.0823521917043708
0.06441571295621336 -0.10483651659053266 0.08294787608293037
0.06406114348343639 -0.10359265086794833 0.08231899842471245
0.06438668766543841 -0.10424294383975984 0.08300408889726577
0.06398974308287399 -0.10266663588697798 0.08233485182611883
0.06436204860736605 -0.1034357236835967 0.08306312160207643
0.06391526914417088 -0.10168463444495862 0.08236396862964446
0.06433910518218111 -0.10251791436073396 0.0831069372987862
0.06381470433068315 -0.10066512232965759 0.08240146595331521
0.06429926380199909 -0.10153645433325717 0.08315256608674557
0.06368729464494997 -0.09962887783588775 0.08244306632411601
0.06420998640809668 -0.10050917371832106 0.08318752169663994
0.06350777182355258 -0.09860219963287911 0.0825298906673946
0.06408238880277914 -0.09947169918487449 0.08324206906229091
0.06326572249793708 -0.0976042680130072 0.08268468548774129
0.06388255224139516 -0.09844057616275705 0.08334040487015153
0.06303243076046222 -0.0966428049359823 0.08290578962022271
0.06363770422986609 -0.09742559977596714 0.08349024658325671
0.06284409247824319 -0.09588436568740555 0.08310763221446966
0.06335987829117577 -0.09637338168464381 0.08370212592680992
0.06294062021534193 -0.09552295467235496 0.08354929670024697
0.06265634873384374 -0.0953910767518563 0.08315744053371826
0.06884590594711944 -0.14856450845285513 0.08288287304982771
0.06886520523084987 -0.14793943413530153 0.08278313209062535
0.06887209925101255 -0.14703700647003076 0.08290442046232929
0.06884767012871348 -0.14620726652571722 0.08259135860386023
0.06889308810728155 -0.14638755690545605 0.08337818528249391
0.06879063046775569 -0.14563105475951518 0.08271191466667553
0.06866853186847911 -0.1448198658459474 0.08283918532209252
0.06849670824276666 -0.1440848656958769 0.0825615121718632
0.0685842679052988 -0.14419558269878 0.08332788890604048
0.06838102725939643 -0.14353462320907132 0.08270193791040838
0.0682297681698104 -0.1428131464064891 0.08287220450858498
0.0680847626009949 -0.14204839073789147 0.08312675569346592
0.06797188333312046 -0.14127317780344473 0.08338887981508297
0.06772261551537363 -0.140466893200825 0.08264284609683209
0.06762538843041571 -0.13966387867579275 0.08287939974838947
0.06754636050365713 -0.1388975712171397 0.0831620938838635
0.06745324712700307 -0.1381835230240622 0.0834550070059188
0.06717962731505209 -0.13743978006829094 0.08276192256060291
0.06704028080836402 -0.13670956446045462 0.08301141439565786
0.06688700410223233 -0.1359584178279173 0.08329061705727428
0.0667396341512394 -0.1351966215553675 0.08359272940116672
0.06637188521186922 -0.1344594310103995 0.08288240940254277
0.06621365732356252 -0.13371124724167113 0.08321062915356255
0.06606620238649723 -0.13296583973755252 0.08350106069001023
0.06572587635939277 -0.13225905197462434 0.08281867560191171
0.06558570889941642 -0.1314973748452201 0.08307446497103313
0.06546722137314959 -0.13072531755868538 0.08330960187327673
0.06538858219381716 -0.129929690018048 0.0835545478451052
0.06533070879784142 -0.1290954962099556 0.08377677137358694
0.06504905978098464 -0.12827273836279424 0.0829852472694526
0.06503003771653874 -0.12738738146104814 0.08313030818372995
0.06501830297506181 -0.12649224278256563 0.08325715456827956
0.06500733341919081 -0.12561024926741143 0.08341143733339385
0.06502045075438775 -0.12477012458511293 0.0835906345452932
0.06500764233895061 -0.12393071346445093 0.08374088363355739
0.06500384902796705 -0.12320649620594684 0.08393939682688167
0.06456211528269294 -0.12139391653409397 0.08312430880749706
0.06485547513103287 -0.12224580397198312 0.08375726645421092
0.06478665407206449 -0.12118739210346807 0.0839516225418175
0.06440396717108293 -0.12038541174778324 0.08298864944877528
0.06436628860273022 -0.1193180550457982 0.08322319651559709
0.06432349402834955 -0.11838143083924613 0.08334729540808158
0.06430225055573166 -0.11745752245747287 0.083480492621092
0.06429136588106765 -0.11649466841568272 0.08356511611893341
0.06430532059144839 -0.11551664900675732 0.08362826309979526
0.06435523361874773 -0.11454142017115927 0.08369273217989423
0.06445446017971806 -0.11358551395174886 0.08376606778751222
0.0646006496452996 -0.11266146832421736 0.08386531869204224
0.06477444220481865 -0.11177327774889242 0.08396843848192448
0.06472164206172858 -0.11088108515709735 0.08311846976729692
0.06487249345867305 -0.1100516130877382 0.08325811112566339
0.06497505467682937 -0.10923439199110235 0.08341613914246679
0.06502076151235806 -0.10843025393309981 0.08362485636366851
0.06503172589008024 -0.10765089633801132 0.08389415365612005
0.06504483914563551 -0.10692204035773166 0.08424909151338518
0.06477810001625439 -0.10613382490010773 0.08365160792183703
0.06456150002049789 -0.10540547497846399 0.08322982570563786
0.06462731450032941 -0.1048560065398288 0.08357102084962531
0.06464727603772652 -0.1041479483606945 0.0837391854657599
0.06467195938466068 -0.10331782873682906 0.08383734522977412
0.06468230565489506 -0.10240061134004294 0.08390767993660266
0.0646421287468867 -0.10141365510747544 0.0839658382004804
0.06455786604781745 -0.10038524661450327 0.08401438299177584
0.06441773393888668 -0.09934669486872888 0.08408093704210187
0.06420644034682914 -0.09831388693919539 0.08418212541009029
0.06396166533090479 -0.09732172627175412 0.08432244950104364
0.06377820297836923 -0.09652056762754053 0.08450894611566323
0.06284768364698921 -0.09495254693804343 0.08382575227878218
0.06336238878863669 -0.09558651681254922 0.08431728299334883
0.06282331654089982 -0.0945491463722251 0.08406092326449859
0.06314141182676791 -0.09476068981770135 0.0845181973021078
0.06884891433204367 -0.1491121663019359 0.08358360485480168
0.06886344644765502 -0.14877431737299998 0.08364884000439042
0.06890791970320738 -0.1480460021626448 0.08380709021712472
0.06894399262060853 -0.14725345732577502 0.08406600444569792
0.06896342599250012 -0.14649619012011061 0.08437729621907768
0.06885183444184763 -0.14567583332221018 0.08365202748622025
0.06878125097007608 -0.14495131571421666 0.08396238655842425
0.06869568185419488 -0.14424103524282517 0.08429574021738824
0.068478474563427 -0.1435238880050422 0.08360718969824635
0.06835135353614986 -0.1427836138347201 0.08386360036961422
0.068226868589719 -0.14202296130097117 0.08411855361321262
0.06813981654624017 -0.14124635461698815 0.08438223657285855
0.0678852008517737 -0.14048204787154153 0.0836473112416668
0.06780102026411777 -0.13969620327881488 0.08390014816604391
0.06770925805187042 -0.13893940052214243 0.08415589272211528
0.06760992159468705 -0.138206130341643 0.08442369220744077
0.06733998531552259 -0.13745616685707146 0.08372713273346617
0.06721191502631882 -0.13670572202283832 0.08401259750905166
0.06708132889303556 -0.13593192686273411 0.0843249019360446
0.06693609279545339 -0.1351455082277223 0.0846173617531591
0.06658698342914614 -0.13442742221088946 0.08391609503521225
0.06642781633734567 -0.1336445233806223 0.08420419764161406
0.06626936287498926 -0.13287550723429759 0.0844457841671098
0.06592636753790626 -0.13220711898820972 0.08378002990051035
0.06579476695519038 -0.13144093751837949 0.08400252779923283
0.06569937573351022 -0.130683402326256 0.08423164582643171
0.0656351130686744 -0.12988513318579145 0.08452468539665625
0.06558076147543723 -0.12901120308550926 0.08475233804033662
0.06530225659359425 -0.12821260381820915 0.08396709523317913
0.06526341582215851 -0.12731085630203257 0.08407346412689477
0.06523306022060149 -0.12644535586669148 0.08417340039054587
0.06522766983946125 -0.12559628203790518 0.08433619878517619
0.06522440744352942 -0.12473332697781235 0.08448528838351002
0.06522376584291707 -0.12388421491588304 0.08462188921463971
0.06518827660287538 -0.12299352169317036 0.08472469086950776
0.06514382823825048 -0.12195365015069032 0.08491683493892681
0.06500110898044763 -0.12097406977577776 0.08477103434847477
0.06472015060650668 -0.1201186854399059 0.08415686810355773
0.06456507651636942 -0.11912866518119909 0.08401100215380967
0.06456316196695706 -0.1183632207355209 0.08425357645692494
0.06452728474152175 -0.11742514896167576 0.084400092950305
0.06451150146826631 -0.11647024122393054 0.08449839749917064
0.06451842565931927 -0.11550579025644984 0.08458253204528038
0.06456960946755647 -0.11454388117250634 0.08465529785470338
0.06467759771496619 -0.11360102249826846 0.08473797268612777
0.06482792102025801 -0.11268807632664289 0.08483140588858278
0.06500504234618683 -0.11181659744168217 0.08492841165340816
0.06495498196413896 -0.11092334003899143 0.08408920219389071
0.06510836863262637 -0.11010418106259082 0.08423767877151336
0.0652239203299393 -0.1092993099464302 0.0844240163224008
0.06527659966687047 -0.10849678049407553 0.08464131401063268
0.065287492566997 -0.10772297125270847 0.08491520912250607
0.0652895665786287 -0.10699430506332197 0.08526575510564997
0.06506285164231818 -0.10623075843397396 0.08464957879556304
0.06483857199567908 -0.10551771888406086 0.08408284301800902
0.06489177724610218 -0.10484292982604954 0.08438973908345766
0.06493007596354475 -0.10407027022595688 0.08454984733823717
0.06497164952706941 -0.10324039499369315 0.08465862716749331
0.06499532194261065 -0.10233346077625954 0.08476286863666276
0.06495816401927938 -0.10133395416737054 0.08483329222472784
0.06485853392597422 -0.10029511280453643 0.08488616265756298
0.06468002720871428 -0.09923922354450516 0.08495764806359575
0.06444917793762667 -0.09819215162426571 0.08505314387650952
0.064209833365227 -0.09719075034509779 0.08513696482054874
0.06393636948535149 -0.0962206374560875 0.08516355790092828
0.06362563238652931 -0.09524695330383919 0.08522462532176213
0.0634436620708615 -0.09440113339457436 0.08551752429734445
0.06336601065761452 -0.09368277290123907 0.08594731468463383
0.06888699623663694 -0.1492321632367269 0.08431424442572028
0.06893102478641724 -0.1488361806793422 0.08460942609977305
0.06897177248207902 -0.1481149097234995 0.08484381034605908
0.06901061683056339 -0.14734788683920874 0.08509640335387957
0.06904173302151535 -0.14658566354529912 0.08538489273320589
0.06893532462612106 -0.14575504986032448 0.08467849688533878
0.06889645199185637 -0.14500168033982305 0.0850064194446274
0.06882984926064788 -0.1442226466207175 0.0853008054674573
0.0686026833379403 -0.1434964465826625 0.0845930435394404
0.06848747448097693 -0.1427257137461851 0.08483302816244617
0.06839927429830274 -0.14196484318082586 0.08508532397787277
0.06831692443400743 -0.14119240726155063 0.08535908663976423
0.06805436859750087 -0.14045327688870426 0.08465298853902069
0.06796356547477383 -0.13967112750988295 0.08486801079158154
0.06786358636397141 -0.1389376412310638 0.08509208665287155
0.06778387805501973 -0.138217908776977 0.08538823456930011
0.06750997767540791 -0.13746111576003894 0.08471545926068873
0.06739964291970053 -0.13669488575556807 0.08503392594846869
0.06728996568281428 -0.1358685635136768 0.08544001670258601
0.06710378465407667 -0.13508242107977433 0.08544165841377567
0.0668174056859129 -0.134352333296203 0.08501361091314462
0.06660993235873681 -0.13346550943745758 0.08515151503747993
0.06643840527906533 -0.13279292161154735 0.08522564765236362
0.06615487541548241 -0.13209825483587487 0.0847986117184275
0.06597604535248812 -0.13131119499200622 0.0847857868453385
0.06594086728224367 -0.1306732683809914 0.08517296256221012
0.06589948754996156 -0.12978084808640042 0.08560771872931269
0.06576448368116466 -0.1288860610984967 0.08557576690118558
0.0655432263103689 -0.12806121391077066 0.08500802603927107
0.06542453581973097 -0.12714090504130063 0.08484300708274783
0.06544120465666367 -0.12642045811553024 0.08507940898318168
0.06543736306926565 -0.12553856061299015 0.08523821761319854
0.06543665160327275 -0.124658636267286 0.08536679094452838
0.0654301451338738 -0.12378018539874257 0.08549226652759534
0.06542085559979853 -0.12289884359488203 0.08564505145846446
0.06543315331644563 -0.12216408976599268 0.08587982214366091
0.06504242186023397 -0.12037330770497738 0.08511359580131166
0.06530744116748509 -0.12120858043535913 0.08572417348019587
0.06524894860994566 -0.12014518307522695 0.08592593900705499
0.06487770863892302 -0.11937298782278112 0.08497438247601047
0.06481217858574281 -0.11829773708884145 0.0851833250577338
0.0647558299304566 -0.11735367724812701 0.08529157678854914
0.06474035953745845 -0.11642354296290677 0.08541597072180646
0.06475260565560019 -0.11547167336291832 0.0854973935089239
0.06481698923529308 -0.11453077213873142 0.08557812469686854
0.06492785217863016 -0.11360728743987593 0.08566471319569488
0.06507970572223039 -0.1127150737883639 0.08574621751779625
0.06525882879543744 -0.11188597617323301 0.08584664742833376
0.06518737220733564 -0.11100066316261564 0.08506601779815386
0.06535294281288756 -0.11022830481299219 0.08526152427358283
0.06547007101231658 -0.10941799887786692 0.0854702904629157
0.06551835801668121 -0.10857913278568342 0.08566257549876764
0.06551621295045147 -0.1078013565421128 0.08591584139402252
0.06550269901454135 -0.10709978478313494 0.08624530985007364
0.06532813501856416 -0.10625912943450155 0.08572220628723429
0.06510350995001782 -0.10554239742978858 0.08499283369243313
0.06519129709012736 -0.10480640181171956 0.08535555075272876
0.0651768420610652 -0.10397137354450348 0.08529418631715084
0.06526195533142252 -0.10327044155453925 0.08554903527395198
0.06528484836718433 -0.10230717946238854 0.08567565658269946
0.0652334981323646 -0.10128313376927284 0.08574560489575474
0.06508849719399738 -0.10022298732562968 0.08580658029383627
0.06487238025111433 -0.09913322229512671 0.08589200506425006
0.06460936731916411 -0.09800561812428916 0.08594807669484308
0.06434083618751477 -0.09692799951206525 0.08593609271699337
0.06408022491084568 -0.09593926769982201 0.08595841909369924
0.06382580752042102 -0.09497726944815636 0.08608996030384598
0.06356819923699265 -0.09403555790224122 0.08626935812541821
0.0633954544838982 -0.09322980003246756 0.08655501867018472
0.06327017773864822 -0.09254492640837463 0.08693915285236645
0.06898614533795208 -0.14925784684200114 0.08530446508067208
0.06902926256956478 -0.14883965766290808 0.0856080746270754
0.06906085690169943 -0.14815222867784444 0.0858147119461818
0.0691107920637564 -0.1474166864286361 0.08608512659093495
0.06914341728026817 -0.1466460602990763 0.08638179241314473
0.06904828309445993 -0.1458125371122171 0.0857102072031188
0.06902893491672561 -0.1449795528858576 0.08613071745408492
0.06894624119978543 -0.14416692707278114 0.08612937694587189
0.06875308383419437 -0.1434109752236679 0.08566485125264055
0.06862153662649895 -0.14259578994294742 0.08566155027842155
0.06859895281529985 -0.14191922509585114 0.08613700165551198
0.06846290352252367 -0.14112096161991802 0.08616557644678295
0.06824134192440902 -0.14037206203483107 0.08570165771799004
0.06808116008326953 -0.13956972242808605 0.08566073518799469
0.06803634735963529 -0.13897260893288482 0.08602149238421013
0.06797023354408804 -0.13822004682627934 0.08635959929808894
0.06769319035632775 -0.1374663010299807 0.08569944107707571
0.06760787587735159 -0.1367247435999972 0.08602195782365321
0.06754811171477591 -0.13613370651688994 0.08636157959711234
0.06710713702489506 -0.13467731461779392 0.08586147599090672
0.06736840113113564 -0.13536800498341336 0.08630418306279719
0.06726311681620165 -0.1345908191702182 0.08663888732616108
0.06694774117370413 -0.13399868279934726 0.0859323669008506
0.06644299037412138 -0.1323787177213658 0.08564848547077014
0.06674099158680824 -0.13310272809987794 0.08606600814995034
0.06663028794615448 -0.13227178457616895 0.08647021918695219
0.06626167460560331 -0.1315654320134938 0.08569234285183196
0.06618965844311506 -0.13070071602470507 0.08614492521251686
0.06617105120312522 -0.1300307913052959 0.08652367708972757
0.06579287902724841 -0.1283381702470943 0.0859416806290421
0.06602563425974972 -0.12913786764664462 0.08648814272328247
0.06598505611171827 -0.12813090279325798 0.08674795140689069
0.06568295673518353 -0.12737620404588704 0.08581012827434789
0.0656693588373592 -0.12633814595080425 0.08600351242804256
0.0656499201286765 -0.12543224711154313 0.08610473112091285
0.06565234364102653 -0.12456449727020646 0.08623348824131333
0.0656514359998722 -0.12368730887528673 0.08636810835160384
0.06565043681572033 -0.1228282016530811 0.08651702577992153
0.06563881223065086 -0.12193811071216903 0.08663805974703713
0.06561594920489548 -0.12089011420078742 0.0868669897819717
0.06546858955232211 -0.11990611341414012 0.08673329277040251
0.06517811954926965 -0.11907663882289526 0.08610352693534137
0.06500582682716005 -0.11808925607007525 0.08594310342887465
0.06501489644626239 -0.11730494791709012 0.086183368621639
0.06499063869285543 -0.11634276441690718 0.08629329610399634
0.06500231777063803 -0.11541564156347951 0.08635740767993311
0.06507406288756543 -0.11451259552550187 0.08646364116061564
0.06519122072498573 -0.11360509255196129 0.08654178133757373
0.06534767092794544 -0.1127391944896492 0.08660791566653081
0.06549655447943628 -0.11197260694175389 0.08666301705535383
0.06543233378124377 -0.11115454932996867 0.08600980328954504
0.06564221390787871 -0.11052862308633038 0.08642131814692777
