# .PCD v.7 - Point Cloud Data file format
VERSION .7
FIELDS x y z
SIZE 4 4 4
TYPE f f f
COUNT 1 1 1
WIDTH 791
HEIGHT 1
VIEWPOINT 0 0 0 1 0 0 0
POINTS 791
DATA ascii
0.07044406609583753 -0.08665457597061604 0.1065727319794932
0.07018383348619033 -0.08597431195096979 0.1063385648331495
0.07069449176953856 -0.08630690313371969 0.10695661369141368
0.07065719397711377 -0.08523936232021119 0.10709462789393179
0.07044134073445339 -0.08412301263807262 0.10702850807359011
0.07053933196600776 -0.08338840672629319 0.10733193223363187
0.07005639804223471 -0.08258311190865156 0.10694209021556571
0.07043700836673798 -0.0825168118232209 0.10744864148494354
0.07045546719347683 -0.08209727932993209 0.10758945131725109
0.07956076716015682 -0.14922753121904608 0.10624192820168417
0.07896039715735585 -0.1482686193301184 0.10538014602037059
0.07934939553393526 -0.14852833445030683 0.10586566323156611
0.07940572200646323 -0.14789784840258396 0.1057217737550447
0.07907372031877531 -0.14754765722332705 0.10523300175927383
0.07959510505415744 -0.146535910983395 0.10551681430760759
0.07933072228622128 -0.1452738822448767 0.10485379393570675
0.07959772445447735 -0.1456677547314816 0.10527939886262232
0.07971945237009932 -0.14483326257537932 0.10524970015717196
0.07938177502796183 -0.14449229302117392 0.10475190252029262
0.07975732861132835 -0.14348477904256882 0.10508210016087807
0.07935608474013246 -0.1421961960804431 0.10450343572969298
0.07958837381605978 -0.1427725408607657 0.10482173791096383
0.07949639075579817 -0.1414978947712124 0.10476544438287382
0.07985270798899001 -0.1418061140473511 0.1052190827056585
0.07975995301650116 -0.14104514391043202 0.105204487345106
0.07937590699183163 -0.14085440995843201 0.10473305574945974
0.07879181059917953 -0.13926230572912765 0.10451461120950213
0.07926782336965024 -0.13982080136376998 0.10490441917338623
0.07885064392563872 -0.1387360789055228 0.10482734013007408
0.07915542624439266 -0.13882285818828766 0.1051841890210235
0.07825630993068544 -0.13731222657159575 0.10477810661105501
0.07868107052251065 -0.13759805936684538 0.10521358153723044
0.07893340987905613 -0.13826303817579563 0.10518493120241387
0.07846020936111266 -0.13689488701624186 0.10527146182036785
0.07802751489625 -0.13654471770103016 0.10479809558919063
0.0779103143283809 -0.13580385118122068 0.10491642992844327
0.07743893787308265 -0.13445071436792694 0.10456575752392284
0.0778015736804518 -0.13509803875534113 0.10497505290138184
0.0774410539222082 -0.13358156657676395 0.10478690067956943
0.07780557514723484 -0.13411248804248754 0.10525253636658789
0.07745040895829056 -0.13285521061883837 0.1049613645481279
0.07781709846921035 -0.13318172633676498 0.10547163238723391
0.07766110204470707 -0.13243202834601525 0.10537403286236392
0.07731498682892331 -0.13213927551574847 0.10490517345564186
0.07679843976994033 -0.1303354404425952 0.10455176027708837
0.0771992574700221 -0.13109827708013147 0.10495908742219014
0.07679379236829252 -0.12937805593310914 0.1047852614456686
0.07726291153416787 -0.12991633966500715 0.10531585630835463
0.07677542831642006 -0.12862454073951018 0.10494877043380058
0.0771280399774545 -0.12889681932155006 0.10538007304714367
0.07696356970032411 -0.12818624918692753 0.10534298691450467
0.07655612633668604 -0.1278575300976648 0.10482832920702519
0.07653557331613235 -0.1267500239252393 0.1051287464929306
0.07640254705259167 -0.12603755460664728 0.10514500429858356
0.07586903952981111 -0.12456879026867898 0.10475583885436546
0.07626879078190738 -0.12531290084440974 0.10516174847582259
0.07583469326682196 -0.12379377753458473 0.1049913074392267
0.07623449114881588 -0.12419100635074415 0.10551197190387604
0.07599340336686176 -0.12337216739096858 0.10543186831564963
0.07560603307441459 -0.1229821202677531 0.1049436672469968
0.07553649076186161 -0.1218645974032167 0.10532730648287811
0.075370844904132 -0.12109164847065847 0.10540799838668811
0.07480483674878745 -0.11978334530040384 0.10500124449835746
0.07519982569653762 -0.12028233542789794 0.10548675400267761
0.07495103270152345 -0.11940181148849435 0.10544422247915801
0.07458975735083798 -0.1189811897074168 0.10494590070939092
0.07451367788107241 -0.11796629636560194 0.10523328817337214
0.07442313491929987 -0.11686613954473736 0.10550779798050239
0.07421378610177778 -0.115942422607998 0.10547290189595669
0.07423694391295985 -0.11532616231890254 0.10573732463274477
0.07359405854718867 -0.11361872936851242 0.1051764421664182
0.07402906400703714 -0.11442522215357175 0.10566886487915964
0.07352003994539794 -0.11261355180615853 0.10538053030331564
0.07395153118790138 -0.11331824426258677 0.10590670608844094
0.07345798489543567 -0.11178050873064438 0.10554446734952871
0.07386536474924926 -0.11221060070312512 0.10612567485080883
0.07360116449095644 -0.11135062902884955 0.10593705828346019
0.07321152300250099 -0.11089625149957956 0.10538323918906103
0.07314465443111372 -0.10984878586602943 0.10557132670389302
0.07307667650014826 -0.10887791554573237 0.1057239193680705
0.07300376578313428 -0.10794546353255288 0.10585432574270243
0.07289110812802177 -0.10701123759711186 0.10593544175318836
0.07276202335973249 -0.10601044753212466 0.10603809375215616
0.07264398513316075 -0.10497160205538464 0.10623217792186213
0.07256380464320743 -0.10399842677528535 0.1064843856882027
0.0717437526332252 -0.10249751612878943 0.10567434356169796
0.0721481751669069 -0.10321433464924244 0.10611683448154044
0.07164529150722107 -0.10152566801440938 0.10584872601814668
0.07207416943591256 -0.10226890827088576 0.10636953698393851
0.07154036360463636 -0.10052123290393161 0.10597746455291174
0.0719690810359597 -0.1012743560650839 0.10654052468635979
0.07142411415553214 -0.09951465838215469 0.10606185446710664
0.07185701940076272 -0.10026651245132302 0.10665287406852472
0.07131067456176776 -0.09853843864993514 0.10608559640058786
0.07173065672946281 -0.09924159167035058 0.10670924725406185
0.07118720848975434 -0.09777079840192227 0.10603391298566887
0.07155515844475856 -0.0981082050245952 0.106680173859643
0.0715121211622836 -0.09709147319134985 0.10684658649992526
0.07144684871913415 -0.09604626559536765 0.10698276738990163
0.0712465284116664 -0.09483685624437045 0.10683980992312833
0.07112292680478235 -0.09374039330265856 0.10677225900649749
0.07104445351284913 -0.0927812874992321 0.10678137390805321
0.07104456768504419 -0.09212017153568094 0.10687571814427302
0.07090674134109222 -0.0913128914582666 0.10670614840666552
0.07125985086979289 -0.09203559626071173 0.10738947051881123
0.07074957202686784 -0.09049228214343995 0.10650567323238148
0.0711287331715742 -0.09091545936113148 0.10726519253856455
0.07114715118197422 -0.08984423431527543 0.1074201748984694
0.07119966869603998 -0.08878749915963041 0.10753785996622606
0.07106556491274248 -0.08786042236205431 0.10733992090279626
0.07082272169249407 -0.08716386429498917 0.10701883379125297
0.07129748013341111 -0.08743486714415875 0.10766655827905397
0.07137474689586527 -0.08647269547304925 0.10781113476124458
0.07127939230354934 -0.0856394137230191 0.10775632775427806
0.07101313609623562 -0.0848277086174331 0.10758887139987407
0.07157016153946648 -0.08539818223232362 0.1081713542991049
0.07082736397543365 -0.08417211903681755 0.10749088274453329
0.07129383183958816 -0.08431689699036006 0.1080814820121595
0.07098916474780075 -0.08316349338135454 0.10795902566096782
0.07082716321051306 -0.08240112611417463 0.10799544912143752
0.07137138724529324 -0.08293102810964462 0.1084917212942687
0.07078248965460998 -0.08209958058878766 0.10801352182030746
0.07124278398435503 -0.08236924481284467 0.10851115648287228
0.0796939121434593 -0.14959255766748028 0.1065079812404408
0.07978865167487219 -0.1493545758734105 0.10654438624441347
0.08009397466356248 -0.14956822889138133 0.10700058379107609
0.0800988076203463 -0.14904175398077008 0.10682218113133335
0.07982129676586915 -0.14876462419477926 0.10642082809790915
0.07976461427606107 -0.14713048097540718 0.1058628446342292
0.08005967225395395 -0.14773970748247892 0.106353334273856
0.08009280420783783 -0.1463865694581678 0.10598843659118658
0.08039265243021383 -0.14662515742624682 0.10637897469277853
0.08047671408592415 -0.14593587181547357 0.10632390813649124
0.08013935564969059 -0.1457290866772831 0.10590626167571529
0.07997501026763688 -0.14406568872533135 0.10543619537293414
0.08028455412117079 -0.14466052280898337 0.10593113509707269
0.08016624340323397 -0.14332590616346705 0.10560675744835772
0.08045290524248952 -0.1435761134841233 0.10601928723548518
0.08044769419094049 -0.14288162925346665 0.10599157724743921
0.08010335071210188 -0.14259917274423503 0.10553057050696962
0.08030130846739582 -0.1417424084286585 0.10584203938782218
0.07978739751736555 -0.14030036784409328 0.10541495061221025
0.08025026928603143 -0.14079378606566675 0.10594401224415347
0.0798054379668955 -0.13955885805426682 0.10568096566382067
0.08017555391475219 -0.13974396297830866 0.10612638558168483
0.0800424835247058 -0.1391227738117353 0.10617992436500108
0.07967361848856121 -0.138834855556411 0.10584239768466003
0.07903114709759185 -0.13780901372481888 0.10555887061338701
0.07935878645232923 -0.1380166102115703 0.10586300876770266
0.07844626392198223 -0.13633176792141322 0.10552816548234997
0.0788747642274771 -0.1366292737746766 0.10597957453720955
0.07913703511378957 -0.13734370866664247 0.10594677792587652
0.07863708232249501 -0.1358988886385462 0.10600086794336817
0.07823398122471857 -0.13564132370229087 0.10549279208163978
0.07823588668326051 -0.13458631739475016 0.10582569823764575
0.07810484383829024 -0.1337683754551445 0.10581784768631232
0.07819075692542597 -0.13318270333992735 0.10605974193179443
0.07766678568026171 -0.13165773106161835 0.10552188662543788
0.0780612627460714 -0.1323495914923246 0.10598417991744354
0.07767466236988449 -0.13067110265536847 0.10571680111443313
0.07809347317121114 -0.1312766506236372 0.10619208041591072
0.07770454437495752 -0.12988241331275235 0.10591630450937954
0.07811397782487105 -0.1302076571781271 0.10640462810438894
0.07790460295297129 -0.1294543404655053 0.10628499199181188
0.0775513918549978 -0.12916179600757371 0.10588836741819078
0.07694012194069474 -0.1274336837865883 0.10553445061212548
0.07741303785000093 -0.12808893062748886 0.1060103632747557
0.07690772645805646 -0.12668654061299836 0.10572734486212892
0.07725919864985631 -0.12699314714829038 0.10615669676597582
0.07708890486646437 -0.12627185960628795 0.10615231929675911
0.0767048490442665 -0.12594338787318052 0.10566119650651828
0.07665819464852537 -0.12494930374423878 0.10593715079855306
0.07666400532456759 -0.12402192758990276 0.1063037073753315
0.07595449096801109 -0.1225991970470494 0.10570169860364781
0.0763239850574156 -0.12326345433389602 0.10604037192685514
0.07591904421821813 -0.12183019961917103 0.10599718521292312
0.07632646504001385 -0.12224185466261192 0.1065012514733169
0.07608848321183279 -0.12139448301388235 0.10649770555944817
0.07567765610546684 -0.12102362657859879 0.10597339391541988
0.07561962714982613 -0.12004759673623525 0.10634700204700806
0.07490027881823413 -0.1186207033787826 0.10569245417287836
0.07526299959538255 -0.11931374973051806 0.10604844275241235
0.07484592958490831 -0.11766630590236739 0.10598161148379219
0.0752456102109173 -0.11836551536646657 0.10642188343981808
0.07480321123890583 -0.11685931658340627 0.10621429843330994
0.07520030457651108 -0.11730882015056447 0.10675225050251631
0.07497270021166842 -0.11643548480203372 0.10666238187722299
0.07458148399276185 -0.1160071491585818 0.10611018290469587
0.0744943877873884 -0.11499978039608495 0.10629514966398547
0.07438718938470702 -0.11401152822840108 0.10642993605246029
0.07431025481532326 -0.11301159948663433 0.10663394648476826
0.07427780221731885 -0.11206354398623829 0.10690888254950381
0.07353558588580046 -0.11055100758219846 0.10608289991682242
0.07391230150096853 -0.11127484000383646 0.10653029702543755
0.07346719353911249 -0.10958675403113063 0.10625800782854466
0.07386875840760378 -0.11031056429701735 0.10678544331956161
0.07337847351804422 -0.10860899152811418 0.10639936274120303
0.07378098632978759 -0.10928542898331144 0.1069618037083244
0.07328332564443168 -0.10765267501379729 0.1065014072663296
0.07366109332235186 -0.10829426890377676 0.10706468203676041
0.07318148926279026 -0.10669182252763248 0.10661770751204173
0.07356196306540885 -0.10736828624481631 0.10715900499793725
0.0730839671075044 -0.1056967855011872 0.10676786427293893
0.07349245915819644 -0.10641989379926452 0.10732801872433154
0.07297946428742343 -0.10470494370037643 0.10694036593455768
0.07341005699098475 -0.10539867275805608 0.10749275879638336
0.07287560140799929 -0.10390122408838295 0.10706544507659346
0.07328244442715734 -0.10428783390840515 0.10763980571295302
0.0729757796603965 -0.10345729361438508 0.10742400694545601
0.07255340697403219 -0.10306918307984433 0.10687332796831783
0.07241134581317617 -0.10199932938588911 0.10705900804013278
0.0723005081955811 -0.10099705183586012 0.10720510093821377
0.07218118829238392 -0.09998224319329725 0.1073034840111715
0.07205040041780013 -0.09894716596722204 0.10735763884980899
0.0719301089738479 -0.09792918876448665 0.10741419868268472
0.0718396669881621 -0.09701766213948326 0.10749602823227634
0.07181218693856639 -0.0963739759404359 0.1076461570234227
0.07166774328969636 -0.09558359729113984 0.1075578388652102
0.07205548197490101 -0.09625179182980127 0.10812322725502427
0.07152741102146949 -0.09456228636166886 0.10749489560964613
0.07193704221405472 -0.09531314286971497 0.10815323472266143
0.0713944143800544 -0.09354494580408956 0.10743383636974829
0.07179335349163894 -0.09427496291168759 0.10813372789253953
0.07127193097812802 -0.09272720427623364 0.1073129033252823
0.0716280108342607 -0.09309388706209984 0.10801834481252347
0.07159102517423427 -0.09201233482156634 0.10812255405205877
0.07159157326060292 -0.09100683746167973 0.1082204627151875
0.07170714365437861 -0.09005957378135834 0.1084219784797069
0.0718186313731235 -0.0891629934800657 0.10847455776407415
0.07144130691471094 -0.0883229013796581 0.10787193211129356
0.07182764951377772 -0.08827248773353946 0.10838761765110969
0.07185642969127544 -0.08750460143922949 0.10839107538553973
0.07213343492205396 -0.08695525853782568 0.10871190858576286
0.07169417044372565 -0.08612770715491097 0.10822927923577032
0.07209784698882761 -0.08608035741796029 0.10875996241633726
0.0719699222007797 -0.0852643513173354 0.1087035507532762
0.07202390310611159 -0.08455323035294601 0.10893415183275083
0.07152337189237953 -0.08370063667664404 0.10849038634406094
0.07190422394161233 -0.083597261499915 0.10903377542199505
0.07174268037861821 -0.08283227680682727 0.10905232500945543
0.07167770079189445 -0.0825028325375862 0.1090453743325727
0.08054000490928989 -0.150372499405115 0.10802439210495486
0.08040560886007223 -0.150035047456738 0.1076350287865252
0.08042381727771017 -0.14963138433688278 0.10742671446279735
0.08037914360934315 -0.1483367218991348 0.10687709860580075
0.08058316034927038 -0.14896665717904747 0.10732920963810903
0.08069958667613089 -0.14757485340819115 0.10695330596621132
0.08106783004274405 -0.14784638285507457 0.10746183790974595
0.08112095018270969 -0.14710304857667203 0.10728134386870566
0.08079189990964329 -0.14685542442972735 0.10687561561172156
0.08066844627408738 -0.14520455588777495 0.1064454772889444
0.0810153916197085 -0.14576742907462786 0.10693914335513727
0.08083142316617344 -0.14446646477258024 0.10658103125140374
0.08116741098481083 -0.1446888439416731 0.107024102983442
0.0811548853444836 -0.1440002691944604 0.106992118510983
0.08082443949831832 -0.14378038646252392 0.10654878487020693
0.08056378950159072 -0.14217525206150555 0.10618165139979349
0.08090472060539496 -0.14271104739402724 0.10665666040304064
0.0806501738574139 -0.14132899428707443 0.10640258429729256
0.0809141890051287 -0.1417714767505829 0.1067302615926058
0.08072901942261741 -0.14060036431050463 0.10666524869644634
0.08107109304548205 -0.14090032602960692 0.107120002728582
0.0809748586228824 -0.1401715915682148 0.10714279281849538
0.08065833362259711 -0.13981377136091927 0.10679840437548592
0.08008763167578827 -0.13859950885450206 0.10648787125859123
0.08041737972429132 -0.1389111610556752 0.10681225960081198
0.08029456022297987 -0.1382240624871463 0.10697648690093611
0.07993514832744573 -0.13792512577106625 0.10666074632790695
0.07923987176885697 -0.1368651947397539 0.10634874923454786
0.0795803742878433 -0.13710069829602414 0.10665488576218639
0.0786163029787355 -0.13518351585360824 0.1062393140644965
0.0790352999997223 -0.13566478638096954 0.10664401695558025
0.07934099210181476 -0.13635975000791772 0.10673991912934316
0.0786175871095616 -0.13448923701189985 0.10646218688723093
0.07894879098092718 -0.1347653428719918 0.10685781441417477
0.07883293205088411 -0.13410549516491602 0.10686227626447553
0.07847748044113889 -0.13377004982268298 0.10639682817678506
0.0785033279253074 -0.13284099190408297 0.10656985456935722
0.07850553873369474 -0.13188437341484324 0.10668928780642462
0.0785376467693263 -0.1308962146835101 0.10686731119779594
0.07858528939651434 -0.12996654864911247 0.10711823882538266
0.07787902242377338 -0.1287192009006335 0.10646183444760937
0.07824717475217018 -0.12928799189288528 0.10681297264508745
0.07785715758505009 -0.12799071156700115 0.10667981327932186
0.07826502485881859 -0.12830206120473125 0.10715245021159236
0.0780319385915473 -0.127551436220403 0.10709458106868705
0.07767827008386781 -0.12726932256307677 0.10668124672179448
0.07705226038571769 -0.1255323723155179 0.10636404337737071
0.07751087630484929 -0.12616570028849225 0.10684022227425541
0.07701143853363837 -0.12465403881061159 0.10662863192150704
0.0773346365104852 -0.12517596009403692 0.10694529243770723
0.0769917869643921 -0.12392022723908645 0.10688497764659945
0.07735810908155132 -0.12429571691584745 0.10734482410959094
0.07714735467392807 -0.12347199297425251 0.1073412899648647
0.07675657722349723 -0.12312690882058407 0.1068253934568701
0.07672908768679802 -0.12222810124030814 0.10718897226765646
0.07600977052370031 -0.12062389935727309 0.10673780743275849
0.076495549126193 -0.1212265800560553 0.10728085606116364
0.07591546686677747 -0.11988603734689326 0.1069337434997586
0.07624753389342884 -0.12014342875226418 0.10738263209127027
0.07603120329434512 -0.11946169778803684 0.10733031180794059
0.0756644456513679 -0.11913665652052388 0.1068390266493904
0.07559979387757257 -0.11812015088623724 0.10714726098824456
0.07558341386257006 -0.11731715293017257 0.10741435331881945
0.07492158835095279 -0.11560449942399155 0.10683291813988956
0.07536252367377058 -0.11638790940236758 0.10734159601188606
0.07481387982594354 -0.11461628480186202 0.10696328886784698
0.07529464782036827 -0.11516594186868387 0.10760089367100803
0.07471669370474382 -0.11367659498957058 0.10710107140306271
0.0750688270974632 -0.1142259472586038 0.10751313057929537
0.0746615900840383 -0.11275593688034354 0.10732130746546141
0.07505454912214327 -0.11341217841953742 0.10775347305939505
0.07459865848756626 -0.11196400386234052 0.10749931459377667
0.07500103042935742 -0.1123572569217141 0.10803131921976254
0.07473563449811864 -0.11148631112976941 0.10791376039733543
0.07431738851720816 -0.11111640002162983 0.10731743598720997
0.07420404230227598 -0.1099949030488365 0.107510176725264
0.07410142378786506 -0.1088786022697863 0.10771570592982298
0.07387760939322036 -0.10795397732314695 0.10761100258526732
0.07386253189238744 -0.1071796059828812 0.10782370454902238
0.0738581976557774 -0.10619968003710864 0.10810970902686706
0.07374018881683791 -0.10509038923456258 0.10820825167458696
0.07368333617499112 -0.10411829287535804 0.10839878447285867
0.07286389871387161 -0.10266482496713915 0.107554347334407
0.07329083695059421 -0.10335162561841554 0.10799495969827634
0.07274919100091243 -0.10169786172299392 0.10772365328738995
0.0732162982868441 -0.102395358515721 0.10821256223540977
0.07264057701432393 -0.10069657430560315 0.10784847104868384
0.07310906075068875 -0.10139141105180535 0.1083631948073993
0.07252109286805992 -0.0996798067392205 0.10793229916509102
0.07299640594985346 -0.10037886004955439 0.10847071109733926
0.0723859735007082 -0.0986622535388728 0.10799168223805736
0.07287062112519693 -0.09935602106803336 0.10854485454218281
0.07224346225996768 -0.09768150755948483 0.10802082664212562
0.07271123702033361 -0.0983159350732397 0.1085932475894223
0.0720886279936923 -0.0969100921263108 0.10798481616203985
0.07249181750011775 -0.09716533618423921 0.10857023077446527
0.07238800465032551 -0.09609284456380938 0.10872242325609134
0.07224480799026309 -0.09505562189559255 0.10878457488021821
0.0721044152215732 -0.09400044245646144 0.10880481381329223
0.07201711110710514 -0.09295845270293543 0.10884275349135747
0.07199275536947762 -0.09199157403557708 0.10893038037774305
0.0720474951696071 -0.09113598196458046 0.10910383318327012
0.07222594673981951 -0.0904821928703511 0.10929379792737842
0.07200027385846576 -0.08987891920733938 0.10886271353351627
0.07230301296060207 -0.08973989267298847 0.10922160037690071
0.07228465336261332 -0.08895876584771267 0.10902255963771822
0.07230137022569472 -0.0881845221920226 0.10893857536264111
0.07276461636995603 -0.0888151493662826 0.10953716830802247
0.07226296660992663 -0.08763903385228168 0.10887338197367334
0.07278780013791586 -0.0878747483685611 0.10946404460103963
0.07278761377096346 -0.08682316746608167 0.1095286802303781
0.07243617331699222 -0.08581650774895823 0.1092421530530507
0.07287275962758073 -0.0860996402579144 0.10976791278048945
0.072279120790373 -0.08525562709124017 0.10910700581123488
0.07260646895145527 -0.08529853316825044 0.10958281817371797
0.07246873971460636 -0.0843604008341341 0.10960378805976742
0.07229720855256076 -0.08347791919228773 0.10966084307954706
0.07297398172991791 -0.08429030878434599 0.11030080595959581
0.07209398417676968 -0.08290429182924197 0.10954795070169403
0.07285482373855941 -0.08351706824071153 0.11035755123363539
0.08064579304926267 -0.1501647981472594 0.1080671327206267
0.0808529382575146 -0.15021288177917802 0.10840890399703879
0.08100329979259299 -0.14984411930800032 0.10839383437903195
0.08079946219813422 -0.14954505641507815 0.10788573938809874
0.08127163300393496 -0.14853411865448685 0.10796888607859004
0.08169764878355794 -0.1475675309202712 0.10815004795407641
0.08134999377921413 -0.14635322625876812 0.10741184820001197
0.08157242651241221 -0.14690310910627946 0.10779687731939132
0.08154709547593784 -0.14560895200507593 0.10758720799623123
0.0818976445693836 -0.14589516179174636 0.10807984604585369
0.08187391760887576 -0.14515415997134015 0.10797249797106503
0.08155777479502946 -0.14490137505394665 0.10755523508131432
0.08127649828796762 -0.14326220372024406 0.10715408043604724
0.08166072491817483 -0.1438111114349005 0.10767958206246193
0.0813769663963759 -0.1425074332176854 0.10732813687202958
0.0816924867781163 -0.1427458171527838 0.10777222071977109
0.08164238736826317 -0.14207018564386614 0.10776126918053688
0.08132914082941543 -0.14172961484163782 0.10735234838965543
0.08152608368674769 -0.14075149190981548 0.10788217164872006
0.0810262105482867 -0.13960180376546102 0.10743353739830894
0.08131368572639978 -0.1399398552198348 0.10778657631868149
0.08121719958288702 -0.13922403029969466 0.10790511601979844
0.08091792679434288 -0.13888650789581353 0.10758664857832251
0.08031964385375308 -0.1376972017320669 0.10730777847894524
0.08064729665954101 -0.1380150153238274 0.107610413429118
0.08051339649322804 -0.137323095373978 0.1077926584651034
0.08016100700487243 -0.13702269426024652 0.1074675114121236
0.07945736545673747 -0.13571249841513083 0.10720345331502672
0.07982902634212777 -0.1361395703799537 0.10748093179449976
0.0797137441129851 -0.1353380146510687 0.10768269166218204
0.07935691112159896 -0.1350263014782717 0.10732522864815165
0.07887872368759415 -0.13338815336369714 0.10703832330781238
0.07925606941245764 -0.1340753184463137 0.1074347899677365
0.07891061752623477 -0.1324558488610317 0.10719538828841538
0.07930969644590267 -0.13304712670530608 0.10766804859324958
0.0789457548676717 -0.13148491910113763 0.10734594624932219
0.0793512590396485 -0.13207559798954274 0.1078285930385445
0.0789542566958493 -0.13054191353723527 0.10749974157456697
0.07941538810190477 -0.13103365126705566 0.10803682469966722
0.0789336603031359 -0.12979988135944362 0.10762981719698601
0.07928474453817419 -0.13004984520706767 0.10805240720723487
0.07912381517391036 -0.12936574423330985 0.10800059118616022
0.0787152719972654 -0.12906814287477814 0.10753184518417945
0.078732819035118 -0.12808789490377734 0.10788990073977475
0.07798430372499866 -0.1267980271055998 0.10731363733721436
0.07837233496226223 -0.12738316017265583 0.10765098924203857
0.0779421735307084 -0.12602886708678984 0.10756099470476806
0.07836283865277514 -0.12636181651728082 0.10807140665104127
0.07811033762818292 -0.12557523431090586 0.10802736459391873
0.07772792421464747 -0.12520581154651816 0.1075643150917277
0.07774002585599307 -0.12431805640852886 0.10797476225160516
0.07707744702887727 -0.12270695057971384 0.10756870910880775
0.077531310687627 -0.12329240822108256 0.10809877617778181
0.07696463554507336 -0.12182522235931176 0.10779963838036824
0.07730523512960565 -0.12228452333098802 0.10818993560834085
0.07689257809954751 -0.12108355589823698 0.1080474129579073
0.07725478048860883 -0.12142209204974021 0.10854622916068726
0.07703937359828979 -0.1206821247733765 0.10853067320289841
0.07668152326207404 -0.12026473639650664 0.10808893582597763
0.07597884246196765 -0.11873632189867035 0.10756249702916248
0.07633503065180917 -0.11938670158957636 0.10789820796520219
0.07592323583901843 -0.11784349881080178 0.10781623949467775
0.0763135059461362 -0.11846044118868217 0.10826606827657866
0.07582892792994816 -0.11692507295384626 0.10796718277717657
0.07622302231966674 -0.11749187082781105 0.10847311294391816
0.07573213045755864 -0.11595115225543925 0.10810878464508533
0.07613545754370485 -0.11656473295730863 0.10861001662996035
0.07568762273645499 -0.11511980257273383 0.10827480509963136
0.07608644166499347 -0.11555927955217789 0.10881432655478449
0.07586235617285825 -0.11469202740038476 0.10868337500372875
0.0754602957445552 -0.11424333856603523 0.10815410611772808
0.07541992885094567 -0.11319511767012212 0.10841025278736374
0.07540280813361448 -0.11235315295287918 0.10866685587868928
0.07463347646599854 -0.11064804374843717 0.10804712633196792
0.07515360711749368 -0.11131165240537 0.10865358878729797
0.07452075725751015 -0.10966872532257214 0.10820433236457809
0.07489052696856927 -0.1102418074575922 0.1086335157333346
0.07445537699575445 -0.10887947956376307 0.10837057492069296
0.0748481868243133 -0.10929605113699217 0.10890434165961775
0.07458756212471392 -0.10846364729044465 0.10874772351452947
0.07422323502977679 -0.10802889741480551 0.10823735418348583
0.07417935477649976 -0.10710100270932986 0.10845745718941154
0.07421508713290004 -0.10648393770230072 0.10869484501405728
0.07413557467242192 -0.10573922252274556 0.10874559138920172
0.07448709156029977 -0.10638157812335186 0.10918822664285939
0.07407167582413716 -0.10480767567132127 0.10887127455501809
0.07447238726777956 -0.10548579307442935 0.10937639809970691
0.0740107788428264 -0.10401376755234895 0.10896601473532713
0.07443185294042372 -0.1044283049715513 0.10952880554519992
0.07416758723426355 -0.10355614055687282 0.10930956699130981
0.0737229698233764 -0.10317550964631146 0.1087320348587198
0.07359328000460326 -0.10207315309587468 0.10886995557104741
0.0734815300846201 -0.10104868582284732 0.10898627596180245
0.07336341594496389 -0.10002891728121713 0.10907642177716047
0.07323122284083253 -0.09899596723947181 0.10913841166214859
0.07306024449583254 -0.09793475078356083 0.10919200303074043
0.07289098303335341 -0.09686514496895005 0.1092668784042859
0.07274349830440581 -0.0958195168676499 0.10935604673891523
0.07258430687574259 -0.09478159014197127 0.10943101213756727
0.0724767225923414 -0.09377511246089222 0.10949602739219653
0.07242169029303601 -0.09280873638182628 0.10957781071280075
0.07237606687209205 -0.09194091511701162 0.1096269963082465
0.07234519537366203 -0.09137982325843136 0.10964924497280196
0.07225888284080323 -0.09102568447066574 0.10948670148957954
0.07252875055784347 -0.09105508581489359 0.10983221290541385
0.07287169136900666 -0.09039625166080498 0.11003729078648296
0.07267199820070316 -0.08949606017486936 0.1095986779066538
0.07316570766364269 -0.08952000041070787 0.11014282176590044
0.07326349787096564 -0.08875390502187394 0.11008033570463069
0.07346809618441841 -0.08818762251713314 0.11025472752591149
0.0731360949977475 -0.08758531772903427 0.10986457596224261
0.07343230731463031 -0.08745084881113481 0.11022652256312411
0.07334524433994856 -0.08669503317994084 0.11021357781232122
0.07321350168962708 -0.08585831789248956 0.1102407175274301
0.07382017714389084 -0.08657206604700297 0.11085242214541766
0.0729769981591661 -0.08504518777344751 0.11012708272917274
0.0736464932559766 -0.08541097151947535 0.11087211616349964
0.07370861567271027 -0.08431059946045778 0.11119490377596951
0.07352893194205694 -0.08363845551357582 0.11113316514488594
0.0814178068900503 -0.1491021668380089 0.10851398050215025
0.08148796152549759 -0.14960653134627722 0.10905083372361281
0.08185376973956791 -0.14813766927061528 0.10859677505034213
0.08205289323675877 -0.1486414450862898 0.10924363980470018
0.08210299676727066 -0.14736318226385967 0.10868048966945884
0.08234307394106398 -0.14761473827895627 0.10915930294143689
0.0824291519689797 -0.14691947478472042 0.10904712946977463
0.08212792072713185 -0.14664246861188796 0.10852230043682995
0.08242712986888606 -0.14564964143467335 0.10881624568018755
0.08202130070882872 -0.1444036723776386 0.10816279744010851
0.08227083064814963 -0.1449664404619319 0.10852354411671951
0.08216656962195808 -0.14364239833806952 0.10840291686540689
0.08251710675831256 -0.14395587835016924 0.10890453619085778
0.08245764034054348 -0.14320095062141164 0.10886049879364375
0.08215186932259771 -0.14283406133116283 0.10845228320112996
0.08176308210081856 -0.14136774354358145 0.1080922253645415
0.08199167207013612 -0.1419803252144301 0.10832687542349832
0.08186927634346244 -0.14066407225770433 0.10844660045717584
0.0821658472628647 -0.14100509944452866 0.10885223436171534
0.08206814220371478 -0.14027373861957076 0.10890818479521522
0.08178199147305043 -0.13991462503447644 0.10856985861778157
0.08125800647535775 -0.13868481487901363 0.1082199018592649
0.08154012896458553 -0.13902985954791616 0.10854015398889007
0.0814401582795886 -0.13831980320126117 0.10869730405451664
0.08113509219424152 -0.1379875281637864 0.10838157697724174
0.08052836409942438 -0.13679605720116403 0.10810602710072671
0.08086622090834648 -0.13710637288366176 0.10841890705985376
0.08072092300643768 -0.13636614729852395 0.10858364573759226
0.08035234465137214 -0.13619383837124294 0.10815487843661495
0.0797449384600093 -0.13455602149407148 0.10795732175673964
0.08017630675914865 -0.13523243118117562 0.10829591555599531
0.0797305360052137 -0.13359286242880208 0.10814138326040983
0.08024254925212213 -0.13404465792011885 0.10869116048097303
0.079742116987614 -0.13266183702025994 0.10828157496182958
0.08009315222631234 -0.13315212484250535 0.1086625866924172
0.07979718432227577 -0.13174479173442102 0.10844050343980938
0.08018435996022852 -0.13234386864775938 0.1088676049735963
0.07984158941808217 -0.13100024675243943 0.10859424760776201
0.08023850318165598 -0.1313246066215852 0.10906111583183777
0.08004728649529512 -0.1305826628277759 0.10893043380539871
0.0797013642977721 -0.13029677955062835 0.10855084847568043
0.07911094143917874 -0.12865332932582665 0.10820699877612502
0.07957842390429602 -0.12925238342350504 0.10864671046773307
0.07907749344515518 -0.12792428827246147 0.10843446681594619
0.07943758567937335 -0.12820326749124936 0.10881146488732946
0.07926831116581337 -0.12749736346680626 0.10886385688303701
0.07884561879470577 -0.12716461474855426 0.10842416170237129
0.07884299101595588 -0.1261271268963843 0.10889670208071398
0.07807065348787927 -0.1248325401969976 0.10829920604001525
0.07844671214114658 -0.12541975273641076 0.10863985822952778
0.07799361305983694 -0.12393577883916851 0.108604210654232
0.07839377734881108 -0.12449903514194834 0.10902143017116593
0.07791483971481698 -0.12312721571959004 0.10888262715398346
0.07829507705109558 -0.1235100655883161 0.10939685708596086
0.0780630483246145 -0.12270494571634515 0.10940893905721517
0.0776780016795911 -0.1221856262607121 0.10895012789734125
0.07752093344106659 -0.12134723546442126 0.10910865585039388
0.07699201265650822 -0.120087411413492 0.10875467787407518
0.07735300444634716 -0.12057214046778796 0.10920646825612458
0.07712618109965039 -0.11968964873823347 0.10922446630486309
0.07674287468261867 -0.11925568702999999 0.10869999043066142
0.07666812247272718 -0.11805407817809982 0.10907539219106843
0.07646374428854817 -0.11712349654584893 0.10902737924698214
0.07646361172776578 -0.11635776746848434 0.10924753783251165
0.07646513011481298 -0.11559154129231043 0.10944684063281926
0.0758284661550423 -0.11388214447962644 0.1088483834084117
0.07625682456497132 -0.11467477365384238 0.1093220178059218
0.07577616912862196 -0.11292547385407645 0.10904539326334799
0.07619962620162696 -0.11358088455174183 0.10950151618913738
0.07568215571677464 -0.11197157294030885 0.10922144761423876
0.07613258631148172 -0.1125761237300054 0.10968296461898161
0.07559521064218325 -0.11114088019707369 0.10939195552677299
0.07605581604632593 -0.11150501906857294 0.10991987569988902
0.07578147498042714 -0.11064827348362591 0.10984059034540383
0.07532336405873603 -0.11023687531180136 0.109315340398557
0.07529634192320621 -0.10914659228650726 0.10966304593221596
0.07452054306473646 -0.10771137394968262 0.10887591147663929
0.07489777708953199 -0.10834867967139693 0.10930301228999155
0.07443895991303826 -0.1069976310243948 0.10895374241448225
0.07482020103026324 -0.10727863603816469 0.10950570794060024
0.07485425097530311 -0.106273839849309 0.10981414837807099
0.07489460096067548 -0.10529560195060954 0.11008146248901345
0.07484524155700667 -0.10438681209588557 0.11015557404318582
0.07409131221662141 -0.1027117034703632 0.10938973217730444
0.07459527790413867 -0.10346116159730313 0.1099364869360134
0.07398139059632945 -0.10168895224365805 0.10948954875209786
0.07449890409600136 -0.10232054283993296 0.1100054983664183
0.07386812232963497 -0.10066540252693636 0.1095790887474424
0.07438833661040103 -0.10127117711121965 0.11007371382203897
0.07374627859716099 -0.0996406774681034 0.10965185304449221
0.07426670500298796 -0.10024429778990983 0.11014324608329269
0.07360023407530432 -0.09860612918602261 0.10971776257204606
0.07413198255566464 -0.09921891598979096 0.11020986755166098
0.07343291951501693 -0.0975600770343096 0.10979233981022113
0.07398093588433077 -0.09818826238693035 0.11027947012762829
0.07326334486713412 -0.09651983620155988 0.10987880591062014
0.07380542680383738 -0.09715505971995742 0.11036264980423524
0.07310355978829358 -0.09549357515049749 0.10996513618489001
0.07363792793659579 -0.09613869513547096 0.11044912515541791
0.07296265274870453 -0.0945047258514174 0.1100574195448233
0.07348373032615271 -0.09515114334196828 0.11053904256104148
0.07289642984004271 -0.09355942756485208 0.11015518851115673
0.07336266168289567 -0.09422899617818356 0.11063846769383631
0.0729115153917542 -0.0925921703222059 0.11029162987901828
0.07334016480284701 -0.09341478887091385 0.1107579870216908
0.07269200805427294 -0.09169953666312658 0.11008215050974961
0.07358942586827022 -0.09277808368583348 0.11105504047499744
0.07321485967572425 -0.09193607384167823 0.11064393022411109
0.07372094890719195 -0.09203562791235174 0.11116323643324784
0.07293701920155979 -0.09126844340422778 0.11031179253136811
0.07348523860474855 -0.09123340033178204 0.11084692564768459
0.07373292035971854 -0.0902908622583085 0.11093593351165493
0.07364372475892929 -0.08929618645980845 0.11061690074457171
0.07403433574930073 -0.08958558301158465 0.11114390297310398
0.07360944655105447 -0.08876840444517711 0.11046115455615313
0.07394468465360794 -0.08881994763920315 0.11089040815140479
0.07390915714477737 -0.0879961250623539 0.11080708463847375
0.07379792565803546 -0.08729324760808296 0.11069906115095528
0.07432386475657486 -0.08763250371607015 0.11140453673139766
0.07444622960279022 -0.08652440216118998 0.1117228914403038
0.07432794149450665 -0.08540191713246843 0.11171874105483219
0.07456200349201202 -0.084747378290513 0.11214078963841252
0.0742533459535831 -0.08388091602551288 0.11191493714969165
0.074761370622219 -0.08422763661297211 0.1124311283990909
0.07476679729364419 -0.08388336973521594 0.11245932930342283
0.07447415643938564 -0.08359791328105265 0.11217785408045544
0.08188144315924342 -0.1497290333180307 0.10978773199876717
0.08210337138023682 -0.14929604509015895 0.10982386062709597
0.08234952175779453 -0.14965442088764053 0.11044625281893142
0.08246455988502077 -0.14860591939670148 0.10989034289761733
0.08269392584526164 -0.14890887708281203 0.11048178668288457
0.08282644038736142 -0.1481709064887026 0.11021435332282573
0.08262557130666605 -0.14788127849717167 0.10973880736064653
0.08264031846266368 -0.14620315362259484 0.10919934042675714
0.08288534099381904 -0.1468124836424524 0.10973121350198259
0.08281948738003322 -0.14547576706278625 0.1093547786320777
0.08308203257092359 -0.14573794448723523 0.10979452127855806
0.08310970158386365 -0.14503780299708469 0.10975984603962086
0.08278301333175708 -0.1447419224665326 0.10927297107412762
0.08301540152111951 -0.14377490678359867 0.10966758028577575
0.08255235460780896 -0.14259948095220384 0.10909170323982689
0.0828512173975492 -0.14295431087004343 0.10951383782771586
0.08280886715557394 -0.14216215647652497 0.10958362718925198
0.08246424901191976 -0.14183858703401014 0.10910841117494047
0.08260140368561732 -0.14084664311788986 0.10963937636160816
0.08209961880378068 -0.13972236100224095 0.10919145447420106
0.08237305048528609 -0.14006012285183403 0.1095347356899905
0.08227168091297007 -0.13936161402793376 0.10964566854655201
0.08199142938182508 -0.13902466382750586 0.10931414384976869
0.08147022854521653 -0.1377910774892887 0.10900384452065673
0.08176574250966802 -0.13813074069545145 0.10932845803382236
0.08165203416286931 -0.13737515573025527 0.10949911725264123
0.08132286667625417 -0.1371644052082264 0.10907823595003932
0.08068213466875017 -0.13563390989265398 0.10882693871081925
0.08115333831876258 -0.1361261823253379 0.1092965406467827
0.08065909504191095 -0.13472197272192077 0.10907030555291611
0.08100835091362892 -0.13517668006803493 0.10942028364763315
0.08071106532011912 -0.13393222331113616 0.10931550431989778
0.0810977377624445 -0.13429688300215503 0.10977117822286174
0.08096137702644682 -0.13348316515575112 0.1097287468553652
0.08055660540421682 -0.1331014785766098 0.10924733614901078
0.08064326750782122 -0.13204938274930975 0.1094937878072599
0.08073629600412516 -0.13111754984654966 0.10973039485385348
0.0800435714104297 -0.12986004282575705 0.10907982715839186
0.08040810363829735 -0.13042761879000564 0.10941988466387258
0.08004741953778909 -0.12913975268628608 0.1092758063214699
0.0804701700147352 -0.1294595202416716 0.10972089925321309
0.08026751742154381 -0.12869707744108566 0.10968742996707627
0.07988079379193215 -0.12844302055281986 0.1092927944035741
0.07927480891091312 -0.12674359584296616 0.10920423965213541
0.07972166908116084 -0.12744098545812504 0.10947831467587132
0.07923195629176755 -0.12594457984673318 0.10954236941593601
0.07975155139235182 -0.1262525140448219 0.11007558000632967
0.07939559525210058 -0.12547034986361733 0.11002851373598652
0.07890916662895317 -0.12508739167831984 0.10954163220003715
0.07865154286054296 -0.12415709670583122 0.1096651808493219
0.07865169247107931 -0.12351068147826964 0.11005851721013672
0.07801863920472268 -0.12209231081347573 0.10968521999786339
0.0784054487153788 -0.12259809639463448 0.1101554519925544
0.07815940744323549 -0.12174354035852172 0.11018709356301444
0.07779093594583397 -0.12123772716817027 0.10972739793861776
0.07762016475086937 -0.1204654900687028 0.10981845886129576
0.0770734953164306 -0.11887237608222635 0.10951404788624808
0.07746486921794928 -0.11969423752001584 0.10989685909590667
0.0770345503845559 -0.11804693585596672 0.10977637196802582
0.07741442730498813 -0.11854126825278413 0.1103112773889254
0.07720077854518988 -0.11763426425028627 0.11022741034600429
0.076825126236153 -0.11716475773798543 0.10967644433271449
0.0767941799288569 -0.11616175883129688 0.10987982300394886
0.07672428041251131 -0.11522133595614457 0.10996042493145722
0.07663860553072739 -0.11422914123918325 0.11001863951766652
0.07657454046387473 -0.11322090599429763 0.11014432793862433
0.0765117676810891 -0.11224466246498557 0.11031626400481676
0.07648406890930838 -0.1114254534658843 0.11053102173577546
0.07573219597279893 -0.10981175961836696 0.11007641830927246
0.07622127621588295 -0.1105211540162933 0.11048920676247433
0.0756537596756214 -0.10897885804698265 0.11026310708831882
0.07613867096249989 -0.10928070082523253 0.11083145225168574
0.07578032548272562 -0.10846766898581067 0.11062031203292869
0.07533657069549875 -0.10813787490077728 0.11005905604146315
0.07524959904354034 -0.10703752304655256 0.11024253068794952
0.07522698286307317 -0.10614529581220918 0.11042370760045721
0.07528007977658553 -0.10553421497572217 0.1106119708096682
0.07520700448432138 -0.10483660358052704 0.11060638130741499
0.07557239195469542 -0.10537544544465743 0.11103566384097734
0.07512737494556042 -0.1039322825232822 0.11060165701179976
0.07555395201061048 -0.1045140216032267 0.1111157951658272
0.07502004331170188 -0.10291701990320744 0.11057659973001627
0.07556000593213731 -0.10351611508561098 0.1112146961127853
0.07491490651455898 -0.10185810967289907 0.11058573844370564
0.07542397686908915 -0.10242330217240705 0.11113764602944243
0.07480116796791082 -0.10081941602594378 0.11062514972783373
0.07531906157640483 -0.10138970117637217 0.11113862357743319
0.07467258241360247 -0.09979202623309245 0.11068256610707529
0.07521030845717164 -0.10035601785597754 0.11117077002888562
0.07452451297340798 -0.09876620890321791 0.11074861179277712
0.07507126047799037 -0.0993240745011648 0.11122056807105515
0.0743582618327127 -0.09773949541662921 0.11082257519617066
0.0749068377759352 -0.09829446967742841 0.11128388492573703
0.0741830633796611 -0.09672948120698398 0.1109089556426069
0.07474198564349072 -0.09727759314490163 0.11135526412991213
0.07402038412620165 -0.09573588770538165 0.11098970170590262
0.07456955613429118 -0.09627862040271078 0.11143297216275712
0.07386494158317204 -0.09479495326041538 0.11106732091355642
0.07440292224724994 -0.09531106250261939 0.11149635412265503
0.0737461206413917 -0.09395116613798038 0.11112502805595617
0.07424314073941769 -0.09439505238762648 0.11153212533785589
0.07367174371778916 -0.09339889867924733 0.11113434961499409
0.07408504465121747 -0.0934836815565135 0.11150203751666603
0.07427413894120143 -0.09258774917445334 0.11171861531222006
0.07404352450601637 -0.09163212060280455 0.11144720974615575
0.0744909048687231 -0.091813307585768 0.11191367865395627
0.07390724331766466 -0.09105296696170535 0.11124601916624302
0.07432540417525002 -0.09101570391947883 0.11167726521920902
0.07436275950020164 -0.09013545405361391 0.11163117466989186
0.07441427609229853 -0.08930595656117997 0.11156578184596064
0.07485636540790436 -0.08990365062033094 0.11220264625982666
0.07431644477281808 -0.08851469364639263 0.11135476523124074
0.07482691667403323 -0.08877160152615417 0.11209113183058964
0.07496447085248696 -0.08773428860402062 0.11232126111588121
0.07513200050681926 -0.08695075324838097 0.11264278835927848
0.07480220670791442 -0.08599802967141569 0.1123059143460766
0.07521581104710376 -0.08625525288147681 0.11288099368742097
0.07468361429054801 -0.08540851346432166 0.11220176017008344
0.07502214972802441 -0.0854938448736447 0.11269266576099023
0.07517978317781727 -0.0848151531329468 0.11291805782728517
0.07501910093600692 -0.08423779853527774 0.11271083143992762
0.07523670723915007 -0.08435457617073307 0.11295727902347828
0.08263048788845068 -0.14992863769452436 0.11103578266319718
0.08282939807782401 -0.14951527235872178 0.11107347027749205
0.08324573941913616 -0.1487269169844633 0.11118133556748418
0.08308133457564612 -0.1474408161751468 0.11028543838564563
0.08320725244537933 -0.1480274227106799 0.11074254045243803
0.08335080677866964 -0.14671969384425979 0.11040705888236253
0.08362207759749811 -0.14706870416033202 0.11093684274094172
0.08369747171644748 -0.1462891031077497 0.1108109219804927
0.08341597107283447 -0.14599124474001504 0.11035350285630745
0.08324029517829944 -0.14432326783189325 0.10998963431512603
0.08355610358894665 -0.14490549415775214 0.1104703278495363
0.08336206819970134 -0.14364360128012574 0.11020760214926727
0.08362853693781051 -0.1438622483128015 0.11062152389952158
0.08360384370070571 -0.1432172815676808 0.11063012652424156
0.08330156525831628 -0.14301830641849483 0.11019312234889486
0.0828800672806638 -0.14142038123120446 0.1099025364323468
0.0832500250748325 -0.1419832984551929 0.11036210572014213
0.08291275635933389 -0.14072093335832644 0.11020048593323328
0.08318749159513032 -0.1409498939724185 0.11058337355456059
0.08306834232476086 -0.14034518266247992 0.11062756212959556
0.08279755574667395 -0.14003817172180055 0.11028890765801173
0.08230484228081197 -0.138836901296992 0.10993275746409807
0.08258501983538949 -0.13917516388314227 0.11027294442289279
0.0824773151682194 -0.13842646980631862 0.110427520722232
0.08217225164695119 -0.13821149227447643 0.10999752692394749
0.08161223112633763 -0.1366273928405714 0.1097954863992704
0.08203970866206715 -0.1371780153165263 0.11023725837929457
0.08157707750508039 -0.1358666959956519 0.11004917517352747
0.08191413003740987 -0.13610058062856611 0.11048634349805211
0.08178101301792426 -0.13539932022535509 0.11051894710187654
0.0814211791864207 -0.1351118823591075 0.11004318360875512
0.08150648640453083 -0.13426843863281068 0.11036374427280268
0.08102019388446864 -0.1326826827082416 0.10992042664933495
0.08138337299901634 -0.13340491107303173 0.11033354669430095
0.08109131322440079 -0.13173279853524814 0.11012828920203521
0.0814506664141889 -0.13234040009381204 0.1105695656812719
0.08111623960125304 -0.1309604351867355 0.11026267388724761
0.08153244035324045 -0.1312688293945609 0.110826999076812
0.08129156220350509 -0.1304911097952157 0.1105845842342186
0.08089176758723098 -0.13022132241482584 0.11008629521354547
0.0809136411991886 -0.12936617153049426 0.11030542513528516
0.08024027346387438 -0.1279321422749161 0.10992390537107652
0.08069989343054802 -0.12853573002169877 0.11027926797561287
0.08020229820844954 -0.12699835837213513 0.11026353182954951
0.08065940516514462 -0.1274987219451886 0.11060362278638308
0.08020053243416417 -0.12639687651580303 0.11054064254085275
0.08063452160687841 -0.12648962047751333 0.11102058045329334
0.07931096696604296 -0.12486913572706522 0.11026929461215959
0.07979199680626922 -0.1251560614607032 0.1107434439751699
0.08020869442233974 -0.12584293954450662 0.11084903061208083
0.0794530025322998 -0.1244359861968265 0.11074269169942563
0.07902877149156279 -0.1241379046439862 0.11030252121756752
0.07890601277308402 -0.12311614763092028 0.11075012187705388
0.07869108207044916 -0.12243106330745025 0.1108084965443915
0.07810516831439544 -0.12115332716555434 0.11043454731711694
0.07849678353599057 -0.12164855655379496 0.11090183218581323
0.07823005779765194 -0.12078019605369958 0.11089744269859031
0.07787765585502204 -0.12038504244159699 0.11039605522933471
0.07779913933337286 -0.11938599950443306 0.11071772956856789
0.0777828588343669 -0.11857189686066003 0.11100424628506042
0.07717166233682349 -0.1168208775345486 0.11038782620065779
0.07757930054179302 -0.11763354144997787 0.11089967599005564
0.0771252648167944 -0.11583993924560049 0.11050578670814443
