# .PCD v.7 - Point Cloud Data file format
VERSION .7
FIELDS x y z
SIZE 4 4 4
TYPE f f f
COUNT 1 1 1
WIDTH 791
HEIGHT 1
VIEWPOINT 0 0 0 1 0 0 0
POINTS 791
DATA ascii
0.06948567108246986 -0.14002713148100876 0.0843926574693727
0.06939352362642913 -0.1393134330740228 0.08465844798844484
0.06910059255592367 -0.13857395286957258 0.08397293121026758
0.06897590958149453 -0.1378428754301948 0.08425688611909646
0.06884828319411157 -0.13708922832177056 0.08456699419018729
0.06870278813695789 -0.13632271698853976 0.08485862145916329
0.0683248498974116 -0.13561122892118307 0.08416941394838401
0.06816311776750635 -0.13484647801818195 0.08445700740674462
0.06800091647615968 -0.13409359788018296 0.08469850651644216
0.06762444486381058 -0.13342753158295223 0.0840467028270313
0.06748679805928999 -0.1326755653428597 0.08426918220251343
0.06738490767382063 -0.13193266118034175 0.08449799379776249
0.0673132295598754 -0.13114936502571378 0.08479052916155488
0.06724892834592389 -0.1302906595789939 0.08501825536511642
0.06693158297660193 -0.12949059398072457 0.08424791970786322
0.06687912268994366 -0.12860009741096431 0.08435568107644435
0.06683339517161123 -0.12774405114323964 0.08445793519974022
0.06681416815576538 -0.12690492511122708 0.08462264429828918
0.06679670710069359 -0.12605128595936727 0.08477278259188349
0.06678243871408632 -0.12521108457581845 0.08490885038219646
0.06673021254058599 -0.12432759935422164 0.08501141403749976
0.06666743790384545 -0.12329591428086746 0.08520166504841814
0.06649796516187607 -0.12232099356591 0.0850597193359117
0.06617666746943641 -0.12146274151205955 0.08445777287336959
0.06599162800072496 -0.1204764374975187 0.08431793499583151
0.06597441586543618 -0.11971849515124743 0.0845595645591635
0.06591643315123792 -0.11878567674936642 0.08470706032498583
0.0658777397091862 -0.11783442718982222 0.08480601247886088
0.06586108843424464 -0.11687198688217325 0.08489151355828836
0.06588943738759918 -0.11591063360113443 0.08496483366890017
0.06597446676964197 -0.11496839432957869 0.08504780171837616
0.06610336701436628 -0.11405536837204269 0.08514086193912651
0.06625880150555864 -0.11318240668853095 0.08523546070824714
0.06616810270235317 -0.11227235326619281 0.0844049316741339
0.06630310959669257 -0.11145205056292834 0.08455043508178244
0.06640011216482944 -0.11064839889175648 0.08473452002069023
0.06643348596350887 -0.10984779479683257 0.08495099151537484
0.06642597184714477 -0.10907812008897202 0.08522537151612619
0.06641302068489119 -0.10835527225613863 0.08557663315567447
0.06614912383132535 -0.10757777694529443 0.08497363373056359
0.0658879122495629 -0.10685243484757008 0.0844211389913937
0.06592739147671617 -0.10617906405950679 0.08472850604573985
0.06594409104282296 -0.1054031414786798 0.08489055179905226
0.0659604371570533 -0.10457095848336552 0.08500324170809273
0.06595760310517533 -0.10366107027081113 0.08511119815314498
0.06588699917650692 -0.10265827565259938 0.08518804993702368
0.06575280531641818 -0.10161674567791498 0.0852490508928819
0.06553251978238188 -0.1005586161944013 0.08533161183332316
0.06525688161238305 -0.09950923413478417 0.08543968753292441
0.0649761607625546 -0.09850415186620981 0.08553449755756969
0.06466083455479321 -0.09752945971309297 0.0855718473721035
0.06430401173371172 -0.09654987347973443 0.08564317550391197
0.064084910841974 -0.09570296820564492 0.0859421270320848
0.06397797768244298 -0.09498653259287729 0.0863742572413117
0.07032461182941573 -0.15008371328508718 0.08451336689843952
0.07040293365660094 -0.14969932980798872 0.08480787645126038
0.07049470303617197 -0.1489939561782813 0.08504334108675862
0.07058992605091033 -0.1482450130565807 0.08529655257656076
0.07067790761110397 -0.14750215644344955 0.08558429809677127
0.07060050305689092 -0.14668120757828923 0.08488763961619183
0.07060635177627451 -0.1459497584653473 0.08521347931308791
0.07057487333401552 -0.14519310271559385 0.0855070842457222
0.07034770365971965 -0.14447849592648185 0.08480906951010708
0.0702524709699897 -0.1437278043031631 0.08504883582583252
0.07018323078914128 -0.14298786968693472 0.08529925343762841
0.07011675538797593 -0.1422367940149749 0.08557146230971638
0.06983918412670914 -0.1415085189845262 0.08487847390591252
0.06975922570040323 -0.14074834250993903 0.08509252958503923
0.0696665529096498 -0.1400342727169184 0.0853155681650422
0.06959395522033465 -0.13933609049024914 0.08560924848020719
0.0692988305690852 -0.1385895832203524 0.08494834744575629
0.06919260889980366 -0.13784387180591848 0.0852642177612277
0.0690872509681959 -0.13703999688908067 0.08566672519731301
0.06889337669569262 -0.1362707141201162 0.08567068804387479
0.06858620323765896 -0.1355506386908749 0.08525166631256846
0.06837026463881225 -0.1346831670880173 0.08539146992243908
0.06819179031507458 -0.1340217972875838 0.08546672030947845
0.06788392982516103 -0.13333270763994207 0.08504886155921097
0.06769058068059006 -0.13255915014357791 0.08503996224641665
0.0676538525237986 -0.1319352617707771 0.08542473829068647
0.06760487902921299 -0.13106140407336536 0.08585794928236574
0.06745079981277706 -0.13017876682142865 0.08583190404766425
0.06719809735241769 -0.12935563969867553 0.08527536001443688
0.06705639835646256 -0.1284420804807321 0.08511701874044915
0.06706334070199123 -0.12773175322144398 0.08535347518560499
0.06704490415096409 -0.126859828816276 0.08551369180523023
0.06702864456845076 -0.12598912125010986 0.08564285324550104
0.06700747499351392 -0.12511856999720755 0.08576759704461014
0.06698344150442458 -0.12424487324120798 0.08591826183632817
0.06698577265274086 -0.12351749618713695 0.08614918516349106
0.06653274622934899 -0.12173070551898257 0.08539859629216608
0.06683368213642386 -0.12256756008688235 0.08599734789909641
0.06675206274062596 -0.121516071058563 0.08620041475175595
0.06633651063626833 -0.12073443198838693 0.08526571654007666
0.0662442205940984 -0.11966823731052449 0.085477054660142
0.06616508361709302 -0.11872869677991028 0.08558686466964727
0.06612649359113179 -0.11780287103957486 0.08571265796310243
0.06611692000045193 -0.11685277620962582 0.08579445919036646
0.0661580852585969 -0.11591343094115128 0.08587585194429635
0.06624683165781253 -0.11499020026826091 0.08596263942934927
0.06637624907612717 -0.11409700557657819 0.08604283993576965
0.0665343287086162 -0.11326835656209276 0.08614189184599672
0.06642265661016114 -0.11236651182916449 0.08537084098835152
0.06657193895249067 -0.11159446135127128 0.0855622347348969
0.06667023248499335 -0.11078648211642038 0.08576851343694587
0.06669824923032085 -0.10995092944916526 0.08596022237977835
0.06667778226561022 -0.10917766634735716 0.0862140994823692
0.06664951933179049 -0.10848108324512695 0.08654411563573544
0.06643840061255725 -0.10762851087625012 0.08603306632116015
0.06617555126428601 -0.10689356691875239 0.08531781451182485
0.06624792527981846 -0.10616039481034421 0.08568043547105743
0.06620329869170677 -0.1053181418347589 0.0856255181220583
0.06627056049328907 -0.10461854738045419 0.08588163560415099
0.06626496356999258 -0.10365221352827493 0.0860125517645748
0.06618035668559796 -0.10262529346885216 0.08608940008204244
0.06599737347472465 -0.10156232661206052 0.08616031939963466
0.06573734382644292 -0.10047092450711595 0.08625853103899861
0.06542712268574363 -0.09933838784125923 0.08632783820169178
0.06511160409136658 -0.0982544437486107 0.08632920074586413
0.06480735483551542 -0.09725930427080458 0.08636210538564926
0.06450819409389746 -0.09629325038799094 0.08650252441456019
0.06420339253354711 -0.09534710029702533 0.0866894806334233
0.06399236046586776 -0.09453998658893323 0.08698076192721203
0.06383516238766371 -0.09385522687893806 0.08736955643284673
0.07044711698939624 -0.15012162558014036 0.08549775998876834
0.07052381065549444 -0.1497157742555934 0.0858003190340054
0.07060292839695545 -0.14904361266029678 0.0860065168456421
0.07070874288459492 -0.14832710829937007 0.08627439731157022
0.07079630513312644 -0.1475746777834013 0.08656874899979045
0.07073711354826666 -0.14674898145357634 0.08590742344879748
0.07076565953935772 -0.14593876688452423 0.08632469881931885
0.0707141153018209 -0.14514719520390643 0.08632537864548817
0.07052713132254032 -0.14440439031164734 0.08586906102073331
0.07041215344067725 -0.14360979644388558 0.085866763716289
0.07041106874607274 -0.1429543806173838 0.08633688462760929
0.07028496727720107 -0.1421752061089537 0.08636618996516278
0.07005647511149343 -0.14144042695128153 0.08591142307239856
0.06989782015034995 -0.14065688789212105 0.08587423650419951
0.06986259667498536 -0.14007854763855923 0.08623132240671628
0.0698051699072768 -0.13935035211138852 0.08656608387778908
0.0695090517062212 -0.13860608023523252 0.0859178045552908
0.06942884974430341 -0.13788564094509514 0.08623684047087272
0.06937357065626705 -0.13731103391538604 0.08657276422113978
0.06890371508078517 -0.13588026355765923 0.08608506459230839
0.06918461639803433 -0.136561286961515 0.08651827168982244
0.06907855462586289 -0.13580488250412656 0.08685023074358393
0.06873770267665572 -0.1352158060937857 0.08615725835049726
0.06820179210334087 -0.1336188541474623 0.08588340057656604
0.06852236291483943 -0.13433671115007817 0.08629140995497314
0.06840828564592108 -0.13352378414577717 0.08669224268221497
0.06800475291684945 -0.13282012617776517 0.08593158916425653
0.06792782904268334 -0.13197329287519094 0.0863816258715286
0.06790385447253254 -0.1313184996356312 0.08675847239269678
0.06747573555965883 -0.1296416744236065 0.08619576246389801
0.06773732754622311 -0.130437812449589 0.0867301876318205
0.06768227143864167 -0.1294464642624432 0.086991155245734
0.06734368510276419 -0.12868789854353516 0.08606974257839413
0.06731333584990058 -0.1276623579765142 0.08626447780705845
0.06727607464325885 -0.12676580743134913 0.086368068657986
0.06726368770101523 -0.12590676361316433 0.08649681014113374
0.06724821954412875 -0.12503723897848895 0.08663018399546586
0.06723186470729078 -0.12418557064917098 0.08677655899548871
0.06720329195491274 -0.12330456547590143 0.08689522642936173
0.06715946829374468 -0.12226941763896428 0.08712398132263256
0.0669833797123849 -0.12129135961543587 0.08699640958340663
0.06665535760995603 -0.12045772603443777 0.0863797976635977
0.0664504617241812 -0.11947187243663548 0.08622656545488332
0.06644356400059548 -0.11869396983483263 0.0864657662624107
0.066395533059928 -0.1177355101112288 0.08657736777425315
0.0663838568856728 -0.11681073472345989 0.08664310497268737
0.06643326705047801 -0.11590931919307362 0.08675050886721825
0.0665283970505341 -0.11500150476139981 0.08682791853503057
0.0666619874556335 -0.11413567320418799 0.0868928388103153
0.06679068811848436 -0.11336906596695456 0.08694778087960714
0.06669190951046038 -0.11253732550715417 0.08630241220442365
0.06689267253548138 -0.1119171584504428 0.08670702444766366
0.0669541052357501 -0.11091729910321416 0.08679853597499047
0.06693341876142675 -0.11004903621889013 0.08694618306384158
0.06687488858386072 -0.10927841994063145 0.08716858706144266
0.06683185624382944 -0.10859561302547556 0.08745977624086392
0.06665733852982296 -0.10794896920171516 0.0869228201409456
0.06640400113676334 -0.10690742364174197 0.08607441189471686
0.06659545371740541 -0.10723580365748427 0.08684306632595087
0.06649286094700929 -0.10655470544425935 0.0864622175202313
0.06651626351300595 -0.10577147303990465 0.0866316036111516
0.06656906557542971 -0.10467663658215653 0.08685878252277388
0.06653280137504848 -0.10365421404487056 0.08696567681301355
0.06640820438854658 -0.10261482767464324 0.08704070591434587
0.06617126063857877 -0.10152709898076535 0.08712691644997216
0.065868804448847 -0.10035411356521069 0.0872893413842018
0.06547686914690236 -0.09899559928282377 0.08726582920021224
0.06516393692319294 -0.09793692949423277 0.08699881928769068
0.06493905059224091 -0.09708988589229385 0.08721444365593428
0.06461772565505823 -0.09608363166505868 0.08735512102248673
0.06430825823762858 -0.09513703971086572 0.0874757926153369
0.0640388724236286 -0.09425120750137397 0.08767736410322256
0.06383012518279434 -0.0934967760416753 0.08799399197512238
0.06373658464010666 -0.09290909815873367 0.08839952847203443
0.07060570202962423 -0.15013699951299897 0.08666175599744032
0.0706379070821046 -0.1496723017862493 0.08662118444624829
0.070751303844522 -0.1491211846548095 0.08694908878860637
0.07083201082331707 -0.1483715669112682 0.08724100560219204
0.0708938264943391 -0.14761184639368494 0.08753290423552453
0.07086910579191692 -0.14683130016086518 0.08689791829195949
0.07091608323898127 -0.14624719484414556 0.08725248557586981
0.07074626065437102 -0.1447166679236218 0.08673858630711355
0.07088644628600729 -0.14544898837150413 0.08720465671251611
0.0709061779761232 -0.14461847801912922 0.08754438573381532
0.07065787734381787 -0.14391926211555503 0.08677059852783554
0.07066304769729972 -0.14325028610240684 0.08723067107181823
0.07030454617733616 -0.14173963496407285 0.08677436655562985
0.0705323365880704 -0.14245652320118155 0.0872160133291709
0.07047076649950237 -0.14164461293439887 0.08756952085611854
0.07014985044771735 -0.14093966734538274 0.08678003342968761
0.07009949829329307 -0.14010834628191216 0.08719881703830382
0.07003887465272243 -0.1393262816766664 0.08752662615665849
0.06972668494297446 -0.13860576024765237 0.086871256667578
0.06963458773009196 -0.1378896690312244 0.08713737084164239
0.06951948097603423 -0.13718000636811073 0.08731743743108758
0.06939664810143023 -0.13644689925912667 0.08750757887695071
0.06928799616453431 -0.13570186083361446 0.08777246192682023
0.06893483587102242 -0.13503490537450655 0.08708390303713937
0.06879210905141477 -0.13421691485782505 0.08738731514601916
0.06864653695700808 -0.13339015141723587 0.08768372826253139
0.06828095058110888 -0.13270268198258164 0.08700403409692073
0.06817971901289946 -0.13190846665768277 0.08729118492280383
0.06808547525523366 -0.13112097758923882 0.08751413172314441
0.0680454991115557 -0.1301755578671498 0.08786304756685609
0.06790449992512954 -0.1292284270622209 0.08780161417156357
0.06764172469429772 -0.1283997779504277 0.08719715939886273
0.06750774401592112 -0.1274347177087708 0.08702349835113608
0.06751254724059184 -0.12668572618682922 0.08720487454530883
0.06749256476852293 -0.1258163953326588 0.08733224623294736
0.06749482028190973 -0.12495075062993831 0.08748384920564406
0.06748608056628615 -0.12407296783540199 0.08761426954301423
0.06747326668010999 -0.12320914253802834 0.08778553606925613
0.06747939985918633 -0.12249048369848561 0.08804724399116305
0.06698894443419422 -0.12069126317717516 0.08728406737289426
0.0673365433361145 -0.12147961831165531 0.0879750858496852
0.06715260371819165 -0.12044619660883507 0.08786896949266157
0.06680301888580885 -0.11972812088115761 0.0871293953942748
0.06678310951712906 -0.11859351565506439 0.08745856678327196
0.06663366988595243 -0.1175748774975099 0.08727634121470289
0.06668542298386194 -0.11681906752331656 0.08747519243328755
0.0667451836006499 -0.11590120532878306 0.08758020335402956
0.06684582565776613 -0.11499971709187962 0.08763129942245355
0.0669758630920343 -0.11413903358247628 0.0876866238313597
0.06700349392176708 -0.11340157492762021 0.08750655851801392
0.06690720214642797 -0.1128205764015687 0.08705687258807143
0.06716011923560736 -0.11297390370606798 0.08777509534088533
0.06721224115976297 -0.1119524634453743 0.0877258650667626
0.06719319979982695 -0.11099559404056135 0.08777109381254128
0.06712490090093168 -0.11013645453768629 0.08788641451336887
0.06703499694142248 -0.10938091765442949 0.08807333576821127
0.06698327710393022 -0.10873384861270798 0.0883775468402921
0.0668203172239328 -0.1078601093796 0.08777962962417933
0.06674897953969895 -0.1070951937652334 0.08753434165198776
0.0666335938609608 -0.10663603540603918 0.08703367796595321
0.0667752346791742 -0.10648137406822923 0.08765189340683817
0.06679728401622638 -0.10561971537070504 0.08773493256593737
0.06680223431311355 -0.10465198253053465 0.08784982181207816
0.06672515614211778 -0.10365576422642434 0.08793638276001929
0.06654900247681511 -0.10262225434175364 0.08802160443478883
0.06627506497743652 -0.10155013187215539 0.0881281151932205
0.06604023219068299 -0.10071504569969573 0.08809728423897858
0.06618681411828714 -0.10118472602046354 0.08855283136774258
0.06601368740834956 -0.1005860111322412 0.08865005215022674
0.06580003435283724 -0.0999087683897667 0.08801674014223962
0.06579318145925836 -0.09974940968947694 0.08886034519180029
0.06558799209904626 -0.09910530792222136 0.08811638114821363
0.06531740403060662 -0.09811725581415476 0.08790295110529908
0.06503952839467263 -0.09693677529845814 0.08826330653212623
0.0646521708745748 -0.0958602344994798 0.088104922758477
0.06441877293097358 -0.0950645989311627 0.08831210911992823
0.06414453903253992 -0.0941515909755231 0.08848120911444003
0.06392268487992833 -0.09332292916972246 0.08872570654283192
0.06382598530859206 -0.09277984177332817 0.08904279549440283
0.07074229036978129 -0.15032327631373335 0.08757355924487176
0.07088561997662937 -0.15025573042107374 0.08829897515710387
0.07077480262724099 -0.1499044560043166 0.08757618383057311
0.07088731338727011 -0.14914677045346647 0.08792374110807848
0.07095009423763289 -0.14837455597892477 0.08818926836913457
0.07102841842667772 -0.14761680997219143 0.08849236690946408
0.07097992006027248 -0.14688398842856557 0.08782464593115961
0.07103862240961004 -0.14611588130798706 0.08804480005001727
0.07108215151516363 -0.1452904821178367 0.08826095243653437
0.07110708120056489 -0.14447366475039455 0.08850109518979281
0.07088063172197451 -0.14382689592311126 0.0878156061983495
0.07082159709874115 -0.14306302697718198 0.08801235248970758
0.07075660801779281 -0.14230774977248778 0.08821131112951283
0.07071364716901925 -0.141538570822099 0.0885359229034498
0.070399574932392 -0.14084428594057824 0.0878663404231552
0.07033908927376017 -0.14003583336235398 0.08820644561452448
0.0702577973984378 -0.1392340023582456 0.08848464059436803
0.06994288816108488 -0.13855093087121675 0.08780912582895024
0.06982683217956319 -0.13779666992871684 0.08799825961179925
0.06970707129773909 -0.13707975488121682 0.08817251677813896
0.06960868196333306 -0.13636869933972232 0.0884251603476726
0.06950721361704393 -0.1356314697111446 0.08871763256521588
0.06916570411104705 -0.134926390057553 0.08808132260325316
0.06903797196512089 -0.1340698198752049 0.08849740764123289
0.0688342010035218 -0.13325555398114283 0.08849859439734538
0.0685378618136509 -0.13253172125727783 0.08804827591955121
0.0683515571860683 -0.1317215948859211 0.08803313476229961
0.06834289246189333 -0.13107545734796777 0.08838731324728016
0.0683502804506011 -0.13040213584144109 0.08875213767542325
0.06794090377578699 -0.12862356450811974 0.0881191905057558
0.06823138462588624 -0.12941235273035262 0.08878188914367295
0.06810231732904495 -0.12840311526977535 0.08873702252665237
0.06781500272814714 -0.12759312328998762 0.0880178215533843
0.06770741366966462 -0.12653452288944023 0.08793198971229511
0.06774713376667203 -0.1257562355873913 0.08820133570624705
0.06774956576150466 -0.12482570215101248 0.08834204311507021
0.0677421126993236 -0.12395790345759165 0.08844269867960063
0.06772832000047672 -0.12315191887068279 0.08860559348646192
0.06769293892429927 -0.12233576524969046 0.08874463585755778
0.06767542542671197 -0.12161352412349583 0.08893211027990078
0.06714471385587197 -0.11963834583078083 0.08812260936150515
0.06750951003254707 -0.12065137019665943 0.08876847072573646
0.06713527506432057 -0.11883468934986749 0.0883517288504835
0.06749861891492885 -0.11951246313560933 0.08908789586763993
0.06732235420864824 -0.11853252240632689 0.08887801412139515
0.0669774246320483 -0.11784933002740966 0.08812837735193735
0.06701079290043656 -0.11680970216437855 0.08830248475944588
0.06706966656946574 -0.11585035399571891 0.08835367121036634
0.06713499512479838 -0.11498221988057716 0.08833845531807485
0.06720064615122734 -0.11435463439730448 0.08834499933975755
0.06715534788471315 -0.11377357193125266 0.0880207585056452
0.06739654772721673 -0.11404652660864414 0.0887192441180424
0.06746948213450578 -0.11302071288908175 0.08868980669366378
0.06745723863273675 -0.11201146705241585 0.08867768335799767
0.06738320694449755 -0.11106408117471923 0.08870399031898052
0.0672551215707925 -0.11020105328060247 0.08878417638791121
0.06714647162634219 -0.10947748294422456 0.08889562025074206
0.06710180871242043 -0.10898251454319033 0.08912041132652505
0.0670180867870091 -0.10819212501842444 0.08900339806445012
0.06689712298767142 -0.10723792590592598 0.08832820517841526
0.06694959377638589 -0.1064583153215188 0.0885864546291887
0.06698406454814151 -0.1055765503848788 0.08873042092366196
0.06695924600735122 -0.10464349403199232 0.088822470154267
0.06685803312830302 -0.10369092635888999 0.08891379400562298
0.06664762698420816 -0.10267173778259497 0.08906048325393405
0.06638060077781285 -0.10177274937349498 0.08887270360669954
0.06652256092642893 -0.10215419761175254 0.08959041132712874
0.06625041209781492 -0.10132264853183365 0.08914609299434535
0.06605394439185329 -0.10068680916213939 0.08941014213178254
0.06589137820760049 -0.10007549972741145 0.08970638483172176
0.06556565263703386 -0.09881360775521421 0.08865723193360799
0.06568570355954942 -0.09910901651453176 0.08959430333688431
0.0653931657847347 -0.09803085411029923 0.08892702323542755
0.06549842956856139 -0.09803262600161208 0.0899896116333482
0.0652123489969557 -0.09722838144918759 0.0892346504754776
0.06488118875430869 -0.09612347946970219 0.08913750079027322
0.06452196413400764 -0.09498129678611446 0.08906664133463023
0.06431114278425529 -0.09421602830104216 0.08937392619598405
0.0641160522742948 -0.09332138683068585 0.08961738265411195
0.06399062943766476 -0.09256326150248234 0.08996357291908771
0.0639448837221135 -0.09193821821513776 0.09042155236726686
0.07100897839290396 -0.1501696388968702 0.08897504478551153
0.07096978814679517 -0.14978186526263598 0.08874389337770563
0.07100431620479523 -0.14903807338110933 0.08876615648550913
0.0710926502112486 -0.148392651327201 0.08916712206035261
0.07117812194130149 -0.14755139263643402 0.08948644541759737
0.07111739472434536 -0.14680924615010987 0.08877462803700754
0.07120923226518543 -0.14596374520157057 0.0889996882783321
0.0712985370416675 -0.1451057809723116 0.08930606367591162
0.07129273382335191 -0.1443254993533862 0.08928738960071314
0.07111147575546813 -0.1436377367669555 0.08882520567637829
0.07099342288841534 -0.14285897654344706 0.08878190633484223
0.0710032829559398 -0.14221630288540463 0.08916162970970105
0.07097618877402787 -0.14142648704476618 0.08950127175947162
0.07065337020246534 -0.14073452189626834 0.08888575927571614
0.07059420548988883 -0.13988017771496172 0.08926807624221157
0.07043427646664484 -0.13911677181056728 0.08926637077359656
0.07016528509159163 -0.13841354282574297 0.08880420618731627
0.06997149195271127 -0.13763851060917107 0.08873741567767592
0.0699193598197231 -0.13704039072425298 0.08904961285524875
0.06983156493346382 -0.13630897861756516 0.08934245213144848
0.06971960664615277 -0.13557926295208686 0.08963961432963562
0.0693950635916836 -0.13489762158073784 0.08904855374210396
0.06933753851590077 -0.13429553450093976 0.08941500022259348
0.06883125015821648 -0.13276659497969542 0.08890200111803193
0.06913263215728313 -0.1334874652230386 0.08938585469506777
0.06902248521994636 -0.13259704474771275 0.08969491628153017
0.06865273075225545 -0.131923593748961 0.08890151340165392
0.06860287873530464 -0.1310386898325122 0.0892415813809423
0.06855193074517302 -0.1302503824765621 0.08945826824859159
0.06855939044671344 -0.1295639894715228 0.08974092574059694
0.0681320653475753 -0.12777669584189522 0.08899356951434169
0.06843819071743895 -0.12855375285457687 0.08969782853769072
0.06832037406262291 -0.12749959431487196 0.08959967084925712
0.06802234475017924 -0.1267832917540139 0.08884607219494128
0.06808625698226183 -0.12560453746316388 0.08922130239681053
0.06797729485130655 -0.12460423923348606 0.08905884875724372
0.06799159079585526 -0.12387016339904722 0.0892424879331103
0.06797513877153664 -0.12304245294717354 0.089375215908092
0.0679514869381697 -0.12222664387201046 0.08952940309239231
0.06789786328622999 -0.12136540164438911 0.08961241484456951
0.06784203675456339 -0.12046116595362057 0.08972808871690614
0.06784075254922645 -0.11969897274186979 0.08994215182488272
0.06733763626908079 -0.1177079077624792 0.08901620792574513
0.0676841156769981 -0.11871472287419751 0.08972815314611969
0.06735839955069585 -0.1166990863436097 0.08908859592606651
0.06768599913444473 -0.11759098967148193 0.08984789794731449
0.06738036264728564 -0.11569688093663813 0.08904074363975674
0.06769079634766953 -0.11650511408734869 0.0898358007628535
0.06735576788156082 -0.11486540089335084 0.08883578718307276
0.06766507944621779 -0.11526133127705464 0.08962999838779334
0.06773630718543937 -0.11413504670406104 0.08964138321367529
0.06773483319435596 -0.11308371445180627 0.08962201704265328
0.06766132593175762 -0.11206957727943427 0.08960733344973519
0.06751928332528785 -0.1110993875566238 0.08962013770170262
0.06734389082434784 -0.11018462122541291 0.08964203542136212
0.0672134545718164 -0.10948891454652142 0.08949182190161757
0.06729904121316259 -0.10977540215370839 0.0899975865195546
0.06719829751669895 -0.10907171278461045 0.08990303398010098
0.06715157997493848 -0.10816782387459851 0.0901492312814878
0.0670532112644262 -0.10730730259082984 0.08935923447831493
0.06709345740553976 -0.10643198013548831 0.08958181912430169
0.06710882995590327 -0.1055323155532012 0.08967350045553188
0.06705853407974513 -0.10465631287728515 0.08973486545715853
0.06693722322157872 -0.10380656284430005 0.08986960343359357
0.06678348005327067 -0.10306824434200561 0.09011176123708334
0.06661751122460922 -0.10248448066740415 0.0904621805511743
0.06634322229308465 -0.10157773945037367 0.08996374435585489
0.06613210255578775 -0.10087271066211347 0.09027977704033577
0.0659377761247594 -0.10001997032177634 0.0904640021256267
0.06578169191581063 -0.09911230081801473 0.09065437097532261
0.06570311091761659 -0.09838209368797189 0.09093680236914933
0.06522753641091228 -0.09704589709674069 0.0898670194509665
0.0655064854705966 -0.09740392516872426 0.09077313400543123
0.0651306467116826 -0.09648078330048543 0.09018103174665415
0.06485119856433857 -0.09542358327620089 0.09005152217331643
0.06461635142744966 -0.09432965661633948 0.0903574480102524
0.06440737757494176 -0.09334514165231576 0.0905714310068185
0.06420096282273458 -0.09241783083040735 0.09078898088474609
0.0640873808597717 -0.0916334135468657 0.09110124542059117
0.0640873522101412 -0.09099736479775797 0.09151635714999631
0.0710926185505326 -0.14986008796989975 0.08954724772311459
0.07125750031166946 -0.14958487252830982 0.09038637120333502
0.07113317489776676 -0.14924684965644464 0.08972042962592927
0.0712685053398737 -0.1483125721945393 0.0903089836438145
0.07131188880442912 -0.14742628123622492 0.09032667744725076
0.07128311465177077 -0.14665540012031467 0.08983156233397115
0.07137009555739234 -0.14582765870073144 0.08979777128816806
0.071495071663875 -0.14533515028219252 0.09017550253663759
0.07135600735245297 -0.14384632019400595 0.08968764656246088
0.07150104386870564 -0.14453554960289164 0.09014643217374334
0.07154412413748712 -0.14368252317466276 0.09048354050588561
0.07126783252439638 -0.14302689471464952 0.08971144761148402
0.07130415712300618 -0.14207443184272672 0.09023810228927782
0.07118383283962917 -0.14128781300503565 0.09029050377058834
0.07093129614931003 -0.1406089477044716 0.08991918256600356
0.07081535598276147 -0.1399794307682767 0.09001390928647998
0.07043343147845707 -0.13864717537291246 0.08965898840240544
0.07070078916888659 -0.13933036938277568 0.09009740282909047
0.07060852788945975 -0.13847356016881157 0.09045398345293529
0.0702461908250513 -0.13783577356187732 0.08964455437192052
0.07014448338468703 -0.13697625103310485 0.08997879601893494
0.07003688972185754 -0.13622959968543674 0.09023900045864075
0.06993435403352441 -0.1355104612877481 0.09054101884863537
0.06961657324844822 -0.1348705078934986 0.08994700790662653
0.06949610131063585 -0.1341268701122939 0.0901990879186267
0.0693897530238519 -0.13325638971357284 0.09050790477173576
0.06921854342426624 -0.13241882615127162 0.09048202342459281
0.06894225794562174 -0.13167971507189327 0.08999761545140143
0.06879279075097076 -0.13083977921002923 0.08995449712285111
0.0688007914120648 -0.13018582191951925 0.09025725369685732
0.06876924772765398 -0.12937293809018519 0.09045761064749512
0.0687761615631929 -0.12864780723225305 0.09066419666168844
0.06837800320849453 -0.1266584917117987 0.089885394248161
0.06866207524181306 -0.12768463479638076 0.09052576537750487
0.06842828072775141 -0.12581777135331473 0.09016558771218279
0.06872748433923592 -0.1265175694623265 0.09090991741746629
0.06861680319777445 -0.12553719190868037 0.0907573658908682
0.0683147567507167 -0.12474941990782529 0.09002431999548208
0.06821566663858317 -0.12370970550837879 0.08992906371418889
0.06824554878149065 -0.12295245978069762 0.09018806060006695
0.06820931079862301 -0.1220445780215583 0.09031236143499313
0.0681562612365965 -0.12117406684289762 0.09039342906784066
0.0681180745922212 -0.12033644805071357 0.09051901820308524
0.0680702539395958 -0.1194489503123516 0.0905889915465981
0.06803105300400013 -0.11846219694731631 0.09062882939115895
0.06802128534321043 -0.11741574502037874 0.090664635571752
0.06801767987260217 -0.11633115352544264 0.09062794803608676
0.06802348894252866 -0.11523685169362896 0.09058234525858984
0.0680182366809262 -0.11417630260646419 0.09056622764903997
0.06794922772680802 -0.11313542521694926 0.09055619626429602
0.06780906598102927 -0.11209748269203394 0.09056716317279531
0.06759948309842874 -0.11105879021647073 0.09054799484489934
0.06741666573372355 -0.11028871768769205 0.09032825317033125
0.06751665966549539 -0.11057909273797525 0.09085343313353646
0.06737210115406006 -0.10987121803948276 0.09071024357463865
0.06728449550169348 -0.10901971193757026 0.09091032825719186
0.06726633969697578 -0.10809583035285228 0.09126710260671846
0.06716397195435485 -0.10726774941154267 0.09038502704281698
0.06719762672620641 -0.10633314671656523 0.09059643751203054
0.06715751679947161 -0.10541404401342265 0.09040219495778146
0.06709949156085912 -0.10473564759892702 0.09059539345823073
0.06698526317944693 -0.10395898829125057 0.0907533753664945
0.0668441664086421 -0.10329941265203857 0.09092936377131222
0.0667200847200513 -0.10283611613003017 0.09117039895456736
0.06647324832314519 -0.10196072815916635 0.0910008232092306
0.0662242132840895 -0.10097732929063301 0.09122930963343215
0.06605383226440471 -0.10004655562363765 0.09140549636531675
0.06594450176111831 -0.09915070705357042 0.09157500555415571
0.06587763242103291 -0.0982527951068568 0.09167450201666694
0.06580611626970237 -0.09732818527703538 0.09177299556746439
0.06536576944942732 -0.09640640148242337 0.09099451858902484
0.06519423119086144 -0.09541833715410496 0.0911707605733781
0.06500267616727898 -0.09443727801970482 0.09139676672513809
0.06479191447047632 -0.09342269308026174 0.09155244249173627
0.0645443593530734 -0.0924163265145573 0.09170209592042956
0.06437683595180951 -0.0914785299716629 0.0918849673542599
0.06434041830950571 -0.0907061882435456 0.0921885303441109
0.06441310717599441 -0.09007369397510381 0.09259993174439247
0.07139876091852562 -0.14937950811264333 0.09109139920408481
0.07133503517055324 -0.1490999071926555 0.09081408317234421
0.07140408954886415 -0.14849476052118907 0.09126511464720877
0.0714209930334439 -0.14691006657230335 0.09072957779527366
0.07146135849624428 -0.14765416985363547 0.09124227279603389
0.07159992332626476 -0.14670651252821515 0.09153770028343151
0.07152619563847715 -0.14605689235822583 0.09068959477218921
0.07168084610931236 -0.1451432036751416 0.09095441888114685
0.07174404186043855 -0.14430447989353803 0.0911558034920607
0.07179732730726462 -0.1434800386635921 0.09143232013930512
0.07157207495205467 -0.14285132706142661 0.09079673979982089
0.0715862005856485 -0.1421781240811708 0.09114028992788589
0.07120040103687256 -0.1408086509380964 0.0907104125527591
0.07145342949547448 -0.1414369018106777 0.09110756141578787
0.07137839153774078 -0.14060976400089753 0.09146968192857192
0.07103840805400313 -0.14003771380983254 0.0907611258274964
0.07096603102824726 -0.13907150950231062 0.0912322134107769
0.07080408084231347 -0.13828041445089115 0.09126605244044063
0.0705129039867821 -0.1375955788201946 0.09080142956353271
0.07031836841102568 -0.13679168445718648 0.09078966762660293
0.07025827284804222 -0.13615326529395644 0.09113929807282564
0.07013507614512733 -0.13539653807975394 0.09142822283844387
0.06982056098684063 -0.1347716782627975 0.09083633409230547
0.06971564457329174 -0.13403289868395846 0.09108548836206787
0.06967035749120393 -0.13342725301377295 0.09137867618048565
0.06924422970038188 -0.1318873050552256 0.09085946345882945
0.06951463755329683 -0.13261674736423254 0.09135575103069415
0.06945822177748646 -0.13165808378139793 0.091650345504029
0.06909711463026318 -0.13100184929113914 0.09081430589749331
0.06906139544803208 -0.13003974503134222 0.09108049369591552
0.06902931097766271 -0.129214465413555 0.09123437920783738
0.06900069101002358 -0.12838309403799453 0.09136182943424365
0.06899590170124174 -0.12748685993308587 0.09151610441207488
0.06905247344515797 -0.12672799900449114 0.09178388810747946
0.06865357623643244 -0.12490531552779408 0.09097076583954879
0.0689605214125544 -0.12568554855784717 0.09169726985739043
0.06884654712267367 -0.12462338507169525 0.09155531707387485
0.06853011658091654 -0.12392576389264827 0.09081192898482172
0.06855994922129344 -0.12275982125573905 0.09116367839845427
0.06842276505835211 -0.12178365350929456 0.09099040737585755
0.06841387501512823 -0.12104002922112338 0.09115499938247665
0.06837472726760775 -0.12017776018336511 0.0912626945578288
0.06835702468274318 -0.1192699587759652 0.09139171675965581
0.0683371638496431 -0.11828154559551138 0.09146723868490704
0.06831706761074863 -0.11726303628226216 0.09149067518420032
0.06830820247334823 -0.11624374632805526 0.09148097725462587
0.06829477382306812 -0.11522839891540007 0.09147835080950964
0.06823617392327924 -0.11421101491926845 0.09149080056368049
0.06812086753061387 -0.11318061684446165 0.09153828323208249
0.06793321034463562 -0.11206275889568582 0.0916360582056002
0.06768380767833203 -0.11112419529694241 0.09130341865355426
0.0678277187797587 -0.11134508130572357 0.09209041650893407
0.06757598235058357 -0.11055381810164894 0.09147892099986764
0.06744939182544937 -0.10980612371773253 0.09160332588417368
0.06737304800874949 -0.10904837347035426 0.0918259034533256
0.06736518672418973 -0.10842902192596683 0.092160141302122
0.06724399680560986 -0.10717396829830457 0.09119843125142316
0.06733593519744262 -0.1074391525085172 0.09212751483658246
0.067261691745367 -0.10663677732373561 0.09146520665036144
0.06721473814912945 -0.10572109427721543 0.09125106728339469
0.067119594227659 -0.10478467012799153 0.09141301195468396
0.06698454492616492 -0.10399410747105875 0.09148271028045382
0.06686174702226311 -0.10340450858382565 0.0915166439301792
0.06696630500232024 -0.1038479233183307 0.09198984907984785
0.06678892025381986 -0.10302888774103035 0.09192108269498092
0.06654728151845306 -0.10198520325505063 0.09203668470601625
0.06634587279944318 -0.10100098275601145 0.09218968792503034
0.06623173126760101 -0.10006169720658946 0.09233683967994072
0.06617687318400413 -0.09913387982448864 0.09246055178436315
0.06615444534204167 -0.09821507130584502 0.09255712178736458
0.06613863252763846 -0.0973436679025965 0.09267045613632946
0.06574650377576303 -0.09643500543215663 0.09196113885609611
0.06564830317546592 -0.09554765020939385 0.09219956747727219
0.06549011125838308 -0.0945843972049478 0.09241689215905434
0.06526171030790501 -0.09353104273641707 0.09254338573317465
0.06502789728457006 -0.09249428605475135 0.09265727262303457
0.06481935126418906 -0.09149211648187174 0.09278913399509257
0.06471325260019696 -0.09056515561100623 0.09296772415545906
0.06469234576138758 -0.0897487895488057 0.09324801058713297
0.06471741941352106 -0.08890126699735934 0.09352404190561277
0.07150207257872311 -0.14884825170186816 0.09166862288469778
0.07158977546374007 -0.14818695649635877 0.09205070166639208
0.07172395294858333 -0.14731285219822723 0.09237108719681825
0.0718152989412507 -0.1464747877845736 0.09233870414543977
0.07181426936178452 -0.1457510880256595 0.091813988374952
0.07189835399551361 -0.14486311697308224 0.09176463622714622
0.07202035259866083 -0.14408369722298064 0.09218067227288888
0.07202137008244462 -0.1432851823893987 0.09220720167995915
0.07184620977917533 -0.14262930302854884 0.09179733605166181
0.0717304417301956 -0.14187099668863418 0.09177310418065909
0.07171532502053818 -0.14114936849728463 0.09215296907153192
0.07157859860092075 -0.14040502326923707 0.09221744163476883
0.07132218697093688 -0.13977064715497958 0.09185812162181378
0.07121229556556322 -0.13911567091849883 0.09198925315993946
0.0708124721721953 -0.13778156622899732 0.09166041674414925
0.07112197720914783 -0.1384102626567143 0.09216131877786729
0.0709648833677445 -0.13760795029880094 0.09227362380977619
0.07064907136257834 -0.13694533727090316 0.09177670064390603
0.07046792179403838 -0.13595933114748557 0.09205344771169888
0.07032049674030001 -0.13527463342267845 0.09217171019964533
0.07004702141861581 -0.13462229265150602 0.09179601898234747
0.0698868032732664 -0.13389302449400062 0.09180758311654665
0.06984943215180738 -0.13325446257889065 0.09212247223137404
0.069810935854391 -0.13231074609692917 0.09248532278174898
0.06966653326534177 -0.13139564060974931 0.09246346615376885
0.06940353108396888 -0.13064635755773646 0.09191551617340481
0.06927261369937825 -0.12975870434287184 0.09180139135812833
0.06927253367116894 -0.1290370273951256 0.09200723982019549
0.06925066598282491 -0.12819993715450168 0.09215253730931577
0.06926793011368632 -0.12738228371981222 0.09233379648271313
0.06926491040341756 -0.12654138572303064 0.09247718948713089
0.06927547994988272 -0.12579388234355282 0.09266008918835217
0.06887383207484135 -0.12378236682785386 0.09182065350287472
0.06916348183582256 -0.12480704475967094 0.09248386383861182
0.06889025728775006 -0.1229442261557088 0.09207531049381984
0.0691877510445725 -0.12362868995791669 0.0928283804181259
0.06905845086225543 -0.122658346141565 0.0926481738690693
0.06875280830027344 -0.12189597533670575 0.09192237531308751
0.0686303720682749 -0.12085987940943126 0.09181659419612458
0.06865617312492459 -0.12009079163228853 0.09206173521020056
0.0686520009755988 -0.11911366779407949 0.09224425445872243
0.06861223843021874 -0.11809807914700779 0.09230570259777447
0.06857146526913702 -0.11712998317683827 0.09230368967398078
0.06854842693161214 -0.11618665404819228 0.09233281079302337
0.06850358476391676 -0.11522610016849547 0.09237150801654323
0.06842674592079638 -0.11425765193443668 0.09243948262821423
0.06830420979891152 -0.11327610036655834 0.09257716351514524
0.06816980167534496 -0.11231179787673111 0.0929181220479564
0.067952829718434 -0.11140102670982982 0.09288688237298001
0.06768869142175903 -0.11055400020020796 0.09240672451991215
0.0675220118157741 -0.10972603485778068 0.09233568609864065
0.06749095501678468 -0.10912711140651496 0.09264491472626869
0.06746322197581785 -0.10835075093284566 0.09285847162948008
0.06745346946307736 -0.10763316185316153 0.09305178948961611
0.0672992789917853 -0.10642525004993195 0.09198745216067844
0.0673894291716976 -0.1066305558154691 0.09283935758086874
0.06725168611164656 -0.10561642419186737 0.09211323854318432
0.06731715376977918 -0.10544505433398793 0.09292076761440403
0.06712415622130713 -0.10464412999302145 0.09213788512990423
0.06711336292500177 -0.10417336511026809 0.09279231625242844
0.06689724794124444 -0.10300997105557502 0.09289216353018415
0.06667487599126161 -0.10196215180030516 0.09298522984459189
0.06652875527714393 -0.10099690732753472 0.09311181012666345
0.06646381645427925 -0.10006076953923655 0.0932521948004481
0.06644773504211535 -0.09911574208776323 0.09336538926149142
0.06645005504670669 -0.09819383688706003 0.09340330664974998
0.0664470823731041 -0.09739969715293931 0.09343447570452106
0.06613413504454345 -0.09656615278993128 0.09286993430293937
0.06619215055103049 -0.09587981709730894 0.09331837455726699
0.06601677239014518 -0.09473840423731776 0.09343883256314199
0.06576910798379515 -0.09365126891806375 0.093523279675169
0.06551902355910733 -0.09259874775672809 0.0936183679390746
0.06533051255848683 -0.09157060841939982 0.09371153592540386
0.065202086873718 -0.09057842730928656 0.09384076177578166
0.06509628641780293 -0.08956493428453458 0.09400774876608273
0.0648792516976766 -0.08872272856319079 0.0938526615321371
0.06475284474075324 -0.08844417499091614 0.09368103894517214
0.06497916888652788 -0.08837406886514411 0.09416980439763142
0.06507669473062691 -0.08797015059203266 0.09459589074543022
0.07172538639471215 -0.14834908776818403 0.09264203383940599
0.07178492756593612 -0.14791336159043522 0.09283410947095591
0.07193416745951296 -0.14741500873495592 0.09321677801502322
0.07200587222309505 -0.1459192094923296 0.09268775501461844
0.07205301014531633 -0.1465816572629285 0.09325744819806256
0.07221119733584737 -0.14571042526730496 0.09328444840810537
0.07214459233383877 -0.1449976947842215 0.09273941004103745
0.07223429424903854 -0.14419948382148481 0.09290877987397181
0.07211214682893963 -0.1427716751804631 0.09257853668322141
0.07230157224899768 -0.14341418746008483 0.09307888576280517
0.07227588124125783 -0.14255992542494378 0.0931638959626804
0.07203497239663782 -0.14193022551421516 0.09267773299629181
0.0719640315773972 -0.14120884285401483 0.09284874640352124
0.0716212377801122 -0.13991998272233522 0.0926215814453597
0.071887767412604 -0.14053579021302579 0.09298128165553123
0.07184575455935864 -0.13966769512567162 0.0933712171774584
0.07147881341030095 -0.13917159586980749 0.09268878527496596
0.07146082274729165 -0.1384441136247542 0.09307767514742861
0.07098553458361637 -0.1371283770755002 0.09267567892662257
0.07127871170056685 -0.1377093175316395 0.09307167858173054
0.07119414503243678 -0.1368809056233147 0.09345127509228324
0.07083838928179367 -0.13641746988400139 0.09279581298252616
0.07034008353914685 -0.13482243186129306 0.09258980284105854
0.07064045417907328 -0.13547073416830907 0.09297303522670708
0.07053410231378983 -0.13460008059303075 0.09334382933594078
0.07016650167586258 -0.13403252237972418 0.09263148307046111
0.07011164418559734 -0.1331487164405564 0.09301091163348006
0.07011345019747317 -0.1324642295983011 0.093350377760619
0.06970342955148413 -0.1307909793625073 0.09279935915561302
0.07000188670301812 -0.13150735115993534 0.09341370735634145
0.06988146131120536 -0.13053227201472106 0.09340805883532995
0.06959085557765805 -0.12980843211623763 0.09275099682531815
0.06948239442392869 -0.1288129711410506 0.09269924820231956
0.06949968827577382 -0.12807486750386987 0.09293173763004321
0.06949374946275413 -0.12723598630781496 0.09309997948453495
0.06949528664874612 -0.1264064046846902 0.09325911029884078
0.06947216694547237 -0.12552631501678935 0.09334519695568491
0.06945898707596485 -0.12460173100443102 0.09346748093918156
0.06948274232492763 -0.12382672126962871 0.0937076513573514
0.06907745853168375 -0.12203611726375911 0.09284089850579619
0.06937748621944465 -0.12279222453997156 0.09357587888287809
0.06924586674692783 -0.12175054578012068 0.09339752520130698
0.06894331857614754 -0.12108252651141309 0.09266080872102865
0.06895728786786219 -0.12000457232683556 0.09295686577501017
0.06895837375956256 -0.11887100501292211 0.09322944836371565
0.06880983059002399 -0.1178393805668865 0.09300447454578728
0.06880043039742563 -0.11704384966957893 0.09311930739563024
0.0687542595745615 -0.11613319547824305 0.09316958767580985
0.06869137866741594 -0.11522720824981007 0.09325988167964352
0.06860246198315223 -0.11431270226429105 0.09338874172100281
0.06850564808314404 -0.11343887879706796 0.09359342778973558
0.06843350464393874 -0.11275862898832677 0.09390183207281774
0.06791135701805406 -0.11093139823321395 0.09326716227713493
0.06821342530315679 -0.11179809060438327 0.09381089391220258
0.06805579955178735 -0.11081628625435454 0.0940563153587402
0.06772517868698774 -0.11002259737646054 0.09320247772046736
0.06763382266222716 -0.10909554077143037 0.09345859100943317
0.06758652829866957 -0.1082755402770261 0.09361198104331613
0.06756868421750051 -0.10740316882355778 0.09371099215657495
0.0675417013936885 -0.10636990666975908 0.09376982796998562
0.06744997884248632 -0.10520535240564895 0.09378572217077145
0.06727719243912775 -0.10401097307957788 0.09378121695310522
0.06704759030988257 -0.10289285123531591 0.09379062787900706
0.06686301189665378 -0.10191153633344104 0.09385094962248147
0.06678283051246556 -0.10099938130945542 0.09400101058175649
0.066760292735725 -0.10006299456429152 0.094162221981215
0.06677878825556158 -0.09906095826038896 0.09428662848964472
0.06670214579011206 -0.09808268142018331 0.09407272757197511
0.0666636505088585 -0.09743659145459596 0.09399352280255964
0.06647111042743796 -0.09685275585225457 0.09359249530796977
0.0667568020676365 -0.09702526884785447 0.09432841121993106
0.06663612565954376 -0.0959225471847116 0.09434515131531315
0.06646042576078336 -0.09483518641269946 0.09441175713318953
0.06624777768602057 -0.09376245816946183 0.09447448937863794
0.06603861098426497 -0.09271245711917983 0.09455218862955243
0.0658734509654202 -0.09168804399122474 0.09464450911633102
0.06574992472522234 -0.09070949638125302 0.09475934139212162
0.0656584031743788 -0.08988738407570075 0.09487632200662952
0.06521784526343638 -0.08901410615464102 0.0944368358883255
0.06535918656483952 -0.08853507928383769 0.09493208321928205
0.06527929102036518 -0.08773886083319311 0.09524890769456441
0.06525895176620108 -0.08715351099978887 0.09565542143807429
0.07204714325407358 -0.14776803782290437 0.09367746334641276
0.07214464250501482 -0.14717029288900502 0.093822899171793
0.07231152701621728 -0.14664028956763533 0.09414471526344062
0.07240873334913754 -0.14514422299053747 0.09363423000842336
0.07245377647409545 -0.14582039867551977 0.09410155794138983
0.0726851769687416 -0.14484828853789106 0.09441609422214065
0.07248248953839335 -0.14428520489796975 0.09364105439622414
0.07261925853429256 -0.14345309408795986 0.09401585581360514
0.0723422301543791 -0.1420128699778343 0.09354067103631133
0.07255418877690312 -0.14263369045983418 0.09397363293320407
0.07257898988444285 -0.1417100248469812 0.09432205783847343
0.07223385390254901 -0.14119624152162524 0.09359021560046692
0.0722302353362936 -0.14015323965699347 0.0940799019970434
0.07209132298576215 -0.13937386105466948 0.09413208324493155
0.0717999479242606 -0.13880303330665306 0.09373776011437972
0.07162364535322029 -0.13807042721656887 0.09372973571947606
0.07158525226384525 -0.13732750171500577 0.09412499167501852
0.07140560564374589 -0.13660658723298355 0.09419240498927536
0.07109956514927288 -0.13600907999302178 0.0938257005057944
0.07089964308920069 -0.13505768214973393 0.09399699624855413
0.07075369975900443 -0.1343520732334789 0.09409881156686123
0.07046428777994518 -0.13373888026718983 0.09369343893859536
0.07032891475864264 -0.13296191214784006 0.09373710622736287
0.0703392866897448 -0.13228607676887918 0.09406907140183081
0.07034404620160181 -0.13155106325851662 0.09435216926095907
0.06990492026214656 -0.12989906987752156 0.09369456173237517
0.07021260150544759 -0.1305893033655066 0.0943201298829546
0.07008496569493447 -0.1296187712061514 0.09428207208108569
0.06979645006230713 -0.12890185784293431 0.09362828463221658
0.06970629664086984 -0.12788294732435138 0.09361218513515386
0.06974763671866036 -0.12712175578425058 0.09388867763745841
0.06973498101962886 -0.12621341116259557 0.09402955502077348
0.06971181636995044 -0.1253340791137484 0.09412888360554442
0.06970677650363256 -0.12448587210171534 0.09427710443330795
