# .PCD v.7 - Point Cloud Data file format
VERSION .7
FIELDS x y z
SIZE 4 4 4
TYPE f f f
COUNT 1 1 1
WIDTH 790
HEIGHT 1
VIEWPOINT 0 0 0 1 0 0 0
POINTS 790
DATA ascii
0.09340868512284546 -0.08232035736182663 0.10837894890199279
0.09342393142461036 -0.08171177634627687 0.10833824986463224
0.09372249553719217 -0.08208814825482702 0.10889443264727693
0.09336666830730236 -0.0811509041607386 0.10821741758331682
0.09379654073179743 -0.08127201038571928 0.10889507540776575
0.093767222376846 -0.08041549249807638 0.10889430233137011
0.09385018461122799 -0.07983600717209013 0.10916111935542924
0.09351154414745494 -0.07934743752381158 0.10880600786617038
0.09373617455968046 -0.07912816637211365 0.10918663574411486
0.09359349706313246 -0.07839589511738053 0.10912156827154951
0.09349040280728148 -0.07764349150267127 0.10917889507884139
0.09390757377878664 -0.07813075081110563 0.10968122085392712
0.09339576260520416 -0.07712028643872357 0.10917001088690846
0.09375809215923357 -0.07720657008557412 0.1097414865435813
0.09353240074936213 -0.07621576644417886 0.10969251490715307
0.09338882716894127 -0.0753822556999896 0.10977111075517935
0.09387677191554267 -0.07594976034835162 0.1102537848455328
0.09323554912759681 -0.07481614430490494 0.10982620466727001
0.09371676233578055 -0.07494787631894079 0.11033963488112283
0.09338297896248575 -0.07375466357851174 0.11057095388258921
0.09269599844754917 -0.07270698695619453 0.11038553129799197
0.09312802148463974 -0.07269624273606529 0.11090353428319528
0.09297027256271737 -0.0718253461829951 0.11122679811070754
0.09306776556914569 -0.07122956852259571 0.1117779569746234
0.09261694187473153 -0.07054663148243596 0.11160132427593622
0.09288516857459937 -0.07044740967022428 0.11204301563976642
0.09284437533859248 -0.06963961890145898 0.11218477098524449
0.09253151142522313 -0.06885438970050882 0.11186895191875662
0.09284535613802046 -0.06875669728724372 0.11226109294912609
0.09281973224707916 -0.06790926867407403 0.11235655602691452
0.09252726058102231 -0.06726721543506643 0.11210713181394842
0.0927971669797969 -0.06731091673331407 0.11251310847612433
0.07855459106362794 -0.10655932888992918 0.11312587786108663
0.07876860906332808 -0.10638973012369907 0.11311979143573525
0.07935677431457837 -0.1057960938569796 0.11264086109246414
0.07903647986106972 -0.10624594901945027 0.11353265189771625
0.08019032054673457 -0.1049665878991494 0.11205298230639137
0.07988769966238983 -0.10550379271268838 0.11313449025524401
0.08084216158681692 -0.10427105049061604 0.11153704900466166
0.08087324043687161 -0.10449529363300597 0.11229717316218643
0.0816872913804893 -0.10364966103120203 0.11187431855277884
0.08221838254223708 -0.10304492030173214 0.11165775475028955
0.08272399289582287 -0.10235368853113062 0.11118085736683157
0.08248674051665311 -0.10284817814485255 0.11207511248553896
0.08317990026670209 -0.1016837100382359 0.11074468025946742
0.08319733781134674 -0.10189810990925993 0.1114993678896463
0.08391258383383311 -0.10094092322827179 0.11123109027571822
0.08456762211088525 -0.10003854272319941 0.11071195852944596
0.0849626824354602 -0.09944570562436286 0.11054644027838478
0.08535740340995128 -0.09882038672182963 0.11013454526131926
0.08513886369935826 -0.09926887816538406 0.1109812186532223
0.08574198258325355 -0.09820087708150473 0.10973817913133152
0.08568456628569693 -0.09838106106346338 0.11049395787575052
0.08628388943011525 -0.09748594493 0.11031219854340041
0.08682339938201737 -0.09662673683397867 0.1098921551210246
0.08720446789948247 -0.09608736075720833 0.10976616205245295
0.0876183885887649 -0.09552134589475594 0.1093759017399006
0.08734999138703214 -0.09592174731093812 0.1102302859934468
0.08801729715220187 -0.09494983303354976 0.1089697131209742
0.08795273147810531 -0.09511800022291542 0.10978468028259813
0.0885617863805394 -0.09429904544475708 0.10965934690164536
0.08903294500655116 -0.09369192231636322 0.10931720239853196
0.08931760045035686 -0.09329993608602065 0.10891376040536893
0.08933842512080205 -0.09334793745624483 0.10953933532128611
0.08983934868061466 -0.09269742533110487 0.10939044279933799
0.09018626342748905 -0.09215287064793244 0.10918710270771766
0.09045764109574345 -0.09162277389346227 0.10883999504098373
0.09036789832530433 -0.09198136966236223 0.10962849871848396
0.0906945413676079 -0.09107262619740257 0.10854004076323871
0.09074282142250992 -0.09121457450263139 0.10927521488779132
0.09110775725859245 -0.09039042337784033 0.1091809056614199
0.09140077842923344 -0.08962403528258046 0.10887154521458749
0.09159240146248578 -0.08908001661011579 0.10881043222026943
0.09175892357815496 -0.08849853396602562 0.10858235354729273
0.09174852003127168 -0.08885059958806184 0.10925201612221222
0.09189087340296292 -0.08790748814263825 0.10836610180828211
0.0920249745778569 -0.08800958111370247 0.10907152297188975
0.09225801185519299 -0.08716411783975749 0.10890405254848465
0.09243802877854534 -0.08664403759825177 0.10890517304196803
0.0925591505792477 -0.08614149084456948 0.10872859919906866
0.09265684369693368 -0.08645257993499131 0.10936782226267522
0.09265347250174504 -0.08570969097864788 0.10859296857065785
0.09287779793120648 -0.08570753375525311 0.10919413651533401
0.09303778158874082 -0.08495850595912526 0.10895038014125086
0.09321020920181504 -0.08436581030441719 0.10886585396284136
0.09337741303455813 -0.08469344136153396 0.10947335797364185
0.09327906906024164 -0.08398289158973211 0.10878853842767709
0.09355178242500398 -0.08401948979462653 0.10937837812778031
0.09375699631936925 -0.08323424009439544 0.10933138457804248
0.09366775355973213 -0.08263114432804061 0.10889893377472268
0.09394622375304346 -0.08254494777461839 0.10941790874803824
0.09406667523707582 -0.08194876541339738 0.1094624854241498
0.09426790582685524 -0.08144583412444717 0.10976720305806088
0.09406142964902918 -0.08078938312643333 0.10940165107419998
0.09432829952844922 -0.08090301297171822 0.1099106568923745
0.09398057107699363 -0.08034316605464824 0.10927894970062776
0.09421759369303358 -0.08033499726486681 0.10972223922704193
0.0942999327210516 -0.079556892826028 0.10990873238587205
0.09398149698917567 -0.07880069917023001 0.10961209756356352
0.09430025833632429 -0.0787072317262625 0.11014835790064548
0.09423633096555234 -0.07798832984049786 0.11028514345623719
0.09435767219674024 -0.07738217515882319 0.11065785199336782
0.09394360622210336 -0.07667663632293098 0.11023189396031777
0.09433630538341782 -0.07652842390845149 0.11077873623902909
0.09428779216312902 -0.07576256573325527 0.11080009657376254
0.09436254570369565 -0.07512082629832655 0.11111659260018966
0.093916154818537 -0.07453159507570083 0.11079725038958076
0.09411446299321319 -0.07428643858824645 0.1112435681343079
0.09378261968941963 -0.07345194236780894 0.11130949666331995
0.09358377135683896 -0.0725875706638924 0.11150367051780685
0.09417510244800802 -0.07320565952905152 0.1119161490541851
0.0933834689474779 -0.07195334360982275 0.11165389835409563
0.09391230598513776 -0.07218215080510934 0.11218058814050719
0.09366022024072271 -0.07109014001197662 0.11258454313515766
0.0931540732514814 -0.07036550658903828 0.11245955205045179
0.09348466239219569 -0.07023085747575292 0.1128502120685049
0.09344077499833489 -0.06937273957624661 0.11295359885984758
0.0931447768909595 -0.06864868054508028 0.11264725305029576
0.09342411950050863 -0.06853010646619719 0.1130222756259836
0.09330299771630139 -0.0677877608155425 0.11304913305743008
0.09323537200671972 -0.06742467077336697 0.11312377916433759
0.09388606396767382 -0.06789528184054097 0.11368645729503418
0.07863623237830841 -0.10659693775758718 0.11360415008643758
0.07884543490011811 -0.10646457571556672 0.11412299454007233
0.07929382809417869 -0.10608589309458841 0.11407077018726079
0.07992297281932535 -0.10564808008334571 0.11387934136836231
0.0805549431673882 -0.1050076606828171 0.11336046371837392
0.08026419972423154 -0.10544916001040174 0.11424828798255181
0.08134662500838241 -0.10417966731548386 0.11281161289939676
0.08099795247638052 -0.10468762542532 0.1138187292396791
0.08195902285491269 -0.10348728647767422 0.11231284634227513
0.08195515654048088 -0.10369184975066699 0.1132157036924538
0.08282961810020387 -0.10263322140375113 0.11262033586686618
0.08348358874597316 -0.10175634882371665 0.11217305334710989
0.08389446596338522 -0.10114862183777286 0.11202588795365456
0.08431941142766394 -0.10051046168358434 0.11160934556963621
0.08408222364948528 -0.10100788821107966 0.11248334909821181
0.08475965047195338 -0.09986687649592099 0.11116195385053937
0.08471438439051311 -0.10007599291965924 0.11203878942128252
0.08534195553500534 -0.0990537478469041 0.1115458294805902
0.0858394816365183 -0.09822947062608692 0.11120779397214656
0.08619123029374091 -0.0976683596389137 0.11112320001980876
0.0865640928046596 -0.09705451183159754 0.11074862568219877
0.08632594258540119 -0.09750766200270375 0.11163044767206318
0.08695615242150873 -0.09645850675112166 0.11036229646595809
0.08687891435526462 -0.09663096529899147 0.11118902563334462
0.08751126484962783 -0.09577745833693259 0.1109780973439662
0.08806156892806553 -0.09499857387786664 0.11059412611074151
0.08849199790706876 -0.09445413414859308 0.11067052857701548
0.08890932328752622 -0.09392113437597156 0.10990481499648852
0.08905281226680795 -0.09380952282663109 0.11042035837146946
0.08952180697056139 -0.09324257163038596 0.11016143990896417
0.08985994985957112 -0.0928244060908542 0.11005657064733289
0.09007186542437219 -0.0924426530224152 0.10972791064087395
0.09007658198692331 -0.09258683085074242 0.11047152221408107
0.09056601690024563 -0.09183002704013557 0.11039800824517751
0.09093085993095251 -0.0910044511603848 0.10995331699146578
0.09115100667364799 -0.09047137597154009 0.10984551231980563
0.09135536386977702 -0.08993613874396038 0.10956828232463725
0.09132685210327525 -0.09025830007443067 0.11025277181157324
0.09154637362120376 -0.08940288406830349 0.10929232691401003
0.091647056778203 -0.08948009714147555 0.11002637778300078
0.09195808216933987 -0.08865497922235252 0.10982120336627597
0.09216317355279531 -0.08811213090584742 0.1098055727898173
0.09232784548485588 -0.08753154144093984 0.10958703782391319
0.09237231349326039 -0.08791492558034594 0.11030783431521911
0.09247085887929403 -0.08695822314836035 0.10936754696050104
0.09267541034576758 -0.0870689365800326 0.11015587696107078
0.09294314020304252 -0.08626814155861795 0.1099626584201446
0.09323337173663647 -0.08570778892812617 0.11014938767069896
0.09321127089516505 -0.08523170851553138 0.10956734525527966
0.09348917137309096 -0.08506715813993415 0.11012824909164919
0.09365913590295288 -0.08451940635171368 0.11003826934655031
0.093885926883102 -0.08407065959233923 0.11024657081568977
0.09382155024088878 -0.08370645234691002 0.10976406271092967
0.09406091642511498 -0.08350233494265302 0.11015238185545718
0.09415236295437554 -0.08293912206051668 0.10999419878003425
0.09425751365772331 -0.08235274222184623 0.10996333364053663
0.09447236532786482 -0.08270769430999489 0.11056594328300735
0.09431131115405479 -0.08193739995767901 0.10990853825519664
0.0945797741387939 -0.08198551837022468 0.11050872625264102
0.09456762781811552 -0.08125168231884412 0.11037472454864941
0.09454405150772037 -0.0806417156427156 0.11029777296571518
0.09481655956786846 -0.08096035131353467 0.11088545158367742
0.09449266453185864 -0.08018791163262744 0.11016380166685262
0.09481723831670881 -0.08014286986601446 0.11077863110515236
0.09469248411356822 -0.07924026645747491 0.11067025327469311
0.09458314946717773 -0.07850501783694544 0.11074703992219462
0.09495090872273029 -0.07894520437774083 0.11128898910338812
0.09450014248281102 -0.07800441791200986 0.11075523740888628
0.09487131287236525 -0.07810988103657245 0.11135518753118036
0.09489087310278839 -0.07710431928727118 0.11148175390171748
0.09467350921970032 -0.07620772531990372 0.11124999323110557
0.09498230691992073 -0.07641202770034768 0.11173117211710083
0.0945742048402411 -0.0757024754804279 0.11117825414512628
0.09483650703733727 -0.07572861007893496 0.11163849111587743
0.09486933683022793 -0.07486536781897166 0.11198138414830176
0.09436439833791277 -0.07394104328957651 0.11173823771995585
0.09478431556604887 -0.07389022910308408 0.11233255275185479
0.09459442258603196 -0.073110922929143 0.11249836935862607
0.09470320712087296 -0.07254119482952122 0.11288078496854491
0.09420178468609638 -0.07186683425471765 0.1126793987616299
0.09452928062153554 -0.07172530687994627 0.1131189442856851
0.09431307804694022 -0.07084042518020706 0.11344977545405194
0.09380841040423772 -0.0700844302056614 0.11325369139244977
0.09420553826613177 -0.06995859127934739 0.11362231112366546
0.09399286641872538 -0.06910931927720862 0.11357431559901851
0.09382107308175251 -0.06836925895456587 0.11350325979109165
0.09449808789269133 -0.0687272473828186 0.1141317637777949
0.0947725608049417 -0.06798513072975372 0.11456787446905778
0.09508866186630949 -0.0673186295328744 0.1150400391123333
0.09521340943092009 -0.06680138726621689 0.11526906829233055
0.07922536214041749 -0.10621910919523112 0.11459943822135588
0.07961836752276295 -0.10593369220824501 0.11446907360567982
0.07986498422433867 -0.10582751276399756 0.11496584921477167
0.0805615941986395 -0.10524094477108752 0.11484433885714058
0.08130709324589028 -0.10451028005708712 0.11441113797421676
0.08189370718895748 -0.1039470348545105 0.1141886403706016
0.08250057235663398 -0.10323617722578605 0.11368595700479586
0.08207601624490857 -0.103790871015511 0.11470338453457446
0.08320340874394838 -0.102343404925565 0.11313769073839561
0.08284156311512073 -0.10291423683045935 0.11430341789446634
0.08369069857974874 -0.10161230669244056 0.11264087748305648
0.08366994418075377 -0.10181804246036244 0.11346191570427366
0.08426965860518637 -0.10091616364117965 0.11310776253348821
0.08469829847569377 -0.10033366916590479 0.11295393084691815
0.08510217906642216 -0.09962033913809627 0.11251316717244504
0.08487913009685363 -0.1001912507549782 0.1134629400139701
0.08557210827336457 -0.09875866739847824 0.11209873408209524
0.08534393042317932 -0.09930109761062236 0.11306145584703398
0.08595525980853892 -0.09808349425231197 0.11172331935274235
0.08589473992290694 -0.09830010120310276 0.11256599073258679
0.08649068453193733 -0.09735034804471528 0.11244878551977228
0.08706646895310893 -0.09645813802888098 0.11192113712073946
0.08742006125353413 -0.09591453636709225 0.11175803709934205
0.08779657626231355 -0.09539593871826979 0.11138762361899106
0.08760775420226506 -0.09573188194015524 0.11216031022615787
0.08810896298896422 -0.09495979468088905 0.11109313466809345
0.08815690286010516 -0.0950092137582226 0.11173766248020875
0.08871822918977773 -0.09425842148202504 0.11131003804517488
0.0892356462849506 -0.09362484201335332 0.11101407993277083
0.08892542637989762 -0.09409489649226427 0.11197374344601337
0.08967600921082186 -0.0931182245166526 0.11065124983979367
0.08958527136642552 -0.09329774606432545 0.1116463943673505
0.09018956788369621 -0.09256172525106325 0.11134904070907425
0.09056133290229175 -0.0920365341116127 0.1115210113625165
0.09090320089973884 -0.09133392052273535 0.11076695215345451
0.0909240069020387 -0.09145373782223436 0.11147195560100821
0.09110548926340711 -0.09078310232895266 0.11034721501329268
0.09121386356143915 -0.0908107572398505 0.11101141306412093
0.09152418237591399 -0.09009418584527978 0.11080957239883754
0.091749595302786 -0.0895875716939634 0.11076642968400677
0.09195539474801627 -0.08902416793389645 0.11054037610038675
0.09194506142453353 -0.08939268484226864 0.11125712643504203
0.09215583410851615 -0.08846106096662712 0.11030970184219135
0.09229008469785022 -0.08857307336117635 0.1111353293290274
0.09262007549720074 -0.08774229496540699 0.11096252652579047
0.09293333187930973 -0.08718256835554752 0.11119638291565272
0.09304282917865057 -0.0865627870941295 0.11062969150604893
0.09319410652527654 -0.08662691102692632 0.11126314687529378
0.09314951349935119 -0.08615698095012955 0.11039459141141697
0.09331393388320704 -0.0861069754906316 0.1108973087599084
0.09361093249724306 -0.08546969896475133 0.11100796576112675
0.09375089723991584 -0.08480500206556717 0.1106170393387978
0.09389930832564106 -0.08492878840600303 0.11121640271723895
0.09382481267585017 -0.08446136678257969 0.11045225648388032
0.0940061885747807 -0.08443919796742723 0.11093522069009136
0.0943037994761507 -0.0838264099940651 0.11107797747367532
0.09434535429438415 -0.08322819578608495 0.11058914714612518
0.09460148282822992 -0.08313645860903718 0.1112268220121427
0.09477668590403503 -0.08254063888918899 0.11118408619850202
0.09498816128417742 -0.0820344521574559 0.11146907224341326
0.09480573653669626 -0.08153546792339289 0.11094579888602975
0.09507710643824208 -0.08137750867893997 0.11152852654378925
0.09513368123063447 -0.08075042250664104 0.1114706238952037
0.09527832758530959 -0.08017593837384986 0.11175629684593602
0.09502426779755258 -0.07958686102422624 0.11125489959471002
0.09528444945190832 -0.07944205659663181 0.11186870136528598
0.09527277239260114 -0.07877728914171359 0.1118863114878732
0.09539410786278821 -0.07822716149680693 0.11219742068737103
0.09513759503909705 -0.07775388994083561 0.11181030815283043
0.09535656926218587 -0.07751617355161684 0.11222514299733806
0.09527520946953079 -0.07683970114248868 0.11217142610976291
0.09521632954937677 -0.07616942731670734 0.11219607130322881
0.09562020582756382 -0.07659367067042235 0.11273699635853579
0.0951308647975197 -0.07563595259707055 0.11213173734015436
0.09556710920851184 -0.07570498778844106 0.11279301888688542
0.09552198749120527 -0.07460865372675453 0.11307670327043175
0.09510037881203515 -0.07366487295857538 0.11292403062086548
0.09561094949400145 -0.07389261253492174 0.11345501572661158
0.09492232456851586 -0.07317156361034413 0.11288617361955183
0.09532943890152117 -0.07322339955878367 0.11333475136209885
0.09533178153622017 -0.07238818109918756 0.11366837469650991
0.09486615081621809 -0.07162405354807369 0.11355260812740273
0.09522024329786247 -0.07152586492998761 0.11401738982527264
0.09515703914585201 -0.0706362280224637 0.11434102369324535
0.09464795383248856 -0.069651709091024 0.1140549657334304
0.09526264621276267 -0.0696256076502919 0.11467068513803995
0.09521144653959464 -0.06870120552976197 0.1148042997976996
0.0951590008341752 -0.06806938228392671 0.11493735974003395
0.09503110122237717 -0.0676968053673142 0.11491405529700575
0.09529120780549602 -0.06768748415453249 0.11520967709851747
0.09550086897476102 -0.06707403674695257 0.11553486464822536
0.0953392370663278 -0.06662369910405079 0.11546038741062686
0.09554721902076323 -0.06664007130929987 0.11569210821905831
0.08023518782605002 -0.10557999761337093 0.11587080600350327
0.08002872404592383 -0.10585166496331987 0.11703799427432279
0.08087262959108235 -0.10496507203481116 0.11542247223054536
0.08052499886688178 -0.10533578582782281 0.11647938749795465
0.08150296106626956 -0.10436784411632635 0.11491644788727684
0.08137930851435232 -0.10447941076828114 0.1157702507345973
0.08222480669765778 -0.10365023336575134 0.11535590326762492
0.08275327620899513 -0.10304562221241483 0.11515501911115464
0.08334546871123856 -0.10238316799233566 0.11462987652433883
0.08293833104964407 -0.10286308112900731 0.1156794486623974
0.08401784688879423 -0.1015098647009009 0.11407747682025965
0.0836559589268202 -0.10205328662294251 0.11516593601852149
0.08447665377828721 -0.10080486074220842 0.11363523819790222
0.08442058081354774 -0.10101114230401176 0.11457566540733381
0.08506725798160564 -0.09993542716870395 0.11407388977098676
0.08554954581686297 -0.0989922100107399 0.11367157515603768
0.08603701378679252 -0.09819215142362055 0.11341363773645816
0.08642141297325955 -0.0976145600375289 0.113585501626598
0.08687560510215368 -0.09682290439254226 0.11281805082182621
0.08684444575939695 -0.09698697569401273 0.11355658482565485
0.08724875560908942 -0.096245289831383 0.11233367807154354
0.08729791802918592 -0.09630092271829215 0.11303792952896644
0.08781938755981988 -0.09558251099248072 0.11270946383613449
0.08817623252179048 -0.09506580897591922 0.11252734242263251
0.08848950021914204 -0.09463101914650447 0.11209033565968908
0.08844661059285973 -0.09475935420027212 0.11293263271043
0.08905958782582997 -0.09404528016179531 0.11293279363156851
0.08955837858102111 -0.09347057440207743 0.11264629904184162
0.08996008289081801 -0.09297267481686239 0.11221177054700336
0.08975318393689086 -0.09326268563564748 0.11309190800687224
0.09026858409373273 -0.09256351933844598 0.11192251473399013
0.09028807745642138 -0.09258844354613993 0.11267420937759727
0.09076830462242165 -0.09184349029103839 0.11221404833782014
0.09114259352400532 -0.0911855181538813 0.11193260760653594
0.09100850329894647 -0.09160325293865752 0.11281329951060896
0.09146291299805752 -0.09047710804264775 0.11159654414475735
0.09141269073374234 -0.09085182862151683 0.11261417868730472
0.09170405487938794 -0.08991884067765855 0.11127550718639372
0.0917895831906603 -0.08997631305781546 0.11202012513160726
0.09213622581737 -0.08925330040729224 0.11193362305237685
0.09245089744128547 -0.08872802606929373 0.11223860806031745
0.09262432910532256 -0.08807241305731146 0.11165553936688048
0.09277078204515292 -0.08818564739712767 0.11234447304726422
0.09277073098107433 -0.08764946672747459 0.11142760003511008
0.09293967829382582 -0.08763960131927043 0.11195996174323494
0.09328298346992918 -0.08700205379722258 0.11207545425771467
0.0934393466520895 -0.08633327981958913 0.1115974466889672
0.09358072153104928 -0.08643947935956131 0.11222644903732784
0.09351762739176817 -0.0859509366654675 0.11133099997031565
0.09369229777537502 -0.0859098812552097 0.11185556460893058
0.09397702367434203 -0.08528817083427752 0.11197354012360829
0.09411590892979069 -0.08466359213386232 0.11160316646639334
0.09426027695357583 -0.08478815187247002 0.11220080626511392
0.09421125457272804 -0.08429880685707977 0.111384249012431
0.09440674116725702 -0.0842710628194331 0.1119542695389178
0.09476853837526197 -0.08360459069907662 0.11222505981571462
0.09492258935366081 -0.08288414091226877 0.11180936263371666
0.09510132155307252 -0.08300312909728014 0.11249740422732975
0.09498972831604835 -0.08248670172353048 0.11164258209755899
0.09516079425354818 -0.08246458478676881 0.11219000740972392
0.0953545994872023 -0.08180110010336147 0.11240092862980956
0.09535176751933905 -0.08108343952589037 0.11205203959102607
0.09558974905866251 -0.08121813566821307 0.11267070754643028
0.09534612783533797 -0.08067275266000964 0.11191403129138443
0.0955544056674359 -0.08065009381653881 0.11242938652393053
0.09568374468500918 -0.07994926303869315 0.1126949682828075
0.09557347575150907 -0.07917469039885178 0.112411526692924
0.09586380779188419 -0.07932890366716909 0.11301362898929593
0.09552054365378265 -0.07873007950112444 0.11230266583536133
0.09575385937357751 -0.07871720765212657 0.11280254087361084
0.09581847797643878 -0.07795982597524803 0.11305518728355962
0.09560813646303724 -0.0772131011192305 0.11268834104307507
0.09596703796360763 -0.07713906495189086 0.11329683031988044
0.095994455556799 -0.07643131199643878 0.11334940157637599
0.09614192935806892 -0.07588274041242829 0.11369785802623093
0.0958495089646663 -0.07534185530656279 0.11333022156341993
0.09614589632271639 -0.07517100895357763 0.11383024915129746
0.09619470630334007 -0.07439266540816976 0.1141084791966198
0.09587240868112862 -0.07356378101061943 0.11388484600183078
0.09627725101663218 -0.073728397136208 0.11445149942367093
0.09568221390800088 -0.07307783199055676 0.11376213575886453
0.09601825774747866 -0.07305802149020461 0.11426665157840807
0.09602098294183828 -0.07221796624376547 0.11460047345514623
0.09562899883600576 -0.07144724910691266 0.11446929766380803
0.09602848891764337 -0.07137072704869116 0.11494855938508718
0.09609754978549226 -0.07054609885430814 0.11533034516170859
0.09592629799778715 -0.0693810516195071 0.11538311375898738
0.09648095313721612 -0.07006776205932425 0.11579809019607638
0.0955752761960574 -0.06840208586145953 0.11527126633435808
0.09661668865137064 -0.06944592285703688 0.11608638579141861
0.09612769723899026 -0.06858915819127405 0.11578506250624804
0.09664963765783487 -0.0685938270099831 0.11632602310940184
0.09571494939641527 -0.06786874057001133 0.11559055521615773
0.0962259489663141 -0.0676867395871983 0.11611407198864633
0.09598666287003553 -0.06687208950182819 0.1160811885682142
0.09624010494681162 -0.06672545708374716 0.11638485707542053
0.07994920255166524 -0.10603171405644288 0.11772763563265112
0.08023781518004967 -0.10572649558199755 0.11750000018351459
0.08020895298951117 -0.10594783543018449 0.11812446854252173
0.08093772639955953 -0.10499649777800549 0.11696608483566648
0.08064258454593018 -0.10551662510459565 0.11798435924800078
0.08174631998547432 -0.10417429722861044 0.11643663102424935
0.08134497092060164 -0.10474322684846434 0.1175721145585928
0.08241585301688872 -0.10347213854018611 0.11589062001107076
0.08225101537928456 -0.10368968203904677 0.11701680067539195
0.08316877971767976 -0.10261083968799145 0.1163045583561831
0.08385631105259929 -0.10176617813254923 0.11573062887664455
0.0842942197592677 -0.1011344890503998 0.1154982328021906
0.08476496084830369 -0.10046166563100625 0.11508653776196494
0.08442180428427377 -0.10092202579050409 0.11602362036221613
0.08529751180067692 -0.09957427037117413 0.11466527753095056
0.08500731960867704 -0.10010677925262357 0.11575773482398079
0.08574950838769023 -0.09873257833273097 0.11426320661096151
0.08555200726398912 -0.09916377490422594 0.11519226845171844
0.086051417202768 -0.09820251729673875 0.11398133926886507
0.08605451164492682 -0.09826728987833959 0.11460416359466818
0.08655963209941026 -0.09747764250784242 0.11432850749356155
0.08707490701075049 -0.09675817711565143 0.11406213234228789
0.08672702501152918 -0.09732645611897964 0.11504449533460952
0.08761465730954855 -0.09600245970442096 0.11363522264553577
0.08736677343442122 -0.09647212327153228 0.11480126389458127
0.08802142622583274 -0.09538109386676501 0.1131651768809964
0.08803253262223855 -0.09548763695372423 0.11403339392083536
0.08857815555881698 -0.09474077352559629 0.11385484805937535
0.08896257097648239 -0.0942645020314177 0.11412188691875347
0.08937208702380879 -0.0937503008269548 0.11335506551287422
0.08946915621565839 -0.09366703572199704 0.11398067928536094
0.08990438488536036 -0.09311045981017486 0.11370463120224343
0.09027792561291036 -0.09263887529051223 0.11387407456352744
0.09064644122360635 -0.09215803724503635 0.1130420455641553
0.09075262464984758 -0.0920247477981689 0.11374129689991141
0.0911388557549657 -0.0914397313972207 0.11350479398015338
0.09144541206022203 -0.09092240535056442 0.11366677188962589
0.09177724310720964 -0.09028768250230464 0.11297690284495734
0.09178885459818123 -0.09040770784125135 0.11370898906053734
0.09203095295671808 -0.08962790776903656 0.11261462714776971
0.09205551838571031 -0.08988862175301277 0.11338527157550676
0.09221766308730857 -0.08919767063191038 0.11244064886576723
0.09232150949576748 -0.0892267944573161 0.11304453094679884
0.09274940004391016 -0.08857952512310416 0.11326564645714084
0.09302111318328254 -0.08790518914156359 0.11272140470924172
0.0931219876946986 -0.08800804316071315 0.11344210262082885
0.09313985785613284 -0.08750619135085463 0.11242393337464361
0.09330776620286566 -0.08746679243785792 0.11298389064187922
0.09363869387449049 -0.0868025117270505 0.11305334479519573
0.09380320007762376 -0.08614938866249287 0.11258098395526997
0.09391500810521473 -0.08624291448189238 0.1132236200004042
0.09387994367555373 -0.08575781077062879 0.11231019427072614
0.09405579694921198 -0.08571017098103723 0.11286301136494163
0.09427412525949957 -0.08511668798430015 0.11278543777526688
0.094499957587803 -0.08457038589958484 0.1127226418507677
0.09450966971728222 -0.084910903370385 0.11350496256485562
0.09464075700484975 -0.08415475932339925 0.11255757470194225
0.09482031615310073 -0.08416219067245824 0.11337604349435311
0.09521315694074728 -0.08334025100393795 0.11341089646416115
0.09532588518853073 -0.0826851703340559 0.11292712303795603
0.09550100491165402 -0.0827532913147624 0.11360339511987251
0.09534991590628551 -0.0823107229848366 0.11268471652820078
0.09555713422166433 -0.08224375970949986 0.11325352551817026
0.09582305285119118 -0.0815945742666333 0.11347000521263578
0.09579736322291868 -0.08091894634963277 0.11310847428791934
0.09603315918984498 -0.08102824127959714 0.11376170757218368
0.0957543847596589 -0.08050238482466661 0.11291734873788976
0.09599478961224271 -0.08047013008998972 0.11347893932494708
0.09619165744746452 -0.07976345068170522 0.11375921522118745
0.09606958872756988 -0.07901052556683151 0.11344902648783707
0.09636620282604234 -0.07914411970340592 0.11407975459958557
0.09596724513551727 -0.07855404212359499 0.1132763308112626
0.09625983663137436 -0.07851613523392323 0.11382974049730957
0.09641287603288115 -0.0777169283192283 0.11414259734855794
0.09629260907066606 -0.07686267290106788 0.11390029842049877
0.0966133746265179 -0.07706325063719052 0.11451764064645724
0.09623291165474362 -0.07639745204752312 0.1138090504764247
0.09650705652567283 -0.0764261594992778 0.11432577628281475
0.09664065045570393 -0.07569994077664267 0.11457783299594966
0.09644698895893013 -0.07506131316520252 0.11432024064953547
0.09674656685370725 -0.07494623200273795 0.1148195253718319
0.0968115259452628 -0.07421411137656972 0.11512026571135447
0.09649328583143255 -0.0734309798103792 0.11489001272802618
0.09693971898542283 -0.0735762164655676 0.11546887400804412
0.09631685096630724 -0.07293953445297914 0.11473869915087596
0.09670827028199441 -0.07290303429336252 0.11526113166299348
0.09671641617358213 -0.07198881444645223 0.115548851587365
0.09637719552219903 -0.0712903273367823 0.11543936298886767
0.09668819289207975 -0.07120719994210009 0.11585874845575315
0.09685733153435425 -0.07057359621444799 0.11616090487115786
0.09677795670873549 -0.0700650938081438 0.11611501817919213
0.0970387516375273 -0.06992741704984133 0.11645776577455637
0.09719835764800688 -0.06913954022905416 0.11679046973891585
0.09703129309831637 -0.06797008831706619 0.1168795255725988
0.09749899329443486 -0.06848834992969903 0.1172109724785827
0.09656359106149522 -0.06712286606772899 0.11662070947987768
0.09765535817864798 -0.067841753931765 0.11756697843417215
0.097434657951306 -0.06724081115484645 0.11743434265380014
0.09787346876456318 -0.06720838737528892 0.11787818012928059
0.09807283643539068 -0.06686230646345338 0.11808420175788062
0.08059277593023863 -0.10578497588080543 0.11858947574343925
0.08099788271595856 -0.1053130339778809 0.11852661616457534
0.08158353370897675 -0.10459515916513805 0.11828120663822181
0.08205793158212285 -0.103908613558872 0.11838703743081994
0.08274096266029152 -0.10303433243577052 0.11747403487679013
0.0825396017985105 -0.10320283133821435 0.11835932324076348
0.08347404258679891 -0.10218646640920898 0.11676065994655353
0.08310794548317149 -0.10249858362070792 0.1178390826858992
0.08400496913087838 -0.10151663666257871 0.11617913242256317
0.08389854543813512 -0.10160252828920086 0.11707264133205564
0.08455672453784387 -0.10079025774608277 0.11672512885941938
0.08499354541455299 -0.10022577447511279 0.1165808046552494
0.08539808807993955 -0.09955961387425302 0.11616853286564573
0.08511744883951064 -0.10001152466817306 0.1171373939247736
0.08591110866631659 -0.09870239733710957 0.11564856703887508
0.08569815761176662 -0.09913795005810723 0.11686114690409874
0.08629924078242392 -0.09796341394221177 0.11513638469441738
0.08634663690843966 -0.09807771663990199 0.11603462912737753
0.08688108345843706 -0.0972245993973106 0.11580094705235211
0.08733253018734725 -0.09663115672846806 0.11595881196581981
0.08783951984432468 -0.09588106168794894 0.11516947836184759
0.08775468511402224 -0.0960578974939222 0.11599419905940783
0.08829222304484906 -0.09518560611623819 0.11470873520343429
0.08813575868028907 -0.09547754421484154 0.11558921237809613
0.08859288708818724 -0.09474202015803083 0.1144529132608952
0.0885696068156289 -0.09478384694899908 0.11509663362719594
0.08907157556448048 -0.09411095185088733 0.11515127850249478
0.08967722710580439 -0.09345944962078476 0.11453425719026647
0.08951738489046854 -0.09362004158381745 0.11534056240046646
0.08998239181520695 -0.09308098097319041 0.11422290751991225
0.08995387901710299 -0.09311081183896466 0.11491348674362942
0.09037542837601688 -0.09244965832593834 0.1149992159015466
0.09093181426146198 -0.0917688297735509 0.11430503712936484
0.09081078602984685 -0.09188162943008057 0.11509605197789739
0.09119457185216245 -0.09138131261199049 0.1139960536835432
0.09121198266666283 -0.09134670737404657 0.11459144346275034
0.0915882258040304 -0.09073916036599228 0.1144074970268995
0.09197048043649414 -0.09017767840232754 0.11425146437572874
0.09173372736124075 -0.09056903563680628 0.11520235214724736
0.09231303239974883 -0.0895715661674102 0.1139255944745465
0.09221353545598794 -0.08987425911433851 0.11505676959042152
0.09250867640111826 -0.08911624755042495 0.11362650682526801
0.0926167215560261 -0.08910510087004095 0.11436698756764671
0.09304524698668473 -0.08835308970423421 0.11448179786874893
0.09338761715180055 -0.08770087680159719 0.11383125560601469
0.09343715412082809 -0.08775770524609366 0.1146539697515816
0.0935390740401653 -0.08731518426184093 0.11346452994042679
0.09366640137662115 -0.08722302216642752 0.11407595181414219
0.09387155750512026 -0.08656739386370005 0.11388194386461173
0.09410270980759745 -0.08595171378014212 0.1137492024927594
0.0940820168966905 -0.08629572116148417 0.11459241587852668
0.09428034120025339 -0.08543599651780856 0.11347077024728718
0.09441916813506324 -0.08548100855270394 0.11445065599284979
0.09475201196410837 -0.08471308224746422 0.11426006430653907
0.09503016079867935 -0.08418147317461272 0.11447224742492071
0.09509944378147912 -0.08382325143001189 0.11391141663695718
0.09529725299230807 -0.08361379910519644 0.11440241492846685
0.09562740233480756 -0.08304372574069238 0.11447598530377093
0.09574321553977798 -0.08244729524154071 0.11400544600916811
0.09594445686906156 -0.08252166643601824 0.11468830518941561
0.09579288362618521 -0.0820762039587607 0.11375312355877297
0.09603007607424076 -0.08202473256854724 0.11434258309362826
0.0962810078425779 -0.08138333220312058 0.11458528919744128
0.09628068022022222 -0.08072155081128782 0.11420388417115358
0.0965234204113866 -0.08080617331297577 0.11488010132597312
0.0962635431928117 -0.08031883458415387 0.11399410887770194
0.09649762049550502 -0.08025271643815658 0.11458881337702373
0.09668142121601413 -0.07953303572836995 0.11486579906906304
0.09660373427441281 -0.07880086556320139 0.11453949664624671
0.09686831754413673 -0.07889865133463483 0.11520296935512793
0.0965359119589971 -0.07833818400504991 0.11435900988582828
0.09679829150364279 -0.07828848115621609 0.11495031761462278
0.09698575859865666 -0.0775286297694755 0.1152612998924459
0.09688004004468558 -0.07674914954077243 0.11496891128313863
0.0971923854681108 -0.07686247698467401 0.11560119606633013
0.09680002346770179 -0.07629036856998878 0.1147984715177806
0.09707463567055093 -0.0762277508470137 0.11534054214804985
0.09717845928773448 -0.07543552632966342 0.11554265576105996
0.0970342736304952 -0.07483467273374161 0.11531316885763519
0.09727955175632429 -0.07471873018945213 0.1157777072224125
0.09742515872327978 -0.0740189417293025 0.11613469936130355
0.09723537765017508 -0.07317467034760461 0.11591096260213206
0.09768047381786364 -0.07325058541121687 0.11655668010883448
0.0970678055182797 -0.0726614781965786 0.11574840806164627
0.09741329616910943 -0.07245754216529816 0.1163138640589179
0.09716225661267745 -0.07161079204346672 0.11626457334335392
0.0970096919522869 -0.0711363750106672 0.11624772364733824
0.09735539452946453 -0.07102940641383444 0.11662423407198738
0.0973835182552238 -0.0703122960891232 0.11675910372807341
0.0973102223274991 -0.06979802234645584 0.11681032078650677
0.09764758400187386 -0.06971851067813661 0.11716982168926128
0.09774584170210132 -0.06893870910095973 0.11738982192391043
0.09773785298256281 -0.06841505903137446 0.11750132438959558
0.09799782020490748 -0.06831960355496645 0.11783895711050772
0.09809297180038962 -0.0675249326180039 0.11806459940296586
0.09812302377190901 -0.06706798192193811 0.1181142705211081
0.09838358252852343 -0.06706130533457426 0.1183568643295618
0.0984595697965038 -0.06672359096356031 0.11845827299646788
0.08088480872351518 -0.10555405410260844 0.11892341494759023
0.081291845865315 -0.10497580214426842 0.1189140703789637
0.08159358603924143 -0.10452378185767477 0.11881497567961398
0.08174104079769608 -0.1042938110069475 0.11912266705970566
0.0822426349309469 -0.10364955286891099 0.11906938296575019
0.08280704354290326 -0.10288871979961824 0.11883723010634932
0.08261863458398357 -0.10333038968380223 0.11958760712812398
0.08348164002115074 -0.102062730025883 0.11834300942514299
0.083238998862752 -0.1025855403221123 0.11958774298360843
0.08416574806566196 -0.1012159065362298 0.11774808409783355
0.08390134989501916 -0.1015829014360875 0.11885562174433607
0.08470521291534107 -0.10059605321588572 0.11726242657706876
0.08460050446707698 -0.10065472967306116 0.11814197878551301
0.08516661748086042 -0.09983476106365254 0.11790385119380564
0.08565758244884465 -0.09923652155169049 0.11802304481692219
0.08616458309191224 -0.09844973150225592 0.11717626667770896
0.08610628570396622 -0.09860899773778092 0.11801884230296456
0.08665327277407583 -0.09767686512593123 0.11661938160756603
0.08650863020896611 -0.09796551644779058 0.11757315750476971
0.08695342938758627 -0.09716849139458736 0.11632438904023604
0.08700809788229172 -0.09718406104876735 0.11696048780925893
0.08747354311591302 -0.0964674282811058 0.1167369359248043
0.08788587255871576 -0.09579754182857918 0.11651070877312972
0.08760683575385028 -0.0962593850111655 0.11745272073318523
0.0883469345573459 -0.09512436017342624 0.11606237034808828
0.08809176281307803 -0.09545117869033591 0.11720072285480472
0.08867770432091802 -0.09464869472196982 0.11564437311819825
0.08865964622315162 -0.09463820597196403 0.11642678043001002
0.08914077550624458 -0.09396728788362005 0.11618295325837423
0.08961733247191526 -0.09341428305836118 0.11594739052999802
0.08913650881875106 -0.09372941525752189 0.11708186494120058
0.08994734131258833 -0.09299253049113178 0.11560469524786574
0.08982025428897054 -0.09295054189669291 0.11658987036804655
0.09048322026274395 -0.09219645010133459 0.1159899693437016
0.09099181018818281 -0.09159484883989695 0.11565667096527037
0.0906793877844434 -0.09187941461348122 0.11674508129333808
0.09138959617302739 -0.09108373586968602 0.11522050052307871
0.0912850141078133 -0.09113431014044636 0.11641029047669488
0.09183661025990683 -0.09040618264682357 0.11608605088856565
0.09220785594457466 -0.0898600200067952 0.11630840593895225
0.09256142007424177 -0.0893059074644885 0.11542690655150589
0.09256416531484973 -0.08929063573733424 0.11629128934136036
0.09278932389878669 -0.08888376399492368 0.1149668503153051
0.09286496725536308 -0.08876305077540701 0.11568962044954116
0.09327659344103059 -0.08805568329121188 0.11581501903643271
0.09364469685661181 -0.08736841373523375 0.11511068198675398
0.09360164704986447 -0.08739262705281582 0.11604204405836967
0.09384831944382288 -0.08686575781343837 0.1146258033535543
0.09389276266510137 -0.08676503367798627 0.1155098572306852
0.09423935656244353 -0.08606259049118277 0.115401216005735
0.09454128052493468 -0.08548392496699206 0.11563098062866996
0.09472648287605101 -0.08493824842399621 0.11501030510704884
0.09482650928799007 -0.08494036525249145 0.11564859521298523
0.09488477016458921 -0.08458047916540236 0.11476221130060749
0.09500623798517607 -0.08449421190445554 0.11528294794768124
0.0953546396349879 -0.08390189314212149 0.11529584995005589
0.09549978298362552 -0.0834677971689612 0.11487078580880303
0.09569084318526982 -0.08335003446516585 0.11533061425531214
0.09601056801690394 -0.0828208985237596 0.1155484445679097
0.09619143636941213 -0.0822277610610327 0.11512648705186161
0.09636361948640539 -0.08230918905654744 0.11584610218744489
0.09626040031795509 -0.08187229042407025 0.11487944229606133
0.09647705349535263 -0.08181840182662245 0.11549997095409821
0.09674234071188359 -0.08116576646766165 0.11574160166621855
0.09673360679969455 -0.08049384227069642 0.11534604873888293
0.09695569389341688 -0.08057413401485054 0.11604116078310066
0.09671222227158902 -0.08008205926644721 0.11512535857447889
0.09696041111063572 -0.08001536846367494 0.11572668903415102
0.0971662369693231 -0.07927861119168611 0.11599274646316143
0.09709332400368961 -0.07856227858011178 0.11566567743209658
0.09737583445372776 -0.078634251521923 0.11630346139263771
0.09705447088494831 -0.07812155745080168 0.11547968330528778
0.09732611820608748 -0.07804763269126876 0.11605993740634905
0.09751374049379397 -0.07726176356239507 0.11636113679460865
0.09740571409621705 -0.07647459166499987 0.11605382622155008
0.09775009657166103 -0.07653729664815262 0.11670894577717712
0.0973166708426187 -0.07601090809803959 0.11583914372348275
0.09762295988525413 -0.07586189235239216 0.11638445962792
0.0976043668900429 -0.07510728957866629 0.11626270423868845
0.09753841094643952 -0.07463065194752427 0.1162355630373512
0.09782718463633852 -0.07459579581627024 0.11669332219275476
0.09810227376688045 -0.07377843901584538 0.1172164191163894
0.09804962798612667 -0.07264841287966606 0.11723244349731336
0.09837876494026647 -0.07310140235897651 0.11771408244143157
0.09772180089976255 -0.07169689605619292 0.11694159712856855
0.09854345971630345 -0.07253880825718877 0.1180004702652793
0.09839744273659276 -0.07162876981284878 0.11778901568680807
0.09875739034505591 -0.07199592595126458 0.118238828042936
0.09796216030670986 -0.07062804125851392 0.1173370679776772
0.0989548114312995 -0.07136738607248896 0.11845338216708134
0.09873138808417188 -0.07039015265027491 0.11828264567951591
0.09913919513827917 -0.07066433297461994 0.1187217210422353
0.09826180302445549 -0.06929668528381142 0.11789876234041705
0.09927277681318783 -0.0699658854285245 0.1189855585335205
0.0990377856886651 -0.06900232111837604 0.11883297928354865
0.09939885484431195 -0.06919809084888612 0.11932033722903596
0.09855482943862072 -0.06794666993199273 0.11847477272463226
0.09951842620811006 -0.06851757513360958 0.1195827355324592
0.09929083512779567 -0.06783555520757759 0.11928386333418474
0.09973340795286198 -0.06782791192484003 0.11982364539193331
0.09874503572726748 -0.0671257897053024 0.11873422997820998
0.09981659654243959 -0.0675632191034316 0.11992529178878267
0.08209679450886186 -0.10388644742742824 0.11946911891757128
0.08299803418122893 -0.10311891199828402 0.1203586040551588
0.08329682784221036 -0.10276022898529073 0.12076180151405648
0.08378437680591395 -0.10198354638836822 0.11999053171754842
0.08369824838127907 -0.10217462947622978 0.12087594520971061
0.08436167612899406 -0.10111015308151765 0.11931595277378483
0.08417939139037828 -0.10149976234391775 0.12040752133926749
0.08488326029452103 -0.10027556015440048 0.11876397208136254
0.08475912312863426 -0.10066627532953301 0.11978358641126056
0.08521593131848472 -0.09976026978692036 0.11844676177899953
0.08528606764940624 -0.0998029507613322 0.11910750718023952
0.085807915600677 -0.09905781410335307 0.11884204658732514
0.08627927748542755 -0.09833734433035682 0.11860130900668456
0.08595662828918911 -0.09886801855212415 0.119631219904009
0.0867863034102148 -0.09754677996616788 0.11812597394151925
0.08651545630452306 -0.09797879919439773 0.11944267141105244
0.08722772910256091 -0.09687946868738265 0.1175646146918801
0.08715246378296394 -0.09692789547410935 0.11860079954623252
0.08768633209757697 -0.0960629939829302 0.11825883596941347
0.08804717112415192 -0.09550185822345736 0.11815171117139958
0.08838352988491029 -0.09491367161283232 0.11770097225003673
0.08809400272389448 -0.09526494213424268 0.11882954416563542
0.08875018082880441 -0.09430407624443006 0.11718049422146287
0.08855378847771175 -0.09435165343889412 0.1184960936365466
0.08910511604541646 -0.09346696503103169 0.11807401915473043
0.08954363359314431 -0.09286123358411265 0.11825437709144622
0.09019895623751621 -0.0924387389364289 0.11705877573253945
0.09020700192097458 -0.0922220220408741 0.11798246247086429
0.09077879498360515 -0.09166144260414025 0.11762667256126193
0.0911023789988745 -0.09116757400286819 0.11795743851246714
0.09161839530141315 -0.09066354355880897 0.11702672822666672
0.09148619552547968 -0.09067465728637449 0.11799590061208683
0.09190234571455659 -0.09029285421740625 0.11665513353319482
0.0919068472395804 -0.09021379709448706 0.11736615080675974
0.09228386545070769 -0.08954134089769925 0.11752737267645234
0.09277847191329655 -0.08893784709559954 0.11672860365604765
0.09262553734800712 -0.08893619467438123 0.11775134460093932
0.09301027209533448 -0.08855243242993885 0.11630545611512354
0.09301727807671478 -0.08843455733740752 0.11712759833563698
0.09336027460196031 -0.08768528591877957 0.11725093043819348
0.09379688146321367 -0.08697543015267442 0.11659750035209362
0.09367535972969385 -0.08703187940673884 0.11748495799183484
0.09413263146674934 -0.0863515195169654 0.11621441838194793
0.09405430179938186 -0.08649573226003433 0.11716699308078969
0.09433569949753266 -0.08593557603579056 0.11598473432591146
0.0944312988269259 -0.08581494286414897 0.11665557403254315
0.09479063659298799 -0.08514840793784079 0.11632479992572141
0.09504143517164061 -0.08463760901315465 0.11601242365132194
0.09505870917046795 -0.08473212115809135 0.1167235469436086
0.09518814664313983 -0.08430337964470964 0.11573375699096056
0.09533117036202987 -0.08418503438230537 0.11633316384910926
0.09568469524150182 -0.08361226765268961 0.11600189383865428
0.09586138048801797 -0.08325833785965149 0.11580888180804699
0.09601517841807183 -0.08324225763825104 0.1163697179709485
0.0964320516590895 -0.08266650548451591 0.11679748218867911
0.09663574213873526 -0.08202638487533859 0.11632251157537622
0.09677151859891893 -0.08207970399466301 0.1170637472072112
0.09671724428006984 -0.08165954580434988 0.11605914440788617
0.09689524753613835 -0.08157199388466937 0.11669101965973856
0.09718397756906383 -0.08091830739773988 0.11690892515667414
0.0972046387713685 -0.08023884238634231 0.11649023851762935
0.09744522434889255 -0.08031069508591679 0.11718716404485205
0.09720197477032204 -0.07982484298925163 0.11626565686060253
0.09743255761331927 -0.07973707115083681 0.11686108015035661
0.0976345215188637 -0.07896961245835721 0.11705306501303991
0.09760490851557596 -0.07826986691120039 0.11674773502471766
0.09783589232200429 -0.07831655053676458 0.11731104496083179
0.0975614300183394 -0.07784295717189832 0.11658952613452704
0.09780696741172781 -0.07775079310925935 0.1171295621012082
0.09805676176498439 -0.07696563316938036 0.1174188986415687
0.09808901532410182 -0.0760147121114555 0.1173024913989124
0.09829475727138251 -0.07634886124658999 0.11785552322056121
0.09797722183492141 -0.07526228420292766 0.11693970602648696
0.09846319434929561 -0.07577927412019152 0.11809165598260363
0.09831877402952781 -0.07519573375532447 0.1176682993884839
0.09863403828540987 -0.07504909256963636 0.11826874578615335
0.09817014085570655 -0.07465001283021096 0.11731592987585078
0.09853290179764485 -0.07433347972041279 0.11799663686720338
0.09857599329497739 -0.07347262967495718 0.11799513404200086
0.0985794279291315 -0.07302293906393573 0.11803650308501518
0.09881084258983902 -0.07292718229987248 0.11836815979484282
0.09892336182359411 -0.07231496820364054 0.11849007624153753
0.09897438643348887 -0.07190976039861693 0.1184826159360584
0.09919928907954487 -0.07175532441453678 0.11881030698565469
0.09930586562967914 -0.07099684022425362 0.11895959612556077
0.09932691721138702 -0.07051351794363238 0.11897914391128019
0.099516861534499 -0.07036819972028305 0.11932159322025299
0.099589317861975 -0.06955108161256186 0.1195339789612719
0.09955449989632263 -0.0690244253890534 0.11961401984064136
