# .PCD v.7 - Point Cloud Data file format
VERSION .7
FIELDS x y z
SIZE 4 4 4
TYPE f f f
COUNT 1 1 1
WIDTH 790
HEIGHT 1
VIEWPOINT 0 0 0 1 0 0 0
POINTS 790
DATA ascii
0.07762868272287857 -0.10431504582938941 0.09722430154909366
0.07827087753580705 -0.10346380702962356 0.09706178352595238
0.07893506018789144 -0.10267142391189986 0.09691137260708649
0.07949887865365313 -0.10207551679383176 0.09663912627002613
0.0798342634510763 -0.10161296090140817 0.09623695329452628
0.07982278005897131 -0.10174280156027514 0.09691181372992279
0.08046532030936564 -0.10095990459629306 0.09679822299070778
0.08113323851011726 -0.10023916359730252 0.0966785269731949
0.08176445238989699 -0.0995383932259534 0.09658024138091278
0.0823337121992081 -0.09897839405463983 0.0965235954831013
0.08271934282470356 -0.09837740067920493 0.0959866193037924
0.08315577179864442 -0.09794003380764003 0.09628494344789543
0.08380737805917925 -0.09724667984498786 0.09622077251814538
0.08442230175929534 -0.09658396794646726 0.09613413930379175
0.08481469425872175 -0.09610385332251307 0.09588223380424005
0.08498318766921831 -0.0957611672108538 0.09554918919881648
0.08514443426184085 -0.09583868060246047 0.09609832529714252
0.08562317293069015 -0.0952273017560166 0.0960218409246619
0.086023047557801 -0.0945558397426893 0.09594381620795804
0.0863735267604903 -0.09393262389510366 0.09589908919427134
0.0865587761376573 -0.09341297021991098 0.09576461863333102
0.08658255530067009 -0.0930136146982166 0.0954949878814308
0.08680057488181325 -0.09314568269990271 0.09604804711189714
0.08707166506055035 -0.09248504004679563 0.0960488475505255
0.08732750782487299 -0.09181688665747853 0.09604837831667147
0.0875716909624623 -0.09118002224597378 0.09605068285186816
0.08765678508062956 -0.09063868380836657 0.09593676200416461
0.08759791189791215 -0.09020202934886362 0.09564335999544582
0.08791467448038034 -0.09033219878735589 0.09614027564134094
0.08815169745037262 -0.08964337173924114 0.09613071860385913
0.08836534408375425 -0.08908581356895241 0.09618685650572315
0.08827760220532434 -0.08845678943591392 0.09580896918285087
0.08857029322364073 -0.08808863916304555 0.09613521352691054
0.08875087665728758 -0.08733915013557765 0.0962327059492958
0.08871306512860283 -0.08668317848624596 0.09608035502846095
0.08855412610296488 -0.08621804894206928 0.09576123141691861
0.08882203948809708 -0.08627366032537052 0.0962168143863447
0.08892333618712205 -0.08569408499029343 0.09633685955581252
0.0889814872132097 -0.08508414256997207 0.09644233593884186
0.08876414948721383 -0.08437790088710508 0.09601612809575225
0.08892780970639436 -0.08393174489707271 0.09639876498953116
0.08901653665512055 -0.08323032121393846 0.09663270020594887
0.08876595178957505 -0.0824172582715129 0.09621178874444863
0.08883663219280588 -0.08183325346832769 0.09648129494656385
0.08880555627176541 -0.08109656188468024 0.09673163782881519
0.08860593993266828 -0.08033877121051455 0.09663496433817502
0.0883308733955996 -0.07975965658023138 0.09632955438832765
0.08859849590162103 -0.07984266404517264 0.09685033029027004
0.08857328254338583 -0.07920140003563764 0.09712648513044582
0.08813585523597377 -0.07825578276200036 0.096781375489162
0.08813230134948442 -0.07757517703011262 0.09710690373698552
0.08805715009658437 -0.0769027227457849 0.09740978561713358
0.08760026159746273 -0.07591417524016839 0.09711832885542568
0.08762365214056866 -0.07539469248543956 0.09763494118857977
0.08739131397196169 -0.07451845394317097 0.09798062230807772
0.08677889095437635 -0.07344471747681443 0.09773674959217718
0.08679732636938105 -0.07280801284442995 0.09829391287678137
0.08627904488210647 -0.0716747411433706 0.09830358421888143
0.08565687540032747 -0.07081458270806346 0.09806372615194774
0.08602060628275976 -0.07088562274276121 0.09859850721119545
0.085560974351131 -0.06970416323774122 0.09898792035028345
0.08516388288781404 -0.06859196239834918 0.09896676737110799
0.08479127174514733 -0.0678788611386711 0.09868638130195626
0.08520221092062547 -0.06799976267442574 0.09925466072460014
0.08528247723555882 -0.06756896936919331 0.09956692694304005
0.07108322433535803 -0.11268255340382828 0.09898652913626436
0.07159481819696102 -0.11195696473109137 0.09937079913468723
0.07224313811009438 -0.11123808171721124 0.09911877499909512
0.07281944715597381 -0.11054249380215482 0.09912278780761602
0.07348681807585102 -0.10972679224290942 0.09900563041620357
0.07425222338123227 -0.10888094720905667 0.098873412955097
0.07500698751859348 -0.10793277578302744 0.09871836692935598
0.07569897029953314 -0.1070119535902615 0.09857717812421703
0.07639208800195586 -0.10611664417312439 0.09842548748270787
0.0770881800507108 -0.10517318319146532 0.09824751542663773
0.07773702377439334 -0.10425545767043683 0.09803734037023096
0.07840752021665344 -0.10343381571428886 0.0978373151562871
0.0789077643754809 -0.1027939049316183 0.09757276629972761
0.07927810559938425 -0.10235533815829276 0.09717673943678846
0.0792346069260824 -0.10247518530879735 0.09785932540790974
0.07995181943318842 -0.10170918603079492 0.09771220057166927
0.08064462098618297 -0.10095942649560566 0.09756808174240587
0.0813231564005313 -0.1002284143978411 0.09742637079540306
0.08197732030652567 -0.0995344920135924 0.09728878987924981
0.0824616347068499 -0.09900580274804383 0.09701026336815152
0.08271809044893712 -0.09858581890853024 0.09659470528112746
0.08278665790421603 -0.09863807511096007 0.09722797812002125
0.08342173274707025 -0.09791847215295467 0.09711838763849329
0.08410945568631793 -0.09722681859660841 0.0970440375195572
0.08457578645187781 -0.09664775695282118 0.09674796862145325
0.0847865081579289 -0.09629211890840805 0.09634227060472318
0.0849478112695277 -0.09633179275421068 0.0968375629360657
0.08545386979046256 -0.09585124462183885 0.09681731135969233
0.08599592216256396 -0.09519888184857535 0.0967668494849743
0.08634493033031909 -0.0945019708971375 0.09650449925910007
0.08657368803419263 -0.09407326358948323 0.09643628223701206
0.08664074875890652 -0.0936899959309757 0.09618305974009024
0.08683483066658568 -0.09383960021667899 0.09674100866774342
0.0871521670557872 -0.09316007436567145 0.09672306013249966
0.08744461145812042 -0.0924955705274337 0.0966888705535243
0.08771557681691151 -0.09184811878985535 0.09666954941169832
0.08784439780492083 -0.09130728419870975 0.09653294839222615
0.08782328203414295 -0.09089791768625978 0.09628485503172046
0.08809402769294049 -0.09103853820163631 0.09678618231743269
0.08832965514330578 -0.09037073375250394 0.09677973720865157
0.08855361593940055 -0.08970454447437662 0.09677855786853168
0.08862141376912623 -0.08917558526086229 0.09662296756895691
0.0885489713306376 -0.08873972742310975 0.09630522383962255
0.0888420657401073 -0.0888883454898395 0.09684637405346147
0.08901164541999014 -0.08818352054520676 0.09684005111038514
0.08913114519338874 -0.08760963690884882 0.0969351711809916
0.08899406371221692 -0.08694625441765848 0.09657299914603537
0.0892159212482449 -0.08657097792355017 0.09692895321772675
0.08930827562023153 -0.08578982193139303 0.09705736354285706
0.08918975874733437 -0.08512313837238052 0.09689984074388965
0.08903040587951265 -0.08463957295374752 0.09654789529236421
0.08924561412618989 -0.08469463150373324 0.09703168718044261
0.0892855994057577 -0.08406823042204269 0.09718351848407192
0.08933986963743057 -0.08339743913009705 0.09730186816534457
0.08909864526964249 -0.0826500340329446 0.09689790658480568
0.0892464915528295 -0.08213161262543918 0.09728609120053323
0.08917915033669933 -0.08139972494077542 0.09749999491039794
0.08887537578076607 -0.08065284103013312 0.0971861962099534
0.08900664295200318 -0.08019004199625708 0.09761657134807372
0.08893937338480007 -0.0794521715086602 0.0978381810628882
0.0885807027587098 -0.07858381655910261 0.09747051339551441
0.08865233362107679 -0.07798711573788077 0.09799591372851728
0.08833113237843127 -0.07705316442557882 0.09797820328383937
0.08800536231098975 -0.07637741571324423 0.09766534286668778
0.08828317333195923 -0.07645611907469284 0.09821075295916051
0.08812258104256203 -0.07556872455894491 0.09850006868440185
0.08776445594191253 -0.07464426361738062 0.0985084829832857
0.08732102661946795 -0.07392836660663984 0.09825813786351079
0.0876764037601997 -0.07407001989751934 0.09878379405399232
0.08746929692432583 -0.07329417916047051 0.09915329175200979
0.08676196413429188 -0.0720962306512894 0.09888269319707471
0.08653686523189139 -0.07120488586854364 0.099361568903755
0.08626567141295817 -0.07024675139933348 0.09979919842973171
0.08564447503105442 -0.06903185675622182 0.09955535032401547
0.08581673230509373 -0.0683268850885689 0.10018588143024613
0.08564633651307119 -0.06761826099769301 0.10026267297971377
0.07152802932295105 -0.11185429059986524 0.1003065063233679
0.07156257891245335 -0.11167170249960204 0.10100341354409102
0.07199277889415538 -0.1112517255541129 0.1001657437001039
0.07276891499178163 -0.11033308509144281 0.09983237260494145
0.07339126323664409 -0.10959660067716952 0.09982072883028624
0.0741878991019319 -0.10874440534420417 0.09968864031222611
0.074966131182858 -0.10783011178908432 0.09956998674809077
0.07567190285668211 -0.10694780313458228 0.09944731730266963
0.07640541821119279 -0.10606655151960434 0.09929667945958016
0.07717296629342216 -0.10508788155802493 0.09913463289688389
0.07790908706028173 -0.10417728204252308 0.09868879419294768
0.07838869190302669 -0.1036110086790104 0.09851190743984613
0.07873157073856901 -0.10310669786814657 0.09811854829469084
0.07867691143559093 -0.10330136794414276 0.09884360541856527
0.07938739427127321 -0.1024699818055347 0.09868510472303796
0.08011495110099648 -0.10168854314978035 0.0984991858448571
0.08079580914687971 -0.10090693655833857 0.09833786987209528
0.08149309559988506 -0.10015525627586436 0.09818138344827711
0.08198470135929337 -0.09957407255829867 0.09789690115500713
0.08232178852216714 -0.09920786613455806 0.09749735205800912
0.08230036445818524 -0.0992657042717766 0.09815495951511627
0.08297609227913742 -0.09857295879288662 0.09802943996752435
0.08362382421419175 -0.09793019979987952 0.09791948366124115
0.08420040469830603 -0.09742140833548944 0.09787869986025885
0.08459237757429713 -0.09685337560092663 0.09734961592503999
0.08509312968947375 -0.0965408574932677 0.09764328808798259
0.08577335051975671 -0.09592313715620891 0.09758414431745861
0.08617131599452302 -0.09540413884968098 0.09742118939367826
0.08642293523619275 -0.0949065387072212 0.09712139494397626
0.08646017229714059 -0.09530967127319034 0.0977631929322478
0.08661313284339621 -0.09438066571179411 0.09684758207463891
0.08681406518780659 -0.09459787428693502 0.09748036769601272
0.08719879240656749 -0.09385395180925246 0.09742616435179136
0.08751824514316173 -0.09316251209236724 0.09735790433048991
0.08781023351471393 -0.09251423209998698 0.09730647552878093
0.08796451585481825 -0.09200445875753296 0.09718399774105119
0.0879702597905983 -0.09158682377801006 0.09692835387577253
0.08822873477419342 -0.09174653345001227 0.09743430607288674
0.08849126640559057 -0.09107659969044676 0.09741385328335474
0.08873271248616983 -0.09040051714745259 0.09740958315089002
0.08883758579505831 -0.08986754880177174 0.09726606369165555
0.08879015160601297 -0.08945314801076701 0.09700398265956041
0.08906927446953261 -0.08962431978298453 0.09750556636081499
0.08925893821200562 -0.08893543083981242 0.09748233955900565
0.08940295112188548 -0.08826015403200377 0.09748132578211875
0.08940155693303913 -0.08768760920888774 0.09735740228996577
0.08926269077632147 -0.0872344517859539 0.0970846177186598
0.08957605207245321 -0.08738754964372493 0.09759333489123506
0.08965012563783656 -0.08665663243251777 0.0976246135112471
0.08971260230852211 -0.08605020484825981 0.09772273158159052
0.08945032260072412 -0.08539094464640147 0.09740429564307491
0.08962291764097916 -0.08499034172446988 0.0977633858535159
0.0896675547053253 -0.08415308447439934 0.09791082452221073
0.08957314914745966 -0.08341085555650235 0.09775915325920888
0.08940180818106541 -0.08289380723092443 0.09741929975519344
0.08964192548651813 -0.08291675293910865 0.09791243090946501
0.08961623953780108 -0.08218120885941259 0.0980962290893276
0.0893935742619216 -0.08143617780942561 0.09799894519231055
0.08915062349476237 -0.08092982461587446 0.09770915924265677
0.08940111112998839 -0.08096710224744824 0.09819834112218152
0.08937827927813242 -0.08023819687660887 0.09842125671376974
0.08916466926454311 -0.07948655970960258 0.0983639341913705
0.08889224484401653 -0.07893203789942015 0.09806600340451438
0.08916445710655972 -0.07899712840978282 0.09858681136233331
0.08916711083955207 -0.07835624678508461 0.09886110463950855
0.08873277887729636 -0.07739612913430097 0.09853451271486655
0.08872866533054595 -0.07674465182576724 0.09892179783904213
0.08865145234898986 -0.0760553423295403 0.0992672773170896
0.08822505847673823 -0.07508809474727503 0.09900682605852676
0.08824931193703925 -0.07457420815678449 0.09952531467049518
0.08793224732995138 -0.07363575270679314 0.09987265555058909
0.0873275319551022 -0.07252601342571847 0.09961375586006926
0.08726418101251292 -0.07172401861402143 0.10031441551345342
0.08666205353543958 -0.07040644071777634 0.10044562556545883
0.08616074431561714 -0.06950508509021053 0.10013124766263029
0.08653348475057004 -0.06956766753627544 0.10072895015022441
0.08638947488104844 -0.0686474542039739 0.1010673780065787
0.08621845122172182 -0.06775233540103916 0.10116710961313086
0.08639920497545842 -0.06702348905320338 0.10153608637348832
0.07180450706375235 -0.11124847551906024 0.10120022980074624
0.07162402195460085 -0.11144900015219374 0.10194428543283443
0.07195071922680404 -0.1109435590423992 0.10174169500029144
0.072518639962609 -0.11032951716389833 0.10084370899307209
0.07339897418552586 -0.10937160919534346 0.10049078434445977
0.07411923956258153 -0.10863298624493924 0.1005074926638987
0.07492026903281931 -0.10773258455228893 0.10040565910411042
0.07566155084197305 -0.10689197327379582 0.10027905529379846
0.0764240117185149 -0.10605158550197546 0.10017887697512462
0.07704506857732646 -0.10532108277155115 0.09995921054174237
0.07757740862719376 -0.10464285281271071 0.09953219272802638
0.07723420142782303 -0.10515359076020539 0.10038222506079085
0.07812968861787174 -0.10399923554624606 0.09909546017206854
0.07801661955508439 -0.10422003847986845 0.09990951237053211
0.07879409158396568 -0.10327065823590566 0.09970385193234145
0.07955148810457888 -0.10244372477508391 0.0994885525005966
0.08025930310806059 -0.10162481823114823 0.09929643476999263
0.08092622382419347 -0.1008347624802561 0.09913998803476422
0.08145983602606333 -0.10025485385657272 0.09884960799751148
0.08181320531343907 -0.09981496534809434 0.0984342581083368
0.08178217400319987 -0.09995670867119624 0.09910893899890119
0.08246722081412002 -0.09924546310310094 0.09895413629618331
0.08316174785223458 -0.09857258570819474 0.0988037798700514
0.08383285422500827 -0.09794752596763656 0.09866223207891783
0.08433635542712463 -0.097483101901426 0.09838025907280545
0.08460800585503708 -0.09709392858837791 0.0979646276935006
0.08474941335885358 -0.09721085758052775 0.09857041490046949
0.08545665623141264 -0.0965824851701802 0.0984119249705073
0.08592250674422121 -0.0961088109698455 0.09817795776839307
0.08614007412223286 -0.09573260839225475 0.097873621439652
0.08627917281078984 -0.09590104736120589 0.09842880102428747
0.08680129433439342 -0.0952819036652954 0.09829828350378346
0.08721658164407844 -0.09456110768842828 0.09815392643942401
0.0876095074661887 -0.09383549314515267 0.09808148921109631
0.08785851044167013 -0.09312566608579952 0.09786768410795439
0.08805202102627227 -0.09268928241742823 0.09779805315951684
0.08808520669148218 -0.0922891286182245 0.09755500391445437
0.08833268059870573 -0.09246035891880842 0.09808149519168374
0.08862188037948888 -0.091758957036757 0.09804596435576886
0.08887372767551012 -0.0911028322705088 0.09803635242473069
0.08899590494408237 -0.09056454056597991 0.09793370761159044
0.0889827820879734 -0.09015270925090732 0.09766010180579346
0.0892471189340531 -0.09033343005797094 0.09816864355705945
0.08946511117868643 -0.08966961954944196 0.09815036807175267
0.08965869463761335 -0.08898485489017235 0.09812610406435116
0.08969091343953424 -0.08842466447111084 0.09799167750016981
0.0895980947579707 -0.08797829086727418 0.09772879560256237
0.08987962548939851 -0.08815399844912979 0.09824507266562452
0.08995895307796642 -0.08744149155720105 0.0982466906508119
0.09003353500434896 -0.08672662927637878 0.09825975268169002
0.08998052958879388 -0.0861305495541698 0.09813538469611205
0.08976940916693055 -0.0856744600614937 0.09787602724384474
0.09007574809731433 -0.08582923295707393 0.09839624250917293
0.09002239534885347 -0.08508052329158539 0.09848741645833217
0.09005463365362171 -0.08443180911849096 0.09861439446185852
0.08984237713472175 -0.08368816155663074 0.09828421124415496
0.09003929905913541 -0.08323982628885408 0.0986651155383727
0.09002030323894007 -0.08249368685081411 0.09883166083889405
0.08967690773728253 -0.08173435468082309 0.09851913820515834
0.0898019029759745 -0.08128806243664428 0.09894940889486764
0.08976573277073548 -0.08056499795510633 0.09917578709995896
0.08947756344799937 -0.07979138584635603 0.09887072585646783
0.08961329173417781 -0.07936200114617405 0.09931009933487565
0.08955997601111201 -0.0786130359170838 0.09955058124819514
0.08917837773490492 -0.0777514143244921 0.0992421216843668
0.0893060237556868 -0.07716787121862935 0.0997767703920806
0.08896891259393364 -0.07618597667791187 0.09979857990454571
0.08860952146309287 -0.07552212270890088 0.09954055798697044
0.0889283427455729 -0.07559410826998295 0.1000523033695575
0.08867118299758028 -0.07466228758012311 0.1003195038014831
0.08825627051221412 -0.07373591291547191 0.10037120160919374
0.08781196248800419 -0.07299352665069964 0.1001886779019859
0.0882639202331296 -0.07323045230487717 0.10077563690337371
0.08795763246948483 -0.07222612872709026 0.10116997794791609
0.08737248792250164 -0.07093602361391503 0.10120627152940177
0.08690842157548564 -0.06957173393583294 0.10141452224970392
0.08666016081895493 -0.06875166083465242 0.10158948772351499
0.08645529819662694 -0.06828053481760106 0.10145929524688264
0.08686798717902386 -0.06831464041832304 0.10206707702358885
0.08668215485773886 -0.06723391914372359 0.10194227358751638
0.08662908904592238 -0.06679546410870509 0.10187540365950733
0.08706332379172789 -0.06678419854863268 0.10252260952825053
0.07164544410923143 -0.11141471350555532 0.10268073776369768
0.07239327259948143 -0.11035357538305675 0.1018153802976429
0.07199155219514891 -0.11085799464712627 0.10259420064411214
0.07266508002699827 -0.10995317557983435 0.10227394353352909
0.07314866173656419 -0.10947526445734451 0.10139935223056314
0.07413336340456213 -0.10846130068920898 0.10132442157095352
0.07493614713391493 -0.1075670211631232 0.10118632805632803
0.07567284688284882 -0.10681138981427016 0.10101263972077813
0.07622157924748771 -0.10626510269371983 0.10092430711115388
0.07671567830443851 -0.10576556359716842 0.10055338674459527
0.07653202222836826 -0.10593857258207307 0.10126446582834292
0.07737678942947049 -0.10502711445591652 0.10104135568003617
0.07818022601407627 -0.10410236169898926 0.100755480893867
0.07894891590642576 -0.10320580459244758 0.10050186170369144
0.07968175140275305 -0.10235814162334135 0.1002698193849956
0.08035531316767201 -0.10152979448713838 0.1000994751759236
0.08088185785959474 -0.10094715773805103 0.09981534381721306
0.0812513694550719 -0.10053433357391307 0.09939791568425017
0.08122051440248639 -0.10065047399581857 0.10007203785635782
0.08193330139304988 -0.09992528847856891 0.09990003113084509
0.08263205290448794 -0.09921599161844867 0.0997233236579292
0.08336313746146216 -0.09855723298959931 0.09956152091834043
0.08388873454593185 -0.09803256611056765 0.09928382650948873
0.08422154256456789 -0.09769011332884649 0.09887390335821386
0.08429561593995773 -0.09780810613558817 0.0995018343068878
0.08507977878787272 -0.09722799633637337 0.09931020960127661
0.08558911781285533 -0.0967195524216549 0.09903340859191961
0.08585957527724437 -0.09636083111485952 0.09865058892171805
0.08598346830842694 -0.0965192693735167 0.09924892970563147
0.08660968973498509 -0.09591669304120674 0.09909343047237196
0.08719353542916453 -0.09525914049540252 0.09898261764833738
0.08756713251631815 -0.09452060022492731 0.09870677598930444
0.087836056769448 -0.0940675172139403 0.09866305376385145
0.08799337251207011 -0.0935326776086791 0.09843493123921983
0.08810781434797085 -0.09396651035206666 0.09901502007157112
0.08813118868572065 -0.09300639086985292 0.09819124586863309
0.08838348740523684 -0.09321445318046047 0.0987635644266528
0.08876648842235792 -0.09245539586989407 0.09873601900420576
0.08897729508767989 -0.09173456123414431 0.09855151972592015
0.08912916220719418 -0.09127001556514605 0.09851865496754406
0.08913121641952229 -0.09086060445560312 0.09830281928598775
0.08938576673759377 -0.09104128676908611 0.09880376621821368
0.08963023144818351 -0.09038008396969396 0.0988018915194409
0.0898577220054462 -0.0896994790665288 0.09879271134717842
0.08993230511335404 -0.08916821501559828 0.0986436992045536
0.08987692555173377 -0.08873052872279695 0.0983719910733651
0.09013022986822124 -0.08890968059116122 0.09889528778292117
0.09025266742656374 -0.08820145734591385 0.09886414993620542
0.09034191648713283 -0.08750309569583245 0.09884785634212995
0.0903115093794578 -0.08691371395946924 0.09873177100889532
0.09019312485552095 -0.08643692425006264 0.09849439206877278
0.09045866216235214 -0.08663540266778187 0.0989947015306738
0.09044828378839402 -0.08588597070919639 0.0990405156798246
0.09039799853458369 -0.08515493630414425 0.0991227374505027
0.09029896627427195 -0.08452771993124526 0.09904621770317448
0.09014591980869278 -0.08400263449827353 0.0987851836380035
0.09044484662956366 -0.0841709040962591 0.09932176355480926
0.09043069178242186 -0.0833042040763918 0.09942948568987696
0.090242412667234 -0.08255440841106503 0.09931534777495805
0.08997174570632246 -0.08202806391797306 0.09903331811339414
0.09023597068446997 -0.08209831136883995 0.09951470448271897
0.09020959361970587 -0.08138325817260275 0.0997417985813339
0.09000068219448541 -0.08062643788590121 0.09968288125413567
0.08975077050753172 -0.08010962651368767 0.09939539266159242
0.09001527630780659 -0.08016311237499921 0.09990004842445674
0.09000444508171135 -0.07942409215628035 0.10006583665289849
0.08982999360142498 -0.07868945101109533 0.1000267175469052
0.08955222547673279 -0.07810644353711874 0.09979822213321343
0.08992339386144019 -0.07828779559279098 0.10034331664969011
0.0898355440118866 -0.07749764924275615 0.10055408704859987
0.0894121762624831 -0.07658100324118146 0.1002975060187502
0.0895176220836017 -0.07596239272093477 0.10083343623680951
0.08908049711027391 -0.07489464772210938 0.10089455178022999
0.08866288025975393 -0.07417740468776553 0.10070456875017457
0.08900709380973694 -0.07430538175407192 0.10122425671274256
0.08880051042785252 -0.073343945648408 0.1015357336676851
0.08829768282532563 -0.07238737814858717 0.10166555725227024
0.08789854014268825 -0.07182750469857913 0.10155234245070811
0.08830101350526565 -0.07180601079091971 0.1020675060889649
0.08764364631828393 -0.0703630957724216 0.10198723311216111
0.08708596208121727 -0.06926758453057559 0.10191704155140849
0.0876719948002096 -0.06954789852310006 0.10249204313410393
0.08769001845773051 -0.06871927516002736 0.1029366587153607
0.08742520057867845 -0.06762985516319019 0.10289082025380689
0.08750119245687321 -0.06681664187096913 0.1031155197428266
0.08750806214861281 -0.06634775162984463 0.10324457192063469
0.07176861103396989 -0.1111752833134292 0.10304707774648601
0.07210461972742992 -0.11061826748636615 0.10333819170232535
0.07335603019374128 -0.10913656055781355 0.10223824823069269
0.07270180863925947 -0.1098787411453088 0.10309678989724345
0.07429767893433874 -0.10821540917976742 0.1020766227607941
0.07361351895131668 -0.10885060092962016 0.10296665534552751
0.07512652303744158 -0.10733410884448784 0.10183569803552103
0.07460130677904658 -0.10790629204583625 0.10272995695516558
0.07582537377582863 -0.10665195916522352 0.10149381941969438
0.07566409632050079 -0.10683913954816379 0.10229200961163448
0.07668589977777049 -0.10583039624823098 0.10207250895398984
0.07754448010183801 -0.10490022435256417 0.10182854197410493
0.07835745943908526 -0.10396183802951281 0.10152862324726471
0.07908763390876605 -0.10308390914755725 0.10123500932181355
0.07977845521231275 -0.10226076093062851 0.10103644014537969
0.08030022266983608 -0.1016418436580853 0.10077964932429778
0.08067400745361895 -0.10121388813377664 0.10036727091870223
0.0806324579935579 -0.10135385008253237 0.10105263219325336
0.08136833985305313 -0.10060436072141367 0.10088198634325089
0.08208201802148717 -0.09987299351119136 0.10066374736732518
0.08282914983419444 -0.09920786313920056 0.10045635209070662
0.08338827280063395 -0.09869305110679935 0.1001919442661604
0.08375628623680552 -0.09830072076203993 0.09979723122026897
0.08379836587061115 -0.09845695550358764 0.10041165516689246
0.08457943710536028 -0.09782866824255483 0.10022637174496081
0.0851771248716096 -0.09737803135253234 0.09991911532110563
0.08550663697202138 -0.09700682743404265 0.09952767872766555
0.08559100253065596 -0.09715435343049783 0.10012113189167911
0.08629439644163403 -0.09655788762744255 0.09992261512210739
0.08694209893990833 -0.09596546686172608 0.09979122694767094
0.08736147331644152 -0.09547272755878293 0.09960098093733227
0.0876273858328676 -0.09495913853694148 0.09931478509817733
0.08763212107624888 -0.0953397928934091 0.09993019869643327
0.08784648730177368 -0.0944368728606595 0.09906247385203805
0.08802485331878052 -0.09462993476696198 0.09964371441702106
0.08847682700515062 -0.09387955586857369 0.09956359489356563
0.0887810070733683 -0.09316034289390361 0.0993329288308274
0.08901833962748394 -0.0926881761656976 0.09931577970403081
0.08914543788174471 -0.09215291172298366 0.09909768781151591
0.08927795730345385 -0.09258520677565528 0.09966575527152846
0.0892353590908394 -0.09161172784763308 0.09889279129004712
0.08948692923645093 -0.09180742037275305 0.09945678527383221
0.08976342318670585 -0.09106183501429656 0.0994419215690819
0.09000730410249178 -0.09039502773251415 0.09942693620788558
0.09012735541714427 -0.08986656634456218 0.09931443956423086
0.09008794534676497 -0.08946402166579236 0.09904994178333991
0.09035543883743906 -0.08962743198491264 0.09955166734721826
0.09050138884292655 -0.08893914840302429 0.0994925084010899
0.09061705598252584 -0.0882623879603834 0.0994468304817128
0.09063346816178756 -0.08769779335678708 0.09932602024567677
0.09050588998483974 -0.08724724305432756 0.09909998482864316
0.09079673224151194 -0.08743044890056985 0.09959815376813738
0.09082056791310154 -0.08668744635213266 0.09963575522685243
0.09079824874989541 -0.08594497438795974 0.09969262232488176
0.09069078898562415 -0.0853281927029958 0.09962897511729676
0.09050336198849722 -0.08485353490263618 0.09941944515151585
0.09081952791766366 -0.08502572035681961 0.09993110311788499
0.09081794926719848 -0.0842396711209598 0.09999944599944667
0.09080624787776034 -0.08359778149962789 0.10012648717219905
0.0905217020526748 -0.08287811236578332 0.09982469491797945
0.09066123326001294 -0.08247026947926606 0.10025312925299772
0.09065106297771347 -0.08175562574287921 0.10046621051584585
0.09033144815323323 -0.08095226838138911 0.10019491357793334
0.09051482311371477 -0.08048346864452458 0.10066622249248094
0.0903297140308173 -0.07961158592786198 0.10062622257050297
0.09008585015928522 -0.07903260839215923 0.10038271513565704
0.09037714776678736 -0.07913241536224626 0.10087238107640313
0.09037474968866659 -0.07836300630706358 0.10105635597502555
0.09015297867874726 -0.07758134190192749 0.10103452882069464
0.0898062292269232 -0.07697033149330128 0.10083012196910918
0.09022355197921296 -0.07714436621399612 0.101376453955869
0.09008930794503384 -0.07630333903825715 0.1016093095160013
0.08957634077812525 -0.07532335580645576 0.1014096892639418
0.08969527620290374 -0.07470401235438927 0.10202072969538226
0.08932194320816031 -0.0735923347909265 0.10211810447273306
0.08877933614322095 -0.07280791489239676 0.10195056068109778
0.08921496588202082 -0.07292871573762338 0.10241590881473599
0.08910706999831638 -0.07216377768034395 0.10272601791469443
0.08861012215511774 -0.07100337261402494 0.10284208737682861
0.08834289062450289 -0.06977647685415769 0.103194921910577
0.0883746677946988 -0.06902245846920282 0.10357756157276335
0.08783214216086985 -0.06832991353394546 0.10329121393190666
0.08812508254244078 -0.06811182356346329 0.10361793513581811
0.0880541610146626 -0.06723760562347866 0.1037103744094201
0.0876869285545624 -0.06659505409332112 0.1034333268154371
0.08792181055613887 -0.06643982934484477 0.10376343780180637
0.08782335608646748 -0.06613882174446885 0.10371113268247519
0.07262263174071376 -0.10995145305337574 0.104003866297319
0.07314101944247875 -0.10934999240965376 0.10370936862817873
0.07387615081164726 -0.10855608277216629 0.10366377540086681
0.07494537459933029 -0.10761233842428602 0.10339894897086672
0.07593397770519346 -0.10665157546999202 0.10311888276189754
0.07689181026122871 -0.10574202480717083 0.10285777543114906
0.07778072063522048 -0.10481133469248756 0.10266074281523177
0.07859596844414563 -0.10378304455412377 0.10219418682614637
0.07924298517184919 -0.10298147812375287 0.10187003223863392
0.07971642540175977 -0.10241759641586781 0.10171457487668628
0.08007364752031988 -0.10193674096502808 0.10132744514750809
0.08002482585895714 -0.10214338086405551 0.10204070190693633
0.08077396172208885 -0.10134607308143126 0.1018847699576344
0.08153502422900746 -0.10054271048836372 0.10171815926180655
0.08231295515408751 -0.09980692793578545 0.1012597127593782
0.08283229433334055 -0.09935045101939942 0.10106799482128727
0.08321121527043877 -0.09896194661960435 0.10069538444721793
0.08322051025619474 -0.09912301298580195 0.10134669560992962
0.08404016770218312 -0.09848072752029186 0.10117702648103942
0.0846474907909151 -0.09797036902054994 0.10086488614071981
0.08501799114803614 -0.09760769569461797 0.10043642036977016
0.0851006331380452 -0.09777024543535705 0.1010631398079495
0.08589975088638555 -0.09716426313468941 0.10079346374006067
0.08660887151896188 -0.09659959760037419 0.10058107844176771
0.08706877749799936 -0.09614855333484756 0.10034908097710067
0.0873038872912441 -0.0957826200383699 0.10004058046650742
0.08740382037021631 -0.09592113065913928 0.10058880122192092
0.08795405065504605 -0.09522624623247289 0.10049371278343508
0.08838745997780177 -0.09453782406760294 0.10017987424844096
0.08869060210885472 -0.09409656049638858 0.10011952944161265
0.08888181344721566 -0.09358341211931728 0.09990074088656999
0.08893180493673018 -0.09398135526457503 0.10047440522609825
0.08905538836944248 -0.09306106363815786 0.09969454178235893
0.08923813180422696 -0.09324221218441925 0.10026511586984592
0.08958655329900392 -0.09248053922474486 0.10019342717604915
0.08988985338040847 -0.09171236686711981 0.10016554504286235
0.09008817411059962 -0.09101615635334852 0.09998710499635231
0.09024601235950423 -0.09056684364398584 0.09994031570938142
0.09026223404854783 -0.09015477781126482 0.0996929740251565
0.09049000095960977 -0.0903472784112199 0.1002111619180843
0.09073312865543992 -0.08965129626227433 0.10018829700454604
0.09080097679435359 -0.08893475243388092 0.09999944468989337
0.0908592830222856 -0.08847343461103387 0.09995917345527833
0.0908091085454874 -0.08802238233577064 0.09970790016661174
0.09106002094314165 -0.08822332970267975 0.10025841698485012
0.09113408673830993 -0.08746816722130532 0.10024677271697537
0.09114372986496863 -0.08673807007212711 0.10028261935017217
0.0910741095647237 -0.08614230744524484 0.10021843767874908
0.09093392323504214 -0.08565543957084253 0.0999903323189282
0.09121341984572609 -0.08584664770059375 0.1005232905655947
0.09116902189867 -0.08505754205498978 0.10056852976383246
0.09115037109192764 -0.08430086691141214 0.10063298768074119
0.09104565149938147 -0.08368880351580335 0.1005747074232159
0.09081178782062488 -0.0832042353908687 0.10033904397698847
0.09112530635029124 -0.08336873758143035 0.10087634345942742
0.09107521873597012 -0.08255515737959052 0.10098006252386624
0.0909465621061071 -0.0818711155515201 0.10092818675297444
0.09067102248733473 -0.0813222637337172 0.10071253829353506
0.09105066777051865 -0.08153329184140465 0.10126037470755189
0.09099812336197222 -0.08081502228963938 0.10144806002181825
0.09071091745819491 -0.07997786787163641 0.10115165129513286
0.09093192186812607 -0.0794663526093214 0.10163695350986844
0.09076174938702293 -0.07855033812145365 0.10160741652432313
0.09048710707208321 -0.0779364590247981 0.1013762205227607
0.09080521231822435 -0.07803379466649753 0.10186646436306368
0.09068319549238707 -0.07720470121744999 0.10210416330972849
0.09039146065951557 -0.0764064558384645 0.10210280304676639
0.09006790835642293 -0.07574911912728005 0.1018988360680356
0.0904665176224104 -0.07596443965053301 0.10246297917609624
0.0903768040029685 -0.07516517455611674 0.10276675694510679
0.08997152556482312 -0.07412226339885568 0.10280336688909965
0.08968961496901455 -0.073024419893906 0.10297729047650211
0.08953724458809191 -0.07236470731984423 0.10311977745145201
0.08924222390236891 -0.07186736341105886 0.1030420645636365
0.0896394650222151 -0.07190337689556724 0.10357649393611307
0.08904198652924207 -0.07057515638743818 0.10366647182436843
0.08873645489895063 -0.06981979337136802 0.10365946165994376
0.08918004399914496 -0.06977991311831103 0.10416875511542303
0.08877480945821885 -0.06863649551483857 0.10413175995948014
0.08846336139681196 -0.06794390554076112 0.1039948515146416
0.08885147631439592 -0.06786593409842688 0.10454046648076112
0.0884925375653425 -0.06686860851100872 0.10440519942204246
0.08820722820062153 -0.06632937707432585 0.10419625164972245
0.08876807205975577 -0.0666089016377499 0.10489462561900337
0.07273968475186209 -0.1097924043219974 0.10468391435310902
0.07303651442430854 -0.10949512107462447 0.10494959292437148
0.0732109614982432 -0.10929275665831274 0.10447340277112876
0.0741742187453508 -0.1083315727669685 0.10436262404193859
0.07519238433249062 -0.10740600210952125 0.10412060123041045
0.0761507168092575 -0.1065026139378846 0.10383462446506646
0.07703608566159337 -0.10570820009995836 0.1035695348226459
0.07763620757917507 -0.10513959162813113 0.10348353623992126
0.07823855654280278 -0.10439981071650595 0.10310210771383191
0.07779512332221096 -0.10502589360454644 0.10395086042003604
0.07889270780250535 -0.1035293615906726 0.10270703715727669
0.0785515361498936 -0.10414255903846316 0.10360659836356036
0.07944375808510716 -0.10283087662735037 0.10229200484285342
0.07938395840477258 -0.10309792657656701 0.1030881163576183
0.08016645511319953 -0.10216122963095801 0.1028928010110564
0.08090707285255883 -0.10136759949447281 0.10274790647136481
0.08147200170317605 -0.10075506759736189 0.10249795571733801
0.08202351353803043 -0.10019762695693367 0.102050672470592
0.08177066865570759 -0.1006382460295699 0.10286250968758413
0.08258955956394332 -0.09966406207262882 0.1016114768283148
0.08256518069933974 -0.09987830969440332 0.10237300680547315
0.08346950818585315 -0.09919326549152407 0.10215280387251936
0.08408727309020238 -0.09865809915936538 0.10183213076956929
0.08448961589859592 -0.09826556242516742 0.10139698163801336
0.08455578193814768 -0.09844738713475937 0.10205149583711251
0.08547001272806175 -0.0978129044816184 0.10180701767198926
0.08624910313873461 -0.09717282259119901 0.10133725883641272
0.08673084719688284 -0.09679279613745098 0.10113017045225352
0.08699859148621693 -0.096421986783146 0.10078491308434973
0.0870857916868191 -0.09658334497079886 0.10136541226644982
0.08766181517431595 -0.09590832199072029 0.10125119664483191
0.0880721277102463 -0.09539760182061531 0.101086751206773
0.08837826066652946 -0.09490922463259911 0.10079874785209622
0.08831668238983142 -0.09526795446307372 0.10140628579532564
0.08865579000157721 -0.09443600951397943 0.10052170774989613
0.08877174524944914 -0.0945982038279716 0.10112068239660012
0.08921327553537083 -0.09386495781320152 0.10100628913505327
0.08961050077919559 -0.0931237168095975 0.10091744085377376
0.08988200584112854 -0.09236861170146259 0.10072490458879657
0.09008932615413182 -0.0918809048526899 0.10072075296605351
0.09022250271919734 -0.09139273844404497 0.1005342981882625
0.0903190195976221 -0.09177723988035522 0.10106332301539742
0.09032817451574625 -0.09089034991111505 0.10032683441650135
0.09054322237191717 -0.09107951643948707 0.10084248254711624
0.09083333782368624 -0.09041729982625418 0.10082018287394526
0.0909962545468563 -0.0898975603352545 0.1007447472386799
0.09103086658913537 -0.08935455941232702 0.10053530175513054
0.09122655556220949 -0.08977493629357249 0.10108342373119239
0.09102104042503947 -0.08882089718203809 0.10033726011449207
0.0913062639725893 -0.08901948195510213 0.10089717603503129
0.09142933586179 -0.08823184090716314 0.10096000906490084
0.09141590208615463 -0.08743429846038993 0.1007993303658898
0.09142182511464067 -0.0869281980907102 0.10079282801967976
0.0912803308719743 -0.0864796548183285 0.10059767017217006
0.09155939205067261 -0.0866773347535495 0.10111941624925687
0.09158048702090818 -0.08585784485508585 0.10122121342249758
0.09144952622472455 -0.08502307665467947 0.10112802316695241
0.09142259413263218 -0.08448786093718813 0.10114295559101573
0.09128027888468924 -0.08400740627180331 0.10093499429454403
0.09156742584131174 -0.08421850972201221 0.10146252332011761
0.09150617147903996 -0.08341807369536318 0.10156987364613179
0.09139686165829715 -0.0827608393506012 0.10151783770763854
0.09122467122144078 -0.08222900847099493 0.10129050942697292
0.09154915467035653 -0.08243609609224019 0.10183408330329469
0.09145781353296158 -0.08160773057461043 0.10195423340358142
0.09128381466873337 -0.08092533748609528 0.10191843464261739
0.09106597079079931 -0.08035338419395509 0.1016757168410529
0.09144384108569382 -0.0805744574668419 0.10223908409376511
0.09148218862138029 -0.07982043746575192 0.10241896885411714
0.09115716950533309 -0.07893714738435276 0.10214480761151985
0.09137074006352479 -0.07839210665364221 0.10269606931304155
0.0911142750610734 -0.0773899326713428 0.1026939314055574
0.09072622498219582 -0.0767546905725855 0.10245874230541742
0.09105108533223072 -0.07679886193875528 0.10291354530610305
0.09089621144476993 -0.07602399786297138 0.10311675253403722
0.09072235625247807 -0.07534173538794989 0.10318785409824087
0.09047610609207582 -0.07487632789516682 0.10306922317994312
0.09080427119586754 -0.07492425992748734 0.10358697712674084
0.0902720173704464 -0.0736706057529759 0.10351513294737957
0.08988188623115394 -0.07279616320556578 0.10342034790393406
0.09030879928777888 -0.07296810349831673 0.1039597815155322
0.09028752433269253 -0.07220009217204947 0.10432214676903723
0.08993828807219914 -0.07112283087108587 0.10443702419775239
0.08980998471140346 -0.07012987511683509 0.10476619812075137
0.089538444651834 -0.06913205128911747 0.10493398825389738
0.08946737605857116 -0.06820287790414513 0.10523730593552469
0.08924154152803589 -0.06727854918341358 0.10536027630128808
0.08926430401633796 -0.06661395680933459 0.10564389740799467
0.07372562156352498 -0.10883188664517342 0.10504380503999143
0.07452321356297416 -0.1080357345408321 0.10502955733348034
0.07427566435072364 -0.10834315069081919 0.10570259249107436
0.0754818881628523 -0.10716640312852026 0.1047775200066184
0.07485295107447122 -0.10774688081451557 0.10571135587759595
0.07642487540425204 -0.10628375204532697 0.10443017903143809
0.07582627618411435 -0.10687236831929775 0.10538209964629175
0.07716746817310897 -0.10561880933802445 0.10407674959408482
0.07692850411821864 -0.10585432282034667 0.10486765122498092
0.07798991116294289 -0.1048901107506274 0.10455269225297081
0.07885978637392449 -0.10393766290958369 0.1041868272159326
0.07966128689263678 -0.10300231649172893 0.10385765793733513
0.08036506644312645 -0.102171668679146 0.10369378264008229
0.08091201624980819 -0.1015678987597367 0.10344558619213216
0.08124558531733711 -0.10111362756848835 0.10306309246476995
0.08130542937472769 -0.10133090575003544 0.10371489021406168
0.08210469492422745 -0.10062825336859287 0.10343417572825372
0.08292352275547979 -0.09992056679693652 0.10313290681043295
0.08353717306237604 -0.09939278069229684 0.10281733784268719
0.08393363514755765 -0.09897198305159727 0.10237780098522287
0.08400642395642642 -0.09917581649905588 0.10305311421787051
0.08486512113815207 -0.09854411063782154 0.10282927362105748
0.08552342906437503 -0.0980488707182014 0.1024984538285377
0.08607578215553705 -0.09757105208358938 0.10206602500376075
0.08586388808291441 -0.0979424196282658 0.1028087724488844
0.08659312073903415 -0.09710848027487044 0.1016399060628082
0.08665089270033154 -0.09728368971336843 0.10234528265150046
0.08734435175451025 -0.09654485653113297 0.10193671569748895
0.08774708838270512 -0.09609164565723133 0.10180642406208504
0.08798298368409074 -0.09570525612353742 0.10151544293882962
0.08804760313716593 -0.0958713013548179 0.10209268149828934
0.08858404567773068 -0.09517191929992562 0.101942794053706
0.08910796272880288 -0.09447124814927975 0.10178558234363741
0.0895068006932613 -0.0937731899287318 0.10152303595114077
0.08977137010277153 -0.09330743058363968 0.10148578366074394
0.08995310678684462 -0.09278202089491887 0.10128140668465538
0.08999391507028982 -0.09319092109337443 0.1018628704842021
0.09011265462518724 -0.09224447052791472 0.10109061801216687
0.09028236322425391 -0.0924534219383862 0.10162855197589499
0.09062257975567767 -0.09169434645772354 0.1015707994685827
0.09085002102876419 -0.0909978578056513 0.1013470122236696
0.09104855096356033 -0.09059618430045882 0.10130889833175448
0.09109893040146266 -0.09023837301790842 0.10111423972695738
0.09129160759399892 -0.0903749240312451 0.10160247883030007
0.09150233810534097 -0.08969388586122698 0.10157160818073263
0.09167182418990624 -0.08898237032802218 0.10156478750202749
0.09172841058656 -0.08843759222633607 0.10154269303399732
0.09165970442566053 -0.08788917469814965 0.10136773855645285
0.09191009939052193 -0.08828530864024554 0.10189332763384468
0.09160366528575781 -0.08729380562168587 0.10116494477152073
0.09186039409023608 -0.08751841578618083 0.10173213879676457
0.09189504164280865 -0.08674307692993707 0.10180842133652254
0.09189326820342127 -0.08612262490989561 0.10180358217459291
0.09178263006819809 -0.08549632615365574 0.10163767116303393
0.09207880004205987 -0.0859697573728509 0.10216203392414501
0.09163923410471288 -0.08487384795342907 0.10149340316941571
0.09195234441810367 -0.08512090232139814 0.10204341163716726
0.09195393312318173 -0.08426176999402242 0.10213830154291807
0.09186146255600709 -0.08360280539193173 0.10208453484909384
0.09165746957505248 -0.08311044920940033 0.10189387348369688
0.09201511810280394 -0.08329017004585099 0.10239343898022998
0.0919569750951495 -0.08248314838854857 0.10249828676301388
0.09182803401050312 -0.08180497422046153 0.10244871516805622
0.091590278564055 -0.08127660112997642 0.10226207351841748
0.09199030391130945 -0.08147809544628763 0.10278741985570602
0.09191915810837459 -0.08062958859220068 0.10293959381138526
0.09180484921951068 -0.07992825497057601 0.10289612931868429
0.0915705560300052 -0.07933116885642824 0.10267505341704194
0.09196733163216604 -0.07955796065573269 0.10323409670430142
0.09197132105694916 -0.07880989189307085 0.10350408365496978
0.09161588283410241 -0.07781296683365747 0.10335449669583109
0.09139521085336608 -0.0768667699843229 0.1034485671423577
0.09124282129770886 -0.0762988929309148 0.10359875405958123
0.09101135231203658 -0.0757405046922383 0.1034943662852909
0.09143299284557763 -0.07606437123286584 0.10402377499345847
0.09140574130246855 -0.07530355538481362 0.10438109867524707
0.09098890402199374 -0.07417850644667724 0.10439378287918848
0.09072574345720011 -0.0730097948290198 0.10460479960881672
0.09054714945284512 -0.07230511934493881 0.10479442336041617
0.0903487066104649 -0.07184074141728067 0.10469525124049171
0.09063020232901521 -0.0718414183895557 0.10527369504679261
0.09028263673631812 -0.07066691885073537 0.10522454581929648
0.08999290610632579 -0.06994880231787524 0.10515581040729631
0.09032774304367772 -0.06982625835534834 0.10572531698794595
0.08995201920608713 -0.06869246550374429 0.10573395213438966
0.08966585528961232 -0.0680023371190582 0.10564901287967396
0.089976193159463 -0.06783646111434952 0.10625518781513922
0.08968345086931692 -0.06685734221491532 0.10620331695889468
0.08958342065723988 -0.0664701179748788 0.10615683560076578
0.08993542818100171 -0.06660738225069175 0.10669146579109787
0.0745282326138237 -0.10817986824936421 0.1065819443695514
0.0751736325037352 -0.10749694132103907 0.10638044713313373
0.07617410023829377 -0.10657275457224528 0.10598851972252035
0.07727902858778814 -0.1056043757503804 0.10554521119291808
0.0782708770764963 -0.10466344322233731 0.10515707708042213
0.07917270078300964 -0.1037749752715108 0.10479164193783208
0.07988820061377566 -0.10293823451637082 0.1044944404410746
0.08035012588516023 -0.10238058299246461 0.10437087444302907
0.08073126777176973 -0.10191283183636508 0.10398998522478979
0.0807518015217693 -0.10217667909408439 0.10466664902459263
0.08166124567180373 -0.10139770103813939 0.10446126848414161
0.08246165805679449 -0.10061776262818647 0.10400178321448622
0.08301964735276514 -0.10012930802254082 0.10378365979136954
0.08337569907446497 -0.0996915266709086 0.10337006595308966
0.08346374978196519 -0.09994577182834842 0.1040482228708006
0.08432218300193584 -0.0993030211961594 0.10384478362438447
0.08494384869496532 -0.09876385625096823 0.1034703348924947
0.08532617245573264 -0.09836496854604924 0.10303803117457946
0.08541812979870683 -0.09851876836884405 0.10360282900736173
0.08614967019347067 -0.09793236951144393 0.10335116880070733
0.08670588293308476 -0.0974729052429415 0.10306082966450321
0.08717996131949102 -0.09695810508575824 0.10264606390858803
0.08697206526983337 -0.09734723513921247 0.10339562762721126
0.08760022376851005 -0.09640975458923814 0.1022768629347799
0.08762460468249485 -0.09660014409646331 0.10297803016444398
0.08830531358044508 -0.09581366909856058 0.10282434776159377
0.08883910755960264 -0.0950746241709983 0.10248613308842998
0.08919965804221061 -0.09464112739049443 0.10238833291439771
0.08947591511148975 -0.09414467326258123 0.10212242787313341
0.08940566998708467 -0.0945186619062733 0.10276851286505352
0.08973881607908603 -0.09366082457437408 0.10188876831265349
0.08982433995053186 -0.0938186977037077 0.10248020211762908
0.09028180152431158 -0.09310076286155759 0.10240070035273949
0.09057773810168579 -0.09235452991665316 0.10215503094009337
0.09080790644485517 -0.0918704403532651 0.10213336307396718
0.09095719501544551 -0.09135247557064693 0.10191309050118823
0.09104374340949885 -0.09174488188047314 0.10250158766633108
0.09109624190690095 -0.09086508902632062 0.10167664920404444
0.09129121889224916 -0.09102341102125643 0.1022508696723213
0.09161154605329075 -0.0902928254658236 0.10224219384069075
0.09178462718791072 -0.08960353918729999 0.10208800471265628
0.09190392316131252 -0.08912840432494969 0.10207246002637813
0.09188126978681589 -0.08873814304490485 0.10188790313323726
0.09208476515435787 -0.08887799594234803 0.10236045192854402
0.09218339435318063 -0.08817726913303364 0.10239392403737539
0.09214401271734934 -0.08743149109289605 0.10226803829698836
0.09216444417513715 -0.08693843208571843 0.10229743023985884
0.09208216678650738 -0.08650207978171902 0.10215166441150897
0.09233612704283035 -0.0866637220819837 0.10262524275429229
0.0923360266645865 -0.08587533344597956 0.10267059250226734
0.09232566723016325 -0.08507593209699232 0.10271743031417661
0.09226776910060716 -0.08444159969190886 0.10267102091424085
0.09212038828817057 -0.08394229406380078 0.1024438354716384
