# .PCD v.7 - Point Cloud Data file format
VERSION .7
FIELDS x y z
SIZE 4 4 4
TYPE f f f
COUNT 1 1 1
WIDTH 790
HEIGHT 1
VIEWPOINT 0 0 0 1 0 0 0
POINTS 790
DATA ascii
0.06335670990328014 -0.10010059431797573 0.07486661783900532
0.06375250075135366 -0.09858370364307395 0.0748984795278388
0.0638773172217286 -0.09770318918855772 0.07474384955465402
0.0641465675683609 -0.09693695130723062 0.07484104534709217
0.0644749960577708 -0.0959913605132658 0.07499128102689079
0.06461071142380144 -0.09500757647402588 0.07495001821095414
0.06458460105963922 -0.09396144515532077 0.07484232399124773
0.06447772543656936 -0.0932350073114895 0.07470534703817178
0.06470520263474479 -0.09283971662258962 0.07497493242217874
0.06476701878602888 -0.09187944999410871 0.07510851580877226
0.06473266347586881 -0.09086902802423896 0.07511764184632583
0.0646892600116512 -0.08990621520102718 0.0751378962174803
0.06471595336165809 -0.08923394083067283 0.07525116762987193
0.0629793785714153 -0.10445243915645364 0.07573649848963637
0.06314082376462442 -0.10369183873166059 0.07567166528074772
0.06336373336014339 -0.10253129828835499 0.07559233067905459
0.06338702393211759 -0.1014508155095421 0.07531418611451841
0.06347093899766222 -0.10061117098035684 0.07518645590775652
0.06358923193726523 -0.0999984144326947 0.07514420425880498
0.06359885571613946 -0.09950264986695014 0.07498549198723642
0.06397986952984801 -0.09966037108987895 0.07549675479191191
0.06425061966310515 -0.09867816692126141 0.07549723744253985
0.0645028246181087 -0.09773966972879906 0.07544910700762443
0.06475062731071446 -0.0967989911460579 0.07545050334658422
0.0649407635166446 -0.09583334976607108 0.07542698294034694
0.06505628234170761 -0.09484394286157287 0.07535987632119728
0.06490631773950115 -0.0940082721898001 0.07515013822141586
0.06464691609060447 -0.09342583178623272 0.0748929041199741
0.0651888017076866 -0.09366874650315846 0.07548236963669841
0.06518063730777174 -0.09271311198809266 0.07555227015505625
0.06513580980708489 -0.09171323148705346 0.07558786694744016
0.0650373347553478 -0.09068788915813382 0.07558923424558339
0.06497120305432383 -0.08972898980119962 0.07563498119661503
0.06502726432413855 -0.08889700998102852 0.07577978162419612
0.06507704607038527 -0.08785593550210347 0.07588747218619178
0.06502203853327548 -0.08718188719348761 0.07577583819329875
0.06529253613191903 -0.08703359290346993 0.07611703783986999
0.0629149821843361 -0.11002674505479847 0.07716067700520324
0.06286457150010762 -0.10819607131548314 0.07654663206179153
0.06297455580530839 -0.10907468632080063 0.07694815671367579
0.06295984007565572 -0.10741308173743333 0.0765023704746624
0.06311182971568563 -0.10811796500489794 0.07686940499634214
0.0630886283681602 -0.10645459389114487 0.07638482002246233
0.06338676415382243 -0.10706845209218092 0.07690885076288648
0.06338125877227593 -0.10607128338443624 0.07659791121178638
0.06313263194173856 -0.1053354492728097 0.07612460334027146
0.06326482742542845 -0.10441722217414073 0.0760259255482245
0.06348068700058498 -0.10354395307914546 0.07605010026607815
0.06368914719881137 -0.10291519426795445 0.07617814226061116
0.06374977138325251 -0.10215916170695791 0.07601140330267851
0.06414338770146613 -0.1028918907018205 0.0766762004752795
0.06382740567755242 -0.10123012493974387 0.07583338792877176
0.06433440456871223 -0.10198257237019534 0.0765857181145534
0.06381851491331617 -0.10043912222131253 0.07559347603017992
0.0644203614127825 -0.1008273117427571 0.07634259040945676
0.064742223555771 -0.09977464582519315 0.07634009774312339
0.06499787121510843 -0.09879108236441408 0.07630096042308936
0.06524634735403212 -0.09783315937104671 0.07625915418720038
0.0654745832394032 -0.09687831087905527 0.07623779138769618
0.06563696016229016 -0.09591774221935914 0.0761846541853167
0.06563418064093789 -0.09511976157810335 0.0759782228163047
0.06537182076423687 -0.09447038138093049 0.0756211695042669
0.06591856895625023 -0.09478445987976736 0.07632856609556771
0.06589742993254627 -0.09379314520610664 0.07632484799937542
0.0658229609924364 -0.0927908805559212 0.07634898009990412
0.06571908347723826 -0.09177562392161054 0.07638694295149463
0.06561111337019103 -0.0907559529328745 0.07639741668941004
0.06552557758339835 -0.08976531847682337 0.07644103406700174
0.06549864496479797 -0.08876100000957418 0.07646456821001871
0.06534675993313141 -0.08791262277653158 0.07628453510293433
0.06516526441025829 -0.08736017095082065 0.07599501076081329
0.0656708228486901 -0.08763560351497661 0.07665675741095711
0.06587920460473165 -0.08692889132868176 0.07684963214435503
0.06615713112583044 -0.08632684551064669 0.07715321541828446
0.06283137880270194 -0.11285362139015842 0.07771017622646877
0.06289422885505341 -0.11210780369615145 0.07768086649888792
0.06299762920287129 -0.11095592178594939 0.07759716512051039
0.06311787020898724 -0.10995309586499366 0.07750719072281484
0.06336253812972116 -0.10897713109790748 0.0774946436147322
0.06366709164552255 -0.10802536565196039 0.07755200778296818
0.06395808645865306 -0.10724804148530412 0.07765458323403267
0.06361105006475501 -0.10524329642573531 0.07663666996705067
0.0639761812623627 -0.10623532516762961 0.07735675346030992
0.06382472124686529 -0.10428850552183355 0.07662429980512686
0.06427145928213866 -0.10508215319861872 0.0773753460414783
0.06391203341751334 -0.10350832501331403 0.07656260499575586
0.06449531181839192 -0.10391070283558121 0.07727194939511328
0.06482914393933129 -0.10289001212814794 0.07734733560851469
0.06505889897866217 -0.10187135633308428 0.07729416076961002
0.06525867505342674 -0.10084100664805509 0.07722944593665826
0.06550063791720576 -0.09984860657849054 0.07720398200519657
0.06571130372682511 -0.09889062251220951 0.07714370081282772
0.0659440517812366 -0.0979497738861365 0.07711249036056014
0.06616545058506204 -0.09701410804217439 0.07709990727027537
0.06616679060790141 -0.09622725284210638 0.07688030655521298
0.06598907009391258 -0.09559288436472635 0.076501345429553
0.06650688614301224 -0.09590586188243524 0.07720668874247638
0.0665807607954171 -0.094924114142182 0.07719245877898431
0.06659066240358492 -0.0939322331798593 0.07718979999775369
0.06655667964794332 -0.09293522466209438 0.07722329011696162
0.06644581525999434 -0.09192211723939228 0.07725515981559902
0.06635022890694438 -0.09092248882906401 0.07728288095300986
0.06629064965458083 -0.0899353950092078 0.07733551569240125
0.06609484540872355 -0.08908160310431769 0.07715165149680757
0.06574647546209197 -0.08838718435011432 0.07678594066862768
0.06640830409642857 -0.08876132330040487 0.0775060843901996
0.0664224424243966 -0.08778556063367558 0.07752203798255664
0.06651014343855087 -0.08685925244206157 0.07756674817832705
0.06660841779239778 -0.08597687137829778 0.0776741623269406
0.06660639814043148 -0.08529395453683968 0.0776614877303071
0.06689778808659537 -0.08511752554644819 0.07798375111109457
0.0630071798020571 -0.11406017705148115 0.07819018392729722
0.06296888123899935 -0.11355705107290262 0.0780623789003485
0.06301203799480343 -0.11276125629546306 0.07801554450200147
0.06315924056026608 -0.1118240935971051 0.07811061872422641
0.06338000341971703 -0.1108037253311364 0.07816401587778177
0.06363459007063564 -0.10980998033172651 0.07819438580988324
0.06394314003723509 -0.10884737962228482 0.07825297625775854
0.06424499179907152 -0.10792807308853132 0.07830921358980383
0.06452265426653277 -0.1069930585001902 0.07825545088351303
0.06476519366662414 -0.10595717904611628 0.07818149084492247
0.06501889652249511 -0.10487943967203056 0.07813571806121432
0.06527111969218594 -0.10382421158290954 0.07812588580748892
0.06553161001978734 -0.10281981528432642 0.07811235681579899
0.06575992567894563 -0.10182576088287945 0.07809088162748815
0.06597141944833952 -0.1008603283578746 0.07804686864056372
0.06618213566386087 -0.09991218936734124 0.07802287636823572
0.06639779434229083 -0.09898030030845291 0.07796193593741917
0.06664788714217187 -0.09808196871114634 0.07795182703726804
0.06669768942397684 -0.09733392363566762 0.0777886842248224
0.06652671111240946 -0.0967060124037265 0.07742224196535336
0.0670229697468836 -0.09701121458173319 0.07812260161847559
0.06716047961615733 -0.09603804394212627 0.0780989028610037
0.06723458591501857 -0.09505261440638899 0.0780816935769614
0.06726956762838286 -0.09406843613465433 0.07808696547690215
0.0672663193145315 -0.09308572089342979 0.07812808402223997
0.0672044405370414 -0.09209828121527977 0.07814328767547522
0.06711321747970818 -0.09111818991103539 0.07818749093187484
0.06690037773759729 -0.0902999373214428 0.07808149180055497
0.06659259029066172 -0.08962087371263808 0.07771676063254791
0.06722377686255439 -0.08997731328110949 0.07841343183689707
0.06724846138297956 -0.08897692904235666 0.07838949079257171
0.06727045925408118 -0.08797918736396179 0.07839989382642998
0.06731560542722925 -0.0869474768604783 0.07843279416182347
0.06705727784742098 -0.08599722321676906 0.0781664720543959
0.06675473753868302 -0.08543616674359285 0.07786496128032974
0.06725574655819638 -0.08557309402010183 0.07838260135530395
0.06757687278961982 -0.08507532988319118 0.07870003309757144
0.06797871341185088 -0.08438736962911318 0.07908963434727907
0.06336674554193127 -0.11714996099982415 0.07994451205150235
0.06333027481855487 -0.11533725894511672 0.07908109553963215
0.06347397381893038 -0.11619882649251996 0.07974381843057517
0.06348239036077966 -0.11522388483618705 0.0793373635940678
0.06328512908570204 -0.11433597553811096 0.07871579772902006
0.06324253352206523 -0.11342541938638842 0.0784808250048001
0.06344292898029133 -0.11264537631488336 0.07869626487575272
0.06370121501052599 -0.11163423407584057 0.07886733321401432
0.06397203438095028 -0.11060195482864686 0.07892418344895465
0.06422308158334106 -0.10964482242949322 0.0789562675830173
0.06453200972662775 -0.10873739435868185 0.07901367498793102
0.06489242477485295 -0.10780593116365017 0.07903667076840118
0.06521853600178443 -0.10680602101381677 0.07900493642353028
0.06548983959228467 -0.10576749265579805 0.07893578172598753
0.06575386126562165 -0.10473372013268657 0.07891068694031192
0.06597646590954431 -0.10373218207010688 0.0788863376740195
0.06621687211053329 -0.10275239466941946 0.07887648920405022
0.06642483421194544 -0.10179924262984946 0.07885201763126808
0.0666425615619556 -0.10087719386375767 0.07884572248795664
0.06689986085122035 -0.09996252066348714 0.0788787463050227
0.06699170694439315 -0.09900203088156233 0.0786749176295033
0.06713170926551756 -0.0983858952775375 0.07865254775030862
0.06701848989405891 -0.0977959012785623 0.07832149990712665
0.06747297889617172 -0.09808907637730997 0.07902106632195152
0.06764929270528887 -0.0971148792242642 0.07899101481558105
0.06776966532728332 -0.09613533006585238 0.07897781741366726
0.06785710480196706 -0.09515853738173617 0.07895907238148335
0.0679195041070993 -0.09418894989298396 0.07896233781140931
0.06792485341579517 -0.09322322776350915 0.07898793096472913
0.06793098654741903 -0.09227390931530047 0.07900249708775878
0.06777557003985821 -0.09147335804258322 0.078851674333834
0.06740109455042309 -0.09080752420455308 0.07855963030889679
0.06809030766950282 -0.09116862501655566 0.07922666205973168
0.06808067698069097 -0.09018890206513654 0.07926535480563522
0.06810631503202491 -0.08920838612568109 0.07928627175574664
0.06809351592020851 -0.08822819333054978 0.07930249098430298
0.06817083035246513 -0.08742986203989608 0.07934855000346468
0.06769203206662955 -0.0864580510684665 0.07881747003804593
0.0681410913509044 -0.08604825202767316 0.07928061997566156
0.06831070206802399 -0.0851527195859069 0.07944870070347057
0.06845698850073166 -0.08439705879136915 0.0795546361052813
0.06830067802747208 -0.08384080020267813 0.07937230128469835
0.06885846478098395 -0.08360740740480152 0.07981301837367301
0.06338340932738137 -0.1176057681037954 0.08031256715583096
0.06346130417976562 -0.11719397667022736 0.08032822084332977
0.06367790091483397 -0.11649458927789307 0.08044446234988284
0.06369288221861992 -0.11459936817720452 0.07947620410266197
0.06389930449490869 -0.1153993314265498 0.08025362290131265
0.0640698141475294 -0.11430265992188259 0.08004614049698941
0.06374079101174573 -0.113626801684562 0.07929364320140465
0.06407755792358759 -0.11252007447054589 0.07956871033068065
0.06444605716025903 -0.11137280284972337 0.07978495137598476
0.06449544387036583 -0.11034212051026224 0.07956695605496826
0.0648151663382939 -0.10957790363117978 0.07969889044937715
0.06521418943245666 -0.1086747502538223 0.07976068959697911
0.06564368800840913 -0.1077248569098378 0.07986572150714759
0.06592162274141977 -0.10662667928279372 0.07971745753166377
0.06617158839969509 -0.10561675616823886 0.07965456384335597
0.066394357668192 -0.10461533036736924 0.07963902454105848
0.06662243049015949 -0.10363787805135331 0.0796190079886486
0.06683777219201287 -0.10267305405274947 0.07960986092634746
0.06703397421834004 -0.10174684708807782 0.07958436094116196
0.0672087890028678 -0.10090632495219944 0.07957478887195382
0.06739712012772574 -0.10032831663864035 0.079627512172855
0.06740814918863003 -0.09961718660783192 0.0793887392489266
0.06785665150669973 -0.10024183716818685 0.08008760137835894
0.06739252235400342 -0.09887442396822421 0.07914538762006687
0.0679215980032309 -0.0991977461135502 0.07985367156150876
0.06812013067710514 -0.09815741148511543 0.07984021718848879
0.06827554216744079 -0.09717445965366199 0.0798231012831065
0.06837613935521081 -0.09620429122569994 0.0798075407257141
0.06846458530495621 -0.09524406481432247 0.0798054566219753
0.06852576338065676 -0.09428549240926166 0.0798121759595524
0.06857176695551728 -0.09336241804751665 0.07982283082862066
0.06850210851943576 -0.09261111854076025 0.0796867414976631
0.06825145663374023 -0.09197829358891474 0.07936023985188527
0.06879532370639649 -0.09231302413859689 0.0800628345838352
0.0688283565072405 -0.09135321389596956 0.08011569178403541
0.06884032383477742 -0.09038017894017805 0.08014378536825252
0.06886217921596749 -0.08940505017989941 0.08017913135563104
0.06889303924301986 -0.08842981487234258 0.08016196049659399
0.06872644417782858 -0.08761507692211426 0.07992551816487224
0.06835701436690231 -0.08695106852017712 0.0795042533675506
0.06900395131573853 -0.08722622583734926 0.08021236858192571
0.06905200832558388 -0.08625582533971579 0.0802075264586052
0.06908065776946923 -0.08527424875311017 0.08020025219687031
0.06893421172115037 -0.08447586878792865 0.0800055083141663
0.06867631390093935 -0.08395413815742139 0.0797096741649144
0.06935175139515745 -0.08417413428692264 0.08030450003812035
0.06968859000122746 -0.08338756246857461 0.08050090920803432
0.06977351097899122 -0.08262062567146256 0.08044753641305799
0.07001882639806216 -0.08234837432189847 0.08062338959925024
0.06351373597380136 -0.11786167998412286 0.08104347010574076
0.06369889243760962 -0.11723012275213837 0.08109629886988587
0.06400660944373274 -0.11633333095259772 0.08114413498832278
0.06432203530841317 -0.11552217227947373 0.08126594265566599
0.0643866215226168 -0.11343390512928353 0.0802704059233783
0.06456630763937876 -0.114478109937992 0.08100409156893404
0.0647681741796044 -0.1123885058344599 0.0805023793791197
0.06505186949648499 -0.113311391887793 0.08123156260884604
0.06505703130283112 -0.11154511109479479 0.08065411092491075
0.06548391826858001 -0.1122032779374591 0.08143200257684656
0.06552576715635437 -0.11122297733268181 0.08112204603807037
0.06509050975241142 -0.1105731896522982 0.08035434377110796
0.06548858895569931 -0.10955267762647283 0.0804456823137156
0.06583620776473166 -0.10867891566682567 0.08049930654408237
0.06611737074420138 -0.10810379726848263 0.08062209617846587
0.06628361633438988 -0.10738532680710558 0.08047878991641992
0.0665399287837866 -0.10812350088429443 0.08116787202100267
0.06654121609998179 -0.10645715496939347 0.08040670379784873
0.06683108272229346 -0.10729557783490193 0.08113748743848924
0.06679272931083505 -0.10549351745513155 0.08035881420084028
0.0671232615270441 -0.1063670952608122 0.08109204973106715
0.06704783216068126 -0.10451269235600329 0.08034232432926777
0.0674073861248576 -0.10539735549824383 0.08106056268948937
0.0672827161201444 -0.10353566177177777 0.08032164238445115
0.0676782566704156 -0.10440452300376737 0.08104328733820247
0.06748985419363884 -0.10256168773228753 0.08029084041049737
0.06794635078470716 -0.10340113308815033 0.08101696410925485
0.06763699186497626 -0.10161572827346893 0.08022395590704443
0.06813287709683866 -0.10235400759406507 0.08094414239269614
0.06766546699474806 -0.10086809637439494 0.0800785928511088
0.06822291610924962 -0.10120137310258547 0.08074919153012977
0.0684473455746746 -0.1001506086451148 0.08072821883634974
0.0685975227871051 -0.09913130390088556 0.08066163020376026
0.06874003653624523 -0.09814481611500281 0.08061967944237472
0.06884070095170375 -0.09718156780612676 0.08061301427747322
0.06893641465059253 -0.09624820799209062 0.08060072213007448
0.06906656238072106 -0.09531422500877525 0.0806831063814806
0.06901183011516539 -0.09431197744494776 0.08054583272862041
0.06904320376318943 -0.09368383568849138 0.08050860373324499
0.06887640379467072 -0.09308886268707148 0.08019394982405165
0.06935739803303675 -0.09343201522951142 0.08089110778596025
0.06944194062060881 -0.09247710598389612 0.08094129892196014
0.06948453080283694 -0.09151509922295384 0.08098886240535558
0.0695384190105911 -0.09056173523017065 0.08103530829192632
0.06962136785278863 -0.08958385762700281 0.0811191094742338
0.06949902362537817 -0.08869206735066616 0.08087221879745157
0.06918096988702156 -0.08804159347332322 0.08043859803381967
0.06965146309185478 -0.08820737264799378 0.08102668145554502
0.06977440483087377 -0.08743014183202953 0.08107483180873196
0.06993299880147025 -0.08646273050213965 0.08109393842669467
0.06977791515705752 -0.08554480539859013 0.0808147281647056
0.06940792652544937 -0.08488471162895662 0.08043396296974925
0.0700432169509649 -0.08510609617890916 0.08098520392785688
0.07025937418926732 -0.08439081042066726 0.0811006719905927
0.07042811711325633 -0.08360767824056337 0.08116943983460326
0.07010091983110141 -0.08276376460224882 0.0807639457133382
0.07066911017656884 -0.08240957853939064 0.08125238777356152
0.07075307188469916 -0.08194169636414676 0.0813004684172148
0.06357043267634098 -0.1183917046149082 0.08183725466363287
0.06369438998990136 -0.11800266670628871 0.0818775335235812
0.06397471327054052 -0.1171813987619536 0.08195006817581103
0.06435387695854056 -0.11624066884432017 0.08201134108178572
0.06476573550612058 -0.11526305534390309 0.08201721901403211
0.06522319021226876 -0.1142232609557263 0.08205169609859701
0.06564132608795521 -0.11322137740888315 0.0821699090745655
0.06596575303715504 -0.11242205293765736 0.08232328997051752
0.06579495125384507 -0.11040849818151607 0.08117482303750065
0.06605902222532439 -0.11141017822813468 0.08198516011260445
0.06608869892441921 -0.10944047630042351 0.08117400577946407
0.06637648267387986 -0.11027689218455604 0.08198377159901117
0.06626006179520479 -0.10867342355779683 0.08107454313635394
0.06666255344319628 -0.10913528712195027 0.08183725652972314
0.06705905684706742 -0.10818901320931623 0.08190458832271841
0.06741565966107965 -0.10726035429884953 0.08187270567257009
0.06773064141599165 -0.1062998296092186 0.08182115663663524
0.06805084429316291 -0.10531043320585878 0.0817810248615457
0.06835230985823783 -0.1042984251573555 0.08174013598455497
0.06868170317131345 -0.1032473750149324 0.08175653937910414
0.06878891835691146 -0.10209006537812827 0.08156753341684167
0.06891983767581054 -0.1010390531169264 0.08148278108382394
0.06906629938855476 -0.10003183690850935 0.0814364397467595
0.06920288367558147 -0.09905041085600146 0.0813938467723268
0.06931590512485454 -0.09809252434718606 0.0813634920904274
0.06939439038491277 -0.09716611345266912 0.08133032630300542
0.0694690977682784 -0.09632731339499888 0.08131271053450949
0.06958693724072933 -0.09574775983029511 0.08141472706960683
0.0694749685796892 -0.09499143686419236 0.08123910349263096
0.06996073860596926 -0.09571057874517368 0.08194716908228171
0.06934463133615584 -0.09420837972700633 0.08100952146196083
0.06988723869059957 -0.09462864670692485 0.08174904553800368
0.07000266907891198 -0.09359696714530803 0.08178950762565737
0.07006432392913906 -0.09261605199944382 0.08182754588907497
0.07009389273997896 -0.0916670355005226 0.08187286301190509
0.07017327135660828 -0.09077191797360624 0.0819395723635906
0.0702970349558423 -0.09004078130260947 0.08203322337104647
0.06998565472685708 -0.08913580663795027 0.08155160562983585
0.0703837318294816 -0.08869118473638006 0.08194734611940066
0.07058057373070815 -0.08773653994940554 0.0819678877183663
0.0707852821275187 -0.08698622879823437 0.08202642073637618
0.0704147657574848 -0.08604043728321123 0.08149210521003392
0.07087161167558033 -0.08561112312283907 0.08191856501276684
0.07110536777247138 -0.0846176586114613 0.08198087732677066
0.07101322104287386 -0.08373644391703784 0.08169523708414263
0.07066640471700719 -0.08309360501147535 0.08128308144699635
0.07124998343748441 -0.08327318740989971 0.08187243185855406
0.0715023001845849 -0.08267556513378818 0.0821071003421341
0.07111323023322115 -0.08206590004198674 0.08166167571646636
0.06369948830873565 -0.11847053273782227 0.0825080924651593
0.06390364776815048 -0.11796473006542257 0.08272644325516018
0.06426421199266232 -0.11709458468291317 0.08284995092611158
0.06474086364231091 -0.11612339756759588 0.08290956027593538
0.06524484387608952 -0.11512243528883512 0.08293696929660237
0.06570453529305725 -0.11412444309094964 0.08298076830667883
0.066090959218162 -0.11317264569822053 0.08302885574902247
0.06636933022938069 -0.11221735211898701 0.08298369659462221
0.06662763772670692 -0.11119786994424921 0.08289449286429881
0.06692099447348622 -0.11014503761181897 0.0828376538702304
0.0672549852809084 -0.10913836253702283 0.08279010802193874
0.06762325690165487 -0.10818372692362664 0.08275038145524263
0.06800824787790698 -0.1072159617545103 0.08269397919308137
0.0683500999780418 -0.10623536747045466 0.08258827619188626
0.06873713807578319 -0.10522821717278835 0.08254950273042824
0.06894554722614214 -0.10420893277081415 0.08237302289607522
0.06919175585906334 -0.1035738874743375 0.08242120728928823
0.0692533496142764 -0.10281890602388932 0.08228436587993915
0.0696017119602118 -0.10352067442890563 0.08291443054973577
0.06938664923842741 -0.10186743889706316 0.08220419040491161
0.06977144185428374 -0.10266450042419767 0.08290176930099186
0.0695163303974345 -0.10088594056089616 0.08216624116857259
0.0699329004496342 -0.10172769956915673 0.08287919845848804
0.06964543445032076 -0.0999136671819125 0.082145900574111
0.07005722345663211 -0.10076657382377464 0.08287428742006257
0.06975718797626698 -0.09895432436592023 0.08211878522623013
0.07017433955279635 -0.09981023536315257 0.08286842667718657
0.06984713212628095 -0.09800777673615309 0.08208063903345375
0.07028296289192032 -0.0988591486079666 0.08284032992952112
0.06989602971707089 -0.09708844331076477 0.08199230504618028
0.07036085055922789 -0.09788542856686323 0.08277557877386987
0.06986875749492966 -0.09633814611952851 0.08186240971769483
0.07036362271408035 -0.09676837871073656 0.0826222773205644
0.07046203870270784 -0.09572731885209941 0.0826899773550054
0.07053460810207063 -0.09469385237634216 0.08265613832070072
0.07058834795178782 -0.09368116831664353 0.0826660605126875
0.07061618602298304 -0.09271010986448133 0.08268263528904352
0.07066015587675734 -0.09180221318899234 0.08271974901343893
0.07076734357437996 -0.09094873507742267 0.08277695269674144
0.0707136919050291 -0.09021143029602535 0.0826063032789013
0.07048328922870278 -0.08958884189067752 0.08220863132262718
0.070991757682771 -0.08984626691415994 0.08290468068505477
0.07115141010659727 -0.08887431776906576 0.08287103282729562
0.07129067824499764 -0.08792101422881334 0.08283387922655874
0.07123976193054933 -0.08714687895165836 0.0826128760145842
0.07099750076550986 -0.08651836502476108 0.08218340295939283
0.07151445552890658 -0.08674979212385488 0.08286642167657574
0.07166203954123146 -0.08582165563304876 0.08285715346682343
0.07185425350282978 -0.08503502986516612 0.0829076854452984
0.07153537744109388 -0.08414154349710329 0.08235574987328154
0.07192793203275534 -0.08369025446791872 0.08278678779031627
0.07218111457048408 -0.08292621144500878 0.08298560771804493
0.07186939137059051 -0.0821808695628222 0.08250710927168288
0.07233082999298676 -0.08161805951589718 0.08307408632372235
0.07257087977242198 -0.0807393351055592 0.08328553350523633
0.07248995830007127 -0.07987048453502851 0.08304869196861374
0.07263982796102197 -0.07920926817520726 0.08313322564710675
0.07261580190087519 -0.0786922232259265 0.08297092342297605
0.07303763794732113 -0.07665572105025471 0.0831894527075146
0.07301554478078576 -0.07583274913399467 0.08294402105610696
0.07295058540408067 -0.07518454508238755 0.08268365510348347
0.07314652632632569 -0.07492396782432378 0.08296978661824621
0.07360551025303856 -0.07287147863043834 0.08332123771974788
0.06385893470537674 -0.11835770734439519 0.08312308072689119
0.06416827464121112 -0.11776369923897291 0.08353597632916661
0.0646060619402039 -0.11699023595867857 0.08379631962122028
0.06508587783067162 -0.11604689376930756 0.08386674405413976
0.06561794088533486 -0.11505764538941028 0.08388351458020907
0.06606311334058178 -0.114068207548693 0.08389629281631579
0.06646347836778192 -0.11308619597072854 0.08388759640986061
0.06678050283890308 -0.11209922438263893 0.08384638191346896
0.06707451734432304 -0.11109020786312136 0.08380510262973345
0.06739421699811315 -0.1100984186139462 0.08376050179278724
0.0677409430297236 -0.1091373905183682 0.0837048511941375
0.06816054612339355 -0.10819501622298065 0.08362903124299485
0.06862525075876265 -0.1071972630028616 0.08356119146184023
0.06890526251097069 -0.10618559749937495 0.0832443142364145
0.06918043118784015 -0.10556264656478925 0.08321704295788382
0.06927704471436104 -0.10483788430933186 0.08301638819401176
0.06956710455603572 -0.10547034134023632 0.08371422036102721
0.06937867911025132 -0.10411592151880193 0.08283503782065274
0.06977143604404798 -0.10447543781841372 0.08354715804490587
0.07005730077958813 -0.10352378912031447 0.08361700462514161
0.07026568076859784 -0.10259120014711379 0.08361565842237328
0.07042409259296305 -0.10163797326504657 0.0836186514686656
0.07056720345114917 -0.10068821927568332 0.0836232288011537
0.07068129986364396 -0.09973702627015983 0.08362397975516277
0.07079243541895837 -0.09878371283152029 0.08360392621348321
0.07087751014714279 -0.09779599983926898 0.08355624191873953
0.07097048975830755 -0.09678253251962388 0.08354428008933813
0.07106606174378381 -0.09576452744317028 0.08354092208999706
0.07112649499056306 -0.09472590069634898 0.08351525787376099
0.0711249811894256 -0.09370744448173626 0.08346822526289907
0.07113360270511038 -0.09277674828673892 0.08345253997514203
0.07122962132724112 -0.0919348610503824 0.08351973275908486
0.0712245814482557 -0.09122503948025551 0.08343280822936328
0.07103881463177286 -0.0906297379008706 0.08310754454219914
0.07151972315864878 -0.09091602130178496 0.08375331373938079
0.0716731120518673 -0.08998226629446421 0.08373570590846693
0.07187223060487745 -0.0890201293248651 0.08376107100977263
0.07180319569323937 -0.08814034674951925 0.08348876080674252
0.07156323379051983 -0.08752356560798831 0.08309065761238608
0.07200543809601573 -0.08767852490026475 0.08364804112387433
0.07218296692972472 -0.08693348047239956 0.08374359748860487
0.07235592408506672 -0.08598461708003469 0.08381819435993748
0.07229316387529523 -0.08510841934458568 0.08351250030280495
0.07202113302223546 -0.08450691017550645 0.08302069753923914
0.07243109525706909 -0.08455929057387546 0.08360922770351796
0.07259046694003228 -0.08383403642303244 0.08369729598488444
0.07277478113706307 -0.0831208677941099 0.08381326065359404
0.0724755127652918 -0.08231079324088293 0.08328495982836658
0.07286205431308714 -0.0817383631350811 0.08374550437542091
0.07303617420195628 -0.08089512062658395 0.08386763587502849
0.07277874125682858 -0.08004582424355869 0.08341932918856303
0.07320599878964644 -0.07956059399772039 0.08386554604515672
0.0729348620696808 -0.07863075940439053 0.08336030358451894
0.07323815983183217 -0.07766317397062857 0.08358679387504578
0.0733800953810927 -0.07671053069774302 0.08361055053411276
0.07325405970981246 -0.07579338433927187 0.08326293175623761
0.07305521163106818 -0.07528487155886855 0.082892557107196
0.07338326173733145 -0.07529546342050315 0.08341395473372515
0.07360551765522921 -0.07469713890806956 0.0836887300054867
0.07386506055110366 -0.07364182939842837 0.08382230671187244
0.0737388828940587 -0.07281930069917446 0.08349812836230286
0.07364571261755382 -0.07254998531135055 0.08330800353126282
0.07395208273972949 -0.07245238495259114 0.0837477783913738
0.07422927667089445 -0.07175944368096185 0.08408627228404889
0.0742916762757801 -0.07094162766873612 0.08414062508380585
0.06452599376720167 -0.11750665296505654 0.08454369756871866
0.06489781763792235 -0.11693774655838807 0.0847957723821377
0.0653987268084392 -0.11603792303627597 0.08484810945756499
0.06592465799857396 -0.11504119916469158 0.08484627919156756
0.06639044069196744 -0.11403992719560485 0.08482890079613825
0.06677941873846847 -0.1130412340252811 0.08480559388613008
0.06712983029636295 -0.11204487718521078 0.08477830258872379
0.06745593606112373 -0.11106555846092543 0.08474571255179936
0.0678047573674509 -0.11010748005370255 0.0847037300533094
0.06820963630385117 -0.1091842951374358 0.08462283990855925
0.06872081543484872 -0.10826617325136739 0.08454097848110098
0.06902268269169909 -0.10751843239009161 0.08435171874981466
0.06915756856555956 -0.1067989699690528 0.08400297623300058
0.06936586151518465 -0.10737482439753908 0.08480108656572963
0.06931201684911664 -0.1060904195501224 0.0837053301856201
0.0696430013977072 -0.1064269376812008 0.08448621925256895
0.07000012781499937 -0.10544560921543807 0.0844619166313614
0.0702770070486214 -0.10447545971916651 0.08441064422571906
0.07052058896772431 -0.10351222467566802 0.08440207832438551
0.07071954048108642 -0.102553374681501 0.08439909510013087
0.0708715638770522 -0.10159770413937959 0.08440426145250697
0.0710094771689874 -0.10064762997675776 0.08441958258940598
0.07113150971561906 -0.09970213971615875 0.08442354165573596
0.07125775747764929 -0.09875289436026194 0.08442329230676042
0.07139997719391598 -0.09779661492453862 0.08441189869689232
0.07154221386141542 -0.09682336933084287 0.08442340737177596
0.07170675791978963 -0.09579918657184283 0.08448293642337515
0.0716398643683168 -0.09464928395243981 0.08428164078768942
0.07161568589991128 -0.09367573067210762 0.08417641768633596
0.07163993725707608 -0.09283981325339412 0.08410977406926848
0.07169867316835808 -0.0922539728493675 0.08413701114874601
0.07152940842614873 -0.09166904400340554 0.08389889895159654
0.07205135742081513 -0.09200836275750422 0.08452177018404856
0.07218052976202097 -0.09106060699446711 0.08453311096761516
0.07233050245692843 -0.09017186275548572 0.08455732881200945
0.07249117311406188 -0.08944878060529654 0.08464938904161642
0.07225050435855336 -0.08856862458065372 0.08415339508285101
0.07262353544061988 -0.08813686571313734 0.08457769469831099
0.07281205487542569 -0.08719716075764686 0.08468396026973497
0.07300784656486864 -0.08639877813492472 0.08483420568316223
0.07269494070664306 -0.08542290001919249 0.08421978889856525
0.07295662910581302 -0.0847853151494917 0.08445439478128032
0.07324597866053624 -0.08398805546229127 0.08466865945244044
0.07318159838075138 -0.08312984898940755 0.08441136105699092
0.07294131735179105 -0.08257420813151592 0.08394588249574834
0.07335583441474437 -0.08256044678249327 0.08452695204960305
0.07358879557658997 -0.08175528136112113 0.0846460722925922
0.07349101329951285 -0.08092821345248787 0.08443343229951761
0.07319539557728721 -0.08035911207303527 0.0840222666855251
0.07368411083108362 -0.08042038009457847 0.08460421828211258
0.07395868834271051 -0.0797515950639485 0.08477620042481009
0.07355282889897975 -0.07873654540786627 0.08410187726383477
0.07383950973013795 -0.07795872800938114 0.08436053913479118
0.07413165137252999 -0.07724845159038904 0.08464242067061187
0.07372666031968247 -0.07615751048279464 0.08397092917070174
0.07395704044108917 -0.07550121399161899 0.0842318271076093
0.07420000157690158 -0.07474662242963698 0.0844500945401176
0.07440612388260294 -0.07401915708095999 0.08459136427996242
0.07412682741684681 -0.07313233740964063 0.08407741847092981
0.07445889492229973 -0.07263715460145251 0.0845107496925251
0.07461739267482931 -0.07161985270956538 0.0846451855044122
0.07447288794263895 -0.0707445275939464 0.08439106941965942
0.07435019441395091 -0.07048211077450477 0.08420267002735063
0.0746419279902758 -0.070535822092117 0.08461726422606956
0.06478061950053204 -0.11747304193601019 0.08556440809799733
0.06513572600279358 -0.11695532346677794 0.08580961370860392
0.06564696433664641 -0.11606068249407507 0.08584687703654438
0.06617504887244777 -0.11505199562888702 0.08582866336654253
0.06664168738544296 -0.1140371515281952 0.08579753845046037
0.06703800116405433 -0.11303304369461936 0.08576919138441662
0.06740623774007194 -0.1120551725593686 0.08574012739504908
0.06778368512484197 -0.11110294313136326 0.08570760251864545
0.06818486143890716 -0.11017843739300963 0.08565204196678546
0.06870767696314621 -0.10926596592370043 0.08553549581387568
0.06903227401743832 -0.10852794437230162 0.08527030377408668
0.06913443050504364 -0.10797216571175405 0.08490977602174372
0.06937177183181101 -0.10820789878497501 0.08559017074282142
0.06973808800334441 -0.10735991487692795 0.08549588242357968
0.0701071795963265 -0.1064354533397946 0.08537029875434243
0.07043374766830764 -0.10546481198190441 0.08530430717966578
0.07071788486368169 -0.10448840346857032 0.08526107693250427
0.07092494313913245 -0.103512997528507 0.08524113183818513
0.07110151450188484 -0.10254843844396748 0.08523397193249713
0.07127125872509626 -0.10159879414122373 0.08523532066490244
0.07140935303311262 -0.10065071029908422 0.08525136108371814
0.0715572904959872 -0.09971462826214653 0.08526602960308036
0.07172734646532702 -0.09877632732370989 0.08528745572241218
0.07191996343324585 -0.09784312601130918 0.08530252022702454
0.07212457513748824 -0.09692324208656151 0.08534107909832697
0.0722124820220831 -0.09620224949653788 0.0852743720658929
0.0721618186169454 -0.09544294804036668 0.08506819703067774
0.07254633734159743 -0.09611320802018487 0.08575035835307206
0.07212400886029777 -0.09450678067796578 0.08492424433480447
0.07261623403707897 -0.09531000593712212 0.085677230453636
0.07210742120220807 -0.09356987537618389 0.08478433777566152
0.07266068550152821 -0.09436747164037014 0.08555190865723929
0.07203750044653086 -0.09278828435025503 0.08458449890468682
0.07261893803810802 -0.09320834341622829 0.0853359889755372
0.07275101615790493 -0.0921333903887479 0.08532567973662918
0.0728271054644276 -0.09116645698127672 0.08526535337186335
0.07292096090869171 -0.09031493933536652 0.08528824589789283
0.07287851791993322 -0.08960640249584202 0.08517842002906731
0.07267755571572468 -0.08900013233882417 0.08481010938184377
0.07317803801324686 -0.0892711117525066 0.08546008678173492
0.07330225530459507 -0.08832744903599846 0.08550463096622475
0.07343152059780826 -0.08743569032505144 0.0855937458721884
0.07354751446917454 -0.0866564933377148 0.08566595008976988
0.07323173613356364 -0.08574864751028471 0.08506123067888215
0.07360262607406474 -0.0852272573523227 0.0855058589118343
0.07392207836072871 -0.08442268562403375 0.0857591469931027
0.0736660161364982 -0.08343394471046099 0.0851133072376059
0.07397092675212245 -0.08278557272428076 0.08535296304746881
0.07429899084513417 -0.08216785864300909 0.08566517605254102
0.07404737253650924 -0.08126898981168665 0.08511812207446355
0.0743577712492778 -0.08069127416700449 0.08541826452134242
0.07467459952195965 -0.08006325245242196 0.08570244684991514
0.07428753879661375 -0.07905965009202894 0.08504239553333852
0.07454890408552736 -0.07834744905297442 0.08534003030903993
0.07488942412529574 -0.07766706001313757 0.08560906033033264
0.07443493951372818 -0.07656972669915381 0.08491871485727488
0.07472501705287099 -0.07585640737828572 0.08517362824682814
0.07498417141260591 -0.07503289236220471 0.08541328182027412
0.07483427719944441 -0.07413295086208811 0.08519230500553103
0.07455457634817945 -0.07349970660411272 0.08473018971770295
0.07498439233383751 -0.07358677211950809 0.08530189918480066
0.07515274448251603 -0.07282777316235313 0.08539026504764465
0.07529690662988016 -0.0720658998339204 0.08560177082649255
0.07490767949342532 -0.07108051058266879 0.08501521779297089
0.07515506983613467 -0.07082524583221994 0.08540247116041388
0.06501457521156614 -0.11749683496341454 0.08659651841007872
0.06534019190290324 -0.11699143856884818 0.08683929810465962
0.06587606645008898 -0.1160992264688149 0.08686130526039733
0.06638695881582421 -0.11509377619120853 0.08682603152271506
0.06686501719241025 -0.1140713501717309 0.08678425550987758
0.06726529512361801 -0.11307829306685781 0.08674864610586464
0.06765736860509652 -0.11211881390988755 0.08671887511208157
0.06809210192967746 -0.11119760622521167 0.08668215951916959
0.06862776314864803 -0.11027488637041391 0.0866432311002154
0.06900557865185515 -0.10946929930993882 0.08628162407185966
0.06911929639780033 -0.1089063479624744 0.08581258325043058
0.06934026602998845 -0.10901365769170732 0.08642567342495723
0.06971415243157603 -0.10829103168861474 0.08643648423687737
0.0701252723332383 -0.10741526331207356 0.08634351009684973
0.07051360419252413 -0.10647143749873293 0.0862509721478869
0.07082471016319652 -0.10549503503734187 0.0861870597516974
0.07106837202385184 -0.1045113485745308 0.08614660718042878
0.07127345874553162 -0.1035413516382893 0.08611200308473833
0.07146603592691689 -0.10258316733192703 0.08609427240276094
0.07161782648550911 -0.10162855437921202 0.08610523145950555
0.07176135758531396 -0.1006866688386963 0.08612581953505964
0.07195147780943323 -0.0997543665440531 0.0861647186460341
0.07217195273611533 -0.09881862408956421 0.08620402739177237
0.07241763477282394 -0.09788730435196467 0.0861964534867555
0.07249769745813157 -0.09717952733346655 0.08602373495503912
0.0724452194065003 -0.0966684402875831 0.08574424580449094
0.07278741607064748 -0.09687292609599851 0.08635617691855875
0.07300226500176164 -0.09611050984978094 0.08639216860092938
0.07316535828417695 -0.09526297603272085 0.08635739738464124
0.07329252018312828 -0.09429747107055786 0.08628264317653149
0.07343691005428171 -0.0932353983466549 0.08625000039809111
0.07338195234809113 -0.09209932188379559 0.08601278608725654
0.07337065702991458 -0.09120899738565201 0.08587716628097654
0.07339540348403138 -0.09060485489335458 0.0858474805976326
0.07320949237563006 -0.09002732063013455 0.0855929603477451
0.0737097558014575 -0.09036260313293187 0.08622999928910122
0.07381325190009544 -0.08943352607279384 0.08632474227370567
0.07390730501809482 -0.08849723755141085 0.08638978795003814
0.07400072917889097 -0.08755694752081469 0.0864761117464842
0.07388794925446378 -0.08670147965974959 0.08624797644369897
0.07365736510194365 -0.08609267786788459 0.0857679638822745
0.07403017401727355 -0.08617806494593266 0.0863736756312976
0.07423027528915326 -0.0854587063554169 0.08650401803066902
0.07448875599795834 -0.08469369451871883 0.0866949807409407
0.07424456698041226 -0.08372967584394096 0.08601012172089557
0.07453980399619185 -0.08307674127734002 0.08627596510840818
0.07484754911872855 -0.0824625100738033 0.08659636490817547
0.07464527646504074 -0.08158742571584517 0.08601197295469963
0.07495252587747427 -0.08096972117108958 0.0863100700837035
0.0752544516590345 -0.08033607745672484 0.08661795831097908
0.07497702685733813 -0.07939976321710113 0.08599981479220788
0.0752896860423754 -0.07871689713836094 0.08626898514413964
0.07564059341101666 -0.07806078744197052 0.08655456321949949
0.07523719323390911 -0.07699450075975703 0.08587967636073937
0.07550598371755755 -0.07627355172759841 0.08615154582636064
0.07581275921266185 -0.07560756653611747 0.08642080179080339
0.07538572815620002 -0.07454985333465698 0.0858643661628356
0.07565265812811219 -0.07393793566908288 0.08611431358057842
0.07585521158781926 -0.07320377241468799 0.08633012885205248
0.07587499823918187 -0.07238479445658305 0.08644808245251465
0.07547569113730439 -0.07146280786831405 0.08588871033360178
0.0758386464143292 -0.0710610536635894 0.0864613944715785
0.07603744838219591 -0.07008075093374289 0.08685973422535724
0.07594072810953334 -0.06949581144179802 0.08672063070030082
0.06521636120112768 -0.11754993966943367 0.0876296489458734
0.06553447383864801 -0.11706456114065382 0.08785942972414082
0.06608161289238983 -0.11617590007726385 0.08786807730453261
0.06658633062084125 -0.11516048248127263 0.08782621675885832
0.06704636035745125 -0.11413960942784186 0.08778173727406861
0.06746683661772744 -0.11316305434965507 0.08773938982509409
0.06792993262604217 -0.11223409910684996 0.08769583774335875
0.06842349869637519 -0.1113466684621863 0.08765804270778477
0.06888832983910752 -0.1106148507172608 0.0876696121045691
0.06911759678431072 -0.10982377368314046 0.08703235098267764
0.06955938557031123 -0.10934884452956481 0.087403915744263
0.07006404835754855 -0.10841021589362074 0.08733157440659434
0.07049035883792865 -0.1074771031906879 0.08724041941489842
0.07085735862421655 -0.10651309097224677 0.08716090289065496
0.07113379494146571 -0.10553147395064331 0.08710055096743886
0.0713713092458807 -0.10455347959157127 0.0870501391730321
0.07158354182721671 -0.10358031936078324 0.0870202501442333
0.07176208297423654 -0.10261347401483162 0.08701650955942603
0.07191771568079353 -0.10166787877103474 0.08702150290716472
0.07210590090593612 -0.10073653608522656 0.08704930636812722
0.07233275215753382 -0.09981225306294976 0.08710256239381373
0.07264428844910788 -0.0988485725780004 0.0871836760489295
0.07277559629159372 -0.09802725129981693 0.08688807702746637
0.07270575770854766 -0.09751438384772342 0.086488648685266
0.07298923808085624 -0.09755194891120263 0.08702697010412225
0.07323164500609461 -0.09689019615442639 0.08710057343337602
0.07348878142566875 -0.09611889379653123 0.08714095148738814
0.07373475503083403 -0.09526671182585682 0.08713304826378038
0.07397661295072575 -0.09436341425711739 0.08711260197794858
0.07404717197394314 -0.09362955461831028 0.08698608002406046
0.07392842366804322 -0.09285782537919184 0.08675121030700414
0.07441325153638488 -0.0935288362451558 0.08741997065172763
0.07384987563920993 -0.09192397892633032 0.08656270589505759
0.0743773183430774 -0.0926725486840021 0.08729202334509713
0.07372671410755702 -0.09112808650309774 0.08631097466770171
0.0742735841259456 -0.09155806201077377 0.08706015938594817
0.07435971829847951 -0.0905397547781349 0.08711480577364225
0.0744254379497229 -0.08958208331034181 0.08716485864874329
0.07448930550236885 -0.08867950568605339 0.0872209542462514
0.07458102676190916 -0.08793961044062887 0.08731813877330426
0.07428452089906629 -0.08706058076952926 0.08687105115378754
0.07464160195603049 -0.08661597337094225 0.08728694228271985
0.07484540965679636 -0.08572698029254956 0.08742664986505118
0.07502952290806277 -0.0849340128625063 0.0875724472627408
0.07477022992796437 -0.08399638262888197 0.08690890719616799
0.07506925194439618 -0.08337656164371546 0.08721778578335636
0.07536864328328749 -0.08274564105728627 0.08751657806595566
0.0751733823511418 -0.08185386236738804 0.08690074518734703
0.07550712898995694 -0.08125205243117131 0.08722297756729565
0.07581664645261142 -0.08061026035786731 0.08751418639107239
0.07558230014292139 -0.07968990081080249 0.08690105378645568
0.07593296307489912 -0.07905384022159817 0.08719605654366025
0.07626751562890685 -0.07839322597694968 0.08747813494157007
0.07597181410004546 -0.07739102003478228 0.08683145851105567
0.0762879305456298 -0.07671090050299104 0.08708976791972485
0.07653731878127766 -0.07603410540603808 0.08727127756913101
0.07609505169726785 -0.07500931729230817 0.08669641860908354
0.07643415675405577 -0.07446951349405921 0.0871254244687698
0.07653391506384306 -0.07343901460228446 0.08726877510949843
0.07628414666600854 -0.07246495382436084 0.08702338430144675
0.07592443724287776 -0.07179576961052611 0.08657578970807807
0.07634528908076431 -0.07189618033066134 0.08717568325238956
0.07640627968401142 -0.07108798228625225 0.08735286605457092
0.0764078213516026 -0.07019114458394955 0.0874714071015443
0.0761274056564267 -0.0694405972033307 0.0871038391792279
0.07640060517993548 -0.0688780336681912 0.08770882331569915
0.0765664140204234 -0.06800901092397958 0.08803718541267623
0.06538673780754882 -0.11763535156323414 0.08865109065339234
0.06573460622124339 -0.11715945610298749 0.08886940776328912
0.0662787155094704 -0.11625199473130794 0.0888748414540044
0.06675546189776904 -0.11523547798079246 0.08883125981462062
0.06722564657921073 -0.1142272129008173 0.08878054068171158
0.06769052940292852 -0.11326520146321989 0.08873349572057587
0.06822000660835315 -0.11232690509068964 0.08868639005034158
0.06874039634738516 -0.11140702987813166 0.08859737593141156
0.06908468079501272 -0.11068296604249538 0.08828131480985284
0.06922276214642721 -0.11015025156652354 0.08778265620387048
0.06942642848968578 -0.11027478731435422 0.08848402397678319
0.06993283462098121 -0.10938967050663229 0.0883420703690063
0.07040655535787725 -0.10847043820143018 0.08825303228890993
0.07079655527001288 -0.10752316149247124 0.08816909710156165
0.07113664558642338 -0.10655492772625903 0.08808953549523484
0.07139272225347802 -0.10556787606180006 0.08803425728547082
0.07163257278253267 -0.1045836506518247 0.08799333058496725
0.07182636473807325 -0.10360887604630019 0.08797041915673663
0.07199945471295782 -0.10264649564210931 0.08796663965537782
0.07220264078064292 -0.1017102477995883 0.08797518665094725
0.07241743716899436 -0.10079195611525388 0.08801665045785982
0.07268461115830444 -0.09991894478668013 0.08808559552514525
0.07299546615979789 -0.09914312920297358 0.0882567223920269
0.07301931650817688 -0.09828573371723917 0.08760106102931921
0.07334245704783385 -0.09766195510382948 0.08778107616924688
0.07366903807570906 -0.09695066957705073 0.08789297861464476
0.07400626221949935 -0.09616179692189442 0.08796161509758388
0.07432749908713135 -0.09530324380184285 0.08795081327056259
0.07444695610425982 -0.09462544434725953 0.08775445827250852
0.07436319705570085 -0.09410833350854507 0.08745645652481979
0.0747057848943396 -0.09430606966379101 0.0880607138730009
0.07482079956538201 -0.09350917726683122 0.08804845247032439
0.07486352899530578 -0.09260795374198384 0.08798329002346418
0.0748992483711408 -0.09163276795219294 0.08797074511862359
0.0749627992233213 -0.09065488573927907 0.0879888079681073
0.07498966553581525 -0.08969955777813145 0.08797790693152889
0.07500439925440094 -0.0888139424358093 0.08801013014661016
0.07494590066788417 -0.08808831018059751 0.08787943959297934
0.0747288044053285 -0.08747531408661484 0.08749624579738913
0.07516294900622643 -0.08772284218742754 0.08817721121598786
0.07524933162008371 -0.08678060496206856 0.08820691890879429
0.07536390575657348 -0.08589602156542403 0.08830666055454733
0.07547128468371593 -0.08510492646324683 0.08835849293209287
0.07523652347954515 -0.08427007018265723 0.08779580042352673
0.07558792530528083 -0.08374529984859012 0.08824251911558727
0.07584187061900408 -0.08295070158528507 0.0883538971687318
0.07566232426468901 -0.08213042351679663 0.08778837239684381
0.07606512893692165 -0.08161002323027111 0.08823452559956449
0.0763189317337033 -0.08081131309132832 0.088338420846553
0.07613068206486757 -0.07998413937791295 0.0877781069260339
0.07654654996967634 -0.07945254309893064 0.08821559958297508
0.07681954259619567 -0.07863185302301631 0.088299091906696
0.0765959577859095 -0.07772573932898068 0.08770982634659025
0.0770405736741173 -0.07712419085550541 0.08814056360076328
