# .PCD v.7 - Point Cloud Data file format
VERSION .7
FIELDS x y z
SIZE 4 4 4
TYPE f f f
COUNT 1 1 1
WIDTH 790
HEIGHT 1
VIEWPOINT 0 0 0 1 0 0 0
POINTS 790
DATA ascii
0.0866651935309946 -0.07161428834386747 0.10411791314597016
0.08644717044337699 -0.07075731900368787 0.10390614824752206
0.08683325411147677 -0.07093140187721608 0.10452487460325548
0.08694933263325047 -0.07019541254354021 0.10484090692759437
0.08680939478379086 -0.0691727835657416 0.10484025189557804
0.08686521506680543 -0.06823623329173623 0.10509149363201094
0.08678822756647377 -0.06729587008042263 0.10515350826372927
0.08688923903174137 -0.06641454728197037 0.10538015024674785
0.08684744869123581 -0.06553682528648605 0.10540444546559975
0.08699632675184017 -0.06489982263582866 0.10563751403948933
0.07102593665360041 -0.11139840517627737 0.1061527850134976
0.0716329201642784 -0.11058124248399977 0.10621366578041945
0.07152213696483804 -0.11091679059362176 0.10687482384677108
0.07234151731942766 -0.10967032513633604 0.10604144278612519
0.071966192849887 -0.11030250534683035 0.1069368322344674
0.07302985226165319 -0.10874030863488678 0.1057705971265302
0.07267879739522275 -0.10938233944844133 0.10668949997070161
0.07355756288434515 -0.10802284041389905 0.1054706104857689
0.07347004593870603 -0.10830013580981324 0.10626554681184008
0.07425692915580226 -0.10728132456675216 0.10603989280260805
0.07489623059030356 -0.1062787996325727 0.10574188634362709
0.075494558409766 -0.10529619089803101 0.10547899136066342
0.07603789370139938 -0.10441311824595759 0.10537262972427087
0.07644500746466548 -0.10374841192670764 0.10516134981165648
0.07667199229433734 -0.10323825865099914 0.10478948854424135
0.07679621553303291 -0.1034776332047861 0.10546777231205356
0.07741329202441234 -0.1026619354220242 0.10523480564071001
0.07805078248020328 -0.10184020451662906 0.10498187476714635
0.07851711073396919 -0.10120483769430141 0.10469321583544812
0.07878971259592339 -0.10069080812010481 0.10425260677213236
0.07894267516563179 -0.10093748577098294 0.10497420301083762
0.07963749221727268 -0.1001522667426132 0.10480679136507731
0.08014343355014412 -0.09951395752116086 0.10451271658923406
0.08053997629077427 -0.09888278866948001 0.10408188805361854
0.08047698610832117 -0.0993787852798696 0.10487835189496708
0.08090922488469351 -0.09826203599177101 0.10365320189017935
0.08106946631416062 -0.09850930576105812 0.10443898222738521
0.08160638074799448 -0.0975875384232638 0.10404299681751142
0.08193677459030024 -0.09703376115503982 0.10392642347781353
0.08210382058049201 -0.09655159681615509 0.10361728716250312
0.082241861222179 -0.09677561346519732 0.10426418232877642
0.08268809512983985 -0.09591392978004847 0.10412338799553005
0.08311970443132571 -0.09502488923168441 0.10397223887062715
0.08343453387672874 -0.09413907611622958 0.10368610881010332
0.08366546734263532 -0.09357069848937101 0.10364688872490814
0.08380462470141632 -0.09292823013338572 0.10340620420349836
0.08390903380657604 -0.09344569345559471 0.10407875779300836
0.08393050456341827 -0.09227868403836688 0.10317332168997398
0.08414784246786827 -0.09254217247438963 0.10381079384266576
0.08447451379608058 -0.09161725466272377 0.10374327322301555
0.08467715905972653 -0.0907364614476836 0.10346949723363903
0.0848645262983822 -0.09020782102025446 0.10341249079960331
0.08490659436826598 -0.08974206102385808 0.10316480263402969
0.08513364525013299 -0.08994744990485114 0.10374588731972985
0.08537082732626573 -0.08911009303987295 0.10367591008089047
0.08557771203145911 -0.08825807594640726 0.10362413216844317
0.08567569043738368 -0.08758969966948217 0.10354503280748983
0.08565699920079285 -0.0869150656281908 0.1032902008815932
0.08590102917490758 -0.08742536732210258 0.10393593421499438
0.0856422929689858 -0.08621414008331611 0.10302063388066054
0.08592129006590833 -0.08649323637014066 0.10368223654093797
0.08604950846343845 -0.08558462909428888 0.1037049493187594
0.08610863192449685 -0.08487973664454247 0.10364718486850734
0.086057766201452 -0.08416465022376096 0.10340747346979685
0.08632766653916277 -0.08472207801655568 0.10404276135957484
0.08598755582917708 -0.08345196964306931 0.10317751667356424
0.08630038798377318 -0.08375366241124438 0.10382854222347873
0.08641244477356601 -0.08279553023839258 0.10385669295523592
0.08640619769713472 -0.08204824533950732 0.10372744595969022
0.08628211376712276 -0.08148301679361983 0.10344678937981217
0.08661834667870658 -0.08171083850482035 0.10404290780249668
0.08670200643674295 -0.08081107353340379 0.10406685970710713
0.0866813185520981 -0.08005920781166033 0.10393419513144485
0.08653534908774325 -0.07946957660206513 0.10365450906942508
0.08690577207520385 -0.079709382628117 0.10427179812698083
0.08698713388275969 -0.07878447225675161 0.10433507106999688
0.08698342918474776 -0.07803016815221613 0.10420923320017889
0.08684434079621042 -0.07739196914739811 0.10389092351077184
0.08721551652982747 -0.07764537708250517 0.10454912890533
0.08735521775542797 -0.07685510771635314 0.10475774721821728
0.08718402450936448 -0.07580424623896512 0.10446628166886118
0.08714582870018563 -0.0748250918537057 0.10445435547623669
0.08712237939614532 -0.0742393660477096 0.10453740878434901
0.08699755899751706 -0.07367183272060032 0.1043572047083873
0.08736121588351814 -0.0740074486519818 0.10497862059718649
0.08748095930388698 -0.07324311938434985 0.10528068959496903
0.08728815718982458 -0.07212382121995552 0.105151686814751
0.08724263115106337 -0.07098074058643047 0.10524639639635587
0.08720461297237332 -0.07030376319613363 0.10537070089483498
0.08708461425042079 -0.06985874127254814 0.10521068971833425
0.08738846581519331 -0.06986594564850267 0.10583580372442586
0.08724214426099228 -0.06874741134356671 0.10565745103609017
0.08708550716342524 -0.06806701855368838 0.10549795624737199
0.08743498280151671 -0.06795777005343877 0.1061088741250166
0.087271616691909 -0.06688306802083974 0.10598077268644504
0.08712386225848438 -0.06622543995107986 0.10580366537306825
0.08746028511982822 -0.06607632514744638 0.10644662194419573
0.08735791628939317 -0.06513796571230404 0.10627739528178397
0.08733186469371576 -0.06476350045748663 0.1061831618844272
0.08765325528980906 -0.06490092419124986 0.10677974442198472
0.07182289651979097 -0.11076641540809114 0.1077855357569891
0.07229612350768896 -0.11005860698765849 0.10764432456181934
0.07302479971214036 -0.10908806163441534 0.1073434357276056
0.0738322593788254 -0.10806716150583871 0.10699986493353984
0.07455910682682614 -0.10707180686379009 0.10669594460516228
0.07521868302336518 -0.10612284208466868 0.1064016895524003
0.07575208751369511 -0.10524610352192172 0.10616109481670587
0.07610815729505577 -0.104653080212965 0.10607295134777768
0.07636473086022236 -0.10413397984269247 0.10570958889479207
0.07647027349275728 -0.10441010860703821 0.10641178368364924
0.07718214383121393 -0.10352940866255281 0.1062703334920865
0.0777783648585919 -0.10263976030157515 0.10585472512106202
0.07821169750027213 -0.10208043078919918 0.10567007526999418
0.07845802301380554 -0.1015733051087308 0.10526470934889763
0.07862252633611698 -0.10185153816915153 0.10598034149870383
0.07932370251389556 -0.10107398068871476 0.10584504658967676
0.07979588723343338 -0.10040870530318556 0.10550696476730004
0.08005584171704708 -0.09991537057118254 0.10507899836382768
0.08021861806673776 -0.1000979997507409 0.1056939939742307
0.08080189865859626 -0.09936634625982295 0.10548965449050443
0.08122668832675503 -0.09876623812974637 0.10522796134568632
0.08157097042072627 -0.09811579599693603 0.1048166570550123
0.08150968497017569 -0.09862157483996317 0.10561635612081126
0.08188144303961387 -0.09744414124395524 0.10444224486709815
0.08200748680803276 -0.09770466804589881 0.10520903770137628
0.08257656306758301 -0.09674775858842637 0.10509077657788961
0.08298765642031322 -0.09582691532590176 0.10474518120997235
0.08328479738807248 -0.09526994711199802 0.10465890086388104
0.08348964569153187 -0.09463959763943734 0.104373020979048
0.08351955727588796 -0.09514003134251738 0.10509292652185075
0.08368425718923281 -0.09401656521610523 0.10410865072190899
0.08384351867200354 -0.09425337077188246 0.10478605359691735
0.08424055637428055 -0.09335025918960907 0.1047095924363302
0.08449106799250194 -0.09244080885041647 0.10443076150849433
0.08470656715079528 -0.09186010624287615 0.10439822306551927
0.08483026106173558 -0.0912181300892913 0.1041370312393846
0.08496919436451604 -0.09172275425119786 0.10481746220456149
0.08494312450305441 -0.09058563902323306 0.1038559706322079
0.08519157991377867 -0.09081399543025069 0.1045207637667854
0.08552161562497868 -0.08989848335708846 0.10448483456505939
0.08569905179333341 -0.08903194929335537 0.10426336634380949
0.08583595085728456 -0.08846994916870847 0.10421765425452899
0.085823810781966 -0.08798853457912001 0.10397695801507088
0.08606281275659991 -0.08818407078536417 0.10453723665388304
0.08622861647818848 -0.0873174378783304 0.10451908130823996
0.08625757513941322 -0.08641218232743245 0.10430282057777555
0.0863263807704203 -0.08583183721310964 0.10428741737666199
0.08627563460181668 -0.0853217670290077 0.10407452167696485
0.08654380838352119 -0.085538266998704 0.10463867735832891
0.08662755681129192 -0.08463593659746575 0.10461549437769053
0.08670595317542172 -0.08373292899527496 0.10458737549262265
0.0867208418320582 -0.08301752051946806 0.10447275446730325
0.08662632945662625 -0.08244952432854438 0.10417457282621231
0.08693701582794032 -0.08267621855994464 0.10478429485731161
0.08705066285429398 -0.08177621102316578 0.10481288797172293
0.0870370907847342 -0.08104869655981282 0.10468392117729548
0.08692581862939748 -0.0804760453369564 0.10438577434715407
0.08728109847208372 -0.08070023935241458 0.10501779344377961
0.08740799203098377 -0.07976808996552022 0.10508684435175424
0.08733746240547159 -0.078973526934709 0.1049335021405313
0.08719185638450153 -0.07840740669433595 0.10465039513306552
0.08756657573273645 -0.0785853797624031 0.10522854963505018
0.08771900722327217 -0.07778071376541497 0.10536918709298111
0.08774557554495839 -0.07699604367258568 0.10540072279144307
0.0874593128829437 -0.07647518966673737 0.10496760826078341
0.0876172685467763 -0.07623099388260417 0.10521684352972296
0.08751869044709408 -0.07546019965125585 0.105031360465914
0.08739329720306173 -0.07473212511790851 0.10491384885970918
0.087812924505819 -0.0751149453410105 0.10558349533518872
0.08788583911587039 -0.0741571037904951 0.10582272877421293
0.08780220518437369 -0.07337818586477075 0.10582083666521623
0.08761319360065958 -0.07289733494544769 0.10561171737255436
0.08794446916445235 -0.07285101398570042 0.10621950427039831
0.08762449590796888 -0.071594428623039 0.10596545763755318
0.08743741973261807 -0.07073016519063989 0.10575844027457076
0.08775331798761454 -0.07089586706967431 0.10643634743353872
0.08787498169116191 -0.0701602328254992 0.10681839258533678
0.08776095490059736 -0.0690979601212988 0.10666588734609528
0.08789421239177067 -0.0682286858543859 0.10687728463688326
0.08786962938952911 -0.06727280152917947 0.1069899606697035
0.08789668700473681 -0.06629105731297612 0.10730623596074708
0.08788983869496442 -0.06550219274366997 0.10733583797054128
0.08799725968811165 -0.0650445480063015 0.10742468897819873
0.07180487644975604 -0.11104366412136508 0.10858136537076032
0.07206479574054357 -0.1106245295714033 0.10850747755206973
0.07202901890795228 -0.11090232426968813 0.10913107969656374
0.07264141552917762 -0.10976460026825233 0.10830798312092228
0.0724378844458262 -0.11033494592530059 0.10914244902700822
0.07341833555649456 -0.10879992257792012 0.10798926939899597
0.07304332860768413 -0.10945660518571912 0.10894100054242808
0.07421772790992807 -0.10780692761994837 0.1076385398587022
0.07382718447621797 -0.10851104915867425 0.10860604678332494
0.07490713388713416 -0.10685834683062832 0.10732400291770436
0.07458556268306442 -0.10755683975128849 0.10825340856956513
0.07556606182612571 -0.10591947102066826 0.10699070387684743
0.0753032027161999 -0.10661154626962543 0.10790301194733935
0.07600588563108147 -0.10513674149787258 0.10663264089180072
0.0760816340422834 -0.10547830021665569 0.10749188750534346
0.07679289379542481 -0.10446846063481278 0.1071532146335109
0.07728853992508239 -0.10387485575063808 0.10705368984402175
0.07771146390591903 -0.10319247038131148 0.10667479387485017
0.07760070765792888 -0.10379074825433675 0.10749065785911807
0.07812274940286643 -0.10252194507830222 0.10625981083089792
0.07828666271264155 -0.10285272966844006 0.10707168636807453
0.07899043025328531 -0.10197335979259509 0.10672856632756066
0.07953675156152572 -0.10144990641221317 0.10679817000061202
0.07978529282513552 -0.10076086339928797 0.10608316272656054
0.08008765062972176 -0.10073927136030901 0.10653688962274681
0.08055811339715147 -0.10006990803071465 0.10625001334670996
0.08090834112252886 -0.09958652249606652 0.1061296088152605
0.08113566927866955 -0.09915340697000408 0.1057870755666092
0.08124875668740295 -0.09937202613261552 0.1064484274969985
0.08181841316495937 -0.09854459751724554 0.10623035172522949
0.08233611671021732 -0.09768199717362236 0.10604193037962138
0.08271398695303908 -0.09700487585901149 0.1058392600589915
0.08297478151047806 -0.09633360283777556 0.10548612306784781
0.08295714411174962 -0.09683458416546474 0.10624007590290811
0.08322912427130905 -0.09569737573947815 0.10516777858610028
0.08335038188217074 -0.0959374623914596 0.10586897175181342
0.08381850923354833 -0.09502771463653939 0.10573751655643655
0.08416886411865265 -0.09415405592307914 0.10542575578333666
0.08443684639540254 -0.09359854912595002 0.10537690878792434
0.08460655454892715 -0.09295563021109354 0.10511223337825215
0.08467965064342603 -0.09345466469534462 0.10580471678838196
0.08475029913097883 -0.09230231134377226 0.1048554342781918
0.08496334354471854 -0.09254301369099092 0.10551771362549534
0.08533504776508205 -0.09160770178856383 0.10544439210115404
0.08557059846476794 -0.09070231110005612 0.10517061001784132
0.08577547234770358 -0.09012546809175426 0.10513602795830555
0.08587841822204446 -0.08950180095466903 0.1048977223615943
0.08604252079933765 -0.08998295756945839 0.10553249231010761
0.08595530837727783 -0.08886044469493672 0.1046515916291375
0.08623203393830996 -0.08906485227973858 0.10530555370366604
0.08638147116379237 -0.08813201920562942 0.10511867099421511
0.08650745183443286 -0.08756088333002311 0.10512435409517037
0.08650765953384115 -0.08691816550827758 0.10492831330511378
0.08674823800412594 -0.08740252520738079 0.10554319285164607
0.08648932057176863 -0.08624652909539916 0.10470112291616773
0.0867829660360114 -0.08646758415043647 0.1053463279364705
0.08692518988499333 -0.08548179181018122 0.10538158573597206
0.08694535081034571 -0.0845415989013542 0.10519914790389011
0.08700994124950093 -0.08393374983618819 0.10516219379993025
0.08692288830665977 -0.0834002225990203 0.10490842461960513
0.08724259796489306 -0.08362120876803295 0.10550089004233167
0.08739451443252623 -0.08273681833535215 0.1055819540245727
0.08740914949285507 -0.08198555154210531 0.10542892054416715
0.08728153839513964 -0.08142895007240589 0.10513132908662601
0.08763206626213622 -0.0816033764250217 0.10572304460104881
0.08778986895015303 -0.08080210482214219 0.10583714053585185
0.08790230255024452 -0.08004384773780553 0.10590029292586373
0.08762825071755428 -0.079339892401194 0.10539142514871168
0.08795334034387664 -0.07928272298433015 0.1058516171826896
0.08800075074513732 -0.07860844657915447 0.10585662098235901
0.08815959435767177 -0.07811226111028567 0.10608022849297298
0.08793602705050955 -0.0775769437973915 0.10570718401538684
0.0881168073750875 -0.07740476215967214 0.10598045662464343
0.08801124928339626 -0.0766650989580985 0.10579750754085869
0.08785531060575748 -0.075950216637933 0.10558587827501158
0.08830833530014423 -0.07626713118026067 0.10629952981425866
0.08836013385224965 -0.07522183241647466 0.10649219003784392
0.0882827232782477 -0.074393303514084 0.10645035703750147
0.08808264788349408 -0.07375596153279446 0.10622440278694659
0.08847638291184155 -0.07400080258388744 0.10687499686784005
0.08855428061645702 -0.07313372043821938 0.10716267841363468
0.08818905999732714 -0.07197851209881803 0.1070044819428329
0.08811676327376139 -0.07098500219239322 0.10724189814371068
0.08826592420380279 -0.07033878207030508 0.10759254866597535
0.08798621139650162 -0.06974243042826185 0.10715656844036989
0.08816111121998418 -0.06943341328562483 0.10751077303380675
0.0881277510197578 -0.06864840120668496 0.10739024090408655
0.08810626131818908 -0.06805096858072468 0.10731040548596192
0.08840346719902069 -0.06800034274371282 0.10803976147878008
0.08824187298123333 -0.06676721320240202 0.10793799792384846
0.08808659819421708 -0.06607711192862324 0.10777140444633945
0.0884433904443725 -0.0660225190973237 0.10843863230044608
0.08835454448551981 -0.06537332785644712 0.10815914848892902
0.0724076333608752 -0.11062023631948002 0.1097651955468204
0.07285643948787136 -0.11003000527941433 0.1097776796373857
0.07350097142988443 -0.10914839994268251 0.10953917556727168
0.07427656053912414 -0.10821928079331168 0.10917816700784011
0.07498548612622523 -0.10730676155839122 0.1088288179582978
0.07567109638345963 -0.1064258998253204 0.10848434067492842
0.07618329389698585 -0.10577956946999928 0.10835222347148346
0.07662271283304674 -0.10507025958191683 0.1079986613171963
0.07647697505761782 -0.10566944141265978 0.10884395365495358
0.07710426154610416 -0.10438805642707526 0.10764011844002175
0.07721211643171162 -0.10469681849259349 0.10845062695262131
0.0779298000415583 -0.1037250641302556 0.10803099670568234
0.07840149646340167 -0.1031563596292593 0.10787386180382898
0.0788493057878981 -0.10257090244853082 0.10749828451430653
0.0787460516283451 -0.10308096310891916 0.1082794951575573
0.07921521919174453 -0.10205931380402607 0.10720492505994607
0.07938284615089075 -0.10224512717895985 0.10780907247634335
0.07995880394966834 -0.1013770082164451 0.10735206020292948
0.08047179559579044 -0.10063560385109592 0.10701397308629261
0.08034744563622571 -0.101259923292943 0.10787200816994684
0.08083555548334445 -0.09998761182379845 0.10665336013020699
0.08094685396643468 -0.1003085023813986 0.10742710083329926
0.08160790369653773 -0.09938621507260346 0.10725651350798189
0.0821208883330706 -0.09846904942780679 0.10685772699112668
0.08244490600638614 -0.09789002830608473 0.10671711604062602
0.08263938533314692 -0.09740649462795657 0.1063752732237851
0.08274047831905096 -0.09761136923901739 0.10702736730900501
0.08324617671723919 -0.09672202207590654 0.10687223242033807
0.08365820949673147 -0.09582841081964048 0.10650687671926173
0.08396549910114244 -0.09526098826771151 0.10642524931434712
0.08418603250532825 -0.09462782382277152 0.10613441770238005
0.08418699286485812 -0.0951160628453537 0.10686592160980288
0.08441227339630412 -0.0940171503606325 0.10585376925734727
0.08455097081122011 -0.09422961379216352 0.10654492022254217
0.08500018464707775 -0.09331108754970947 0.10645228115645937
0.08531255433330842 -0.09240605330187883 0.10615105245724898
0.08556504153864958 -0.09183585287640668 0.10609729469955763
0.08572268475335489 -0.09119867016595049 0.10584424131617548
0.08583849849215892 -0.09168661237189016 0.10650382940547087
0.08585504610272053 -0.09055673717043322 0.10559120500647194
0.08612528476957715 -0.09077428675641691 0.1062606275808371
0.08635239387972975 -0.08985875758165988 0.10602403448389004
0.08652582282682264 -0.08927413248966469 0.1059748221558805
0.08658544679654145 -0.08863879017351663 0.1057432337645353
0.0867969335708855 -0.08909956734444684 0.10638750231499955
0.08663185637765335 -0.08799086018177205 0.10553219849651317
0.0869006354240217 -0.08819733203323704 0.10615485953803223
0.08708267705860913 -0.08725631405589633 0.10617758554912371
0.08713009136893517 -0.08633147060131495 0.1059989481125549
0.08721606627745043 -0.08572717410875227 0.10601549607955299
0.08721467622573445 -0.08505122741566878 0.10582537738397063
0.08746823588928301 -0.08555863968549422 0.10643639343916736
0.08719623767496947 -0.08435503135144595 0.10560157476205889
0.08754400787426758 -0.08458945000154999 0.10628664897772463
0.08764358642741414 -0.08364875299564793 0.10619935104913558
0.08786831422918946 -0.0830532737611401 0.1064176543086345
0.08765341102816596 -0.08234022547923782 0.10590856751554013
0.0879451974415995 -0.08228748093465656 0.10638890685286442
0.08802472580223718 -0.08163824380093178 0.10637760023672531
0.08825820448562238 -0.08117374849747405 0.10659997186647382
0.08805853515266675 -0.08064271236893533 0.10620755028761006
0.08828578260463117 -0.08051437420782645 0.10651530838592627
0.08826826269257469 -0.07986044151263562 0.106411241306406
0.0883020137646725 -0.07917324291281451 0.10634922182739244
0.08863543414137216 -0.07974222566534066 0.10693245721551865
0.08827715310350144 -0.07868117247412648 0.10626740433960045
0.08862383058838105 -0.07881824184942407 0.10679706277240934
0.08848568595090546 -0.07787862602794866 0.10657184874913475
0.08836070442326958 -0.07714405930049244 0.10633877398048598
0.08882148816515384 -0.07741790622359279 0.10705885005425787
0.08890418401543382 -0.07632285159201241 0.10724869323399477
0.08876687222514221 -0.07541537287806453 0.10715583442989432
0.0885632510372661 -0.07480151223428735 0.10689457310340612
0.08893734221174801 -0.07495259863647698 0.10751319912243353
0.08899604774971735 -0.07407885889526909 0.10771975140698063
0.08896813787608379 -0.07321744232105404 0.10782880602709581
0.08861140069116902 -0.07265336719227335 0.10743201194219987
0.08870292785923332 -0.07234385056904172 0.1077678677343124
0.08845620914103622 -0.07155369689089178 0.10776191222682023
0.08837088254895269 -0.07100693366769788 0.10776877184012142
0.0887874160680148 -0.07110531157378723 0.10841223837575856
0.0886025527507646 -0.06985714553484232 0.10822373393683261
0.08842473178010939 -0.06899611330377779 0.10795799851896268
0.08876097162465292 -0.06903106117297668 0.1086516027628517
0.08879833981103406 -0.06819343807042148 0.10906819691655933
0.08872447957206221 -0.06717453034688517 0.10908126920619224
0.08890567777602888 -0.0662799865449339 0.10933256310305174
0.08903756309849233 -0.06563979147466377 0.10941856144029699
0.08928388962081062 -0.06527910727833988 0.10976572691932461
0.07286226501336289 -0.11033178960145656 0.11041712066599227
0.07335217376128804 -0.10973186971568097 0.11039036160049122
0.07332892793684136 -0.11016695196120856 0.11121021398699302
0.07402214713175137 -0.1088456264759981 0.11009303353089706
0.0738405581339804 -0.10945923697618037 0.11098612061819717
0.07475781324951625 -0.10792551972610155 0.10972130585196896
0.07454466792893816 -0.10855502005694351 0.11062780142167047
0.07542181770222059 -0.10702855714209944 0.10936313052448454
0.0752693120718715 -0.10762592471505686 0.11023910587377572
0.07597013947999842 -0.10630336264473891 0.10897605994185712
0.07607589202521496 -0.10657751421234099 0.10981536052547544
0.07681863696273715 -0.10558768732071276 0.10942388283945241
0.07733522622527088 -0.10499274230179127 0.10927011005053097
0.07783369951787024 -0.1042997551889327 0.10885329719735648
0.07771791263289939 -0.10487755155190025 0.10968732090865825
0.07826830305841331 -0.10361171542836843 0.10845547168478202
0.07845920054235604 -0.10391670714727747 0.10923177870151146
0.0791444617111346 -0.10301097296751267 0.1087586868436095
0.0796267580875526 -0.10242675371338915 0.10849740981145824
0.07988820993529823 -0.10188714924551848 0.10805657356154712
0.08006494263923718 -0.10211213761964122 0.10878752225384968
0.08074737764833692 -0.10119988445592686 0.10858188378471445
0.08131195431354707 -0.10025456133268282 0.10814312379797036
0.08169964158057197 -0.09966247585496718 0.10802969538695122
0.08204659205466704 -0.09899360184518265 0.10765525664791857
0.08195110464177623 -0.09953453517911796 0.10846676950203078
0.0823735762208145 -0.09830324852492642 0.10726161766288814
0.08248089183177214 -0.0985466502713973 0.10805178456373458
0.08299565662030449 -0.09756765288371752 0.1076941782400827
0.08334846222202666 -0.09697910875365552 0.10759400369194314
0.08362139931929738 -0.09632371593506188 0.10726269704938199
0.08355884724517582 -0.09684625887292624 0.10803584720845451
0.08389561770390451 -0.09569139280587005 0.10693806656570395
0.08398111386039792 -0.09592231191921072 0.10766010639331895
0.08447139521196875 -0.09498325384310556 0.10753451746188647
0.0848581373167677 -0.09409462133734091 0.10720701968837489
0.08516519365592606 -0.09352974683288764 0.10714227494229095
0.08539842616492031 -0.09289353623178277 0.10685777650911762
0.08541393959401775 -0.0933749495191697 0.10756858101611462
0.08559447628957549 -0.092258925910216 0.10657373811594488
0.08581142868023664 -0.09246841727587012 0.10728130459936235
0.08615807885649492 -0.0915533798040113 0.1070104875188985
0.0864038565759539 -0.09097336283116013 0.10694247317791486
0.08653388519002503 -0.09033912043024557 0.10668437811012373
0.0866779994846513 -0.09080803815712366 0.10735447933273742
0.08663530452562063 -0.08969077812124847 0.10643526724020821
0.08692386813806041 -0.08987680758869657 0.1071244416329441
0.08711464731987772 -0.08887840804218032 0.1069015975338165
0.08723474916149573 -0.088059672150928 0.10677370085540926
0.08735504803329283 -0.08747972214531144 0.10680172727259447
0.08737508097538979 -0.08682719613025776 0.10662509748000776
0.08759933899229874 -0.0873142282687587 0.10723445759400664
0.08737194685795305 -0.08617183738292233 0.10643631369986466
0.08769386645120966 -0.08636676694892914 0.10710089065984343
0.08778224733766361 -0.08541838369828111 0.10695965377228715
0.0878834498161533 -0.08482864718115211 0.10695953134515016
0.08789297572613003 -0.08420445783503235 0.10678587123205498
0.08815415553261081 -0.08467925047395936 0.10738562352003544
0.08790815755843553 -0.08367871173164645 0.10665722765852008
0.08824141843939465 -0.08378794750000919 0.10723071202719679
0.08825607911377462 -0.08287829376408083 0.10699841659164996
0.08829831630917828 -0.0821762645806881 0.10690810522091182
0.08861352627576301 -0.0826605013009027 0.10749611284719399
0.08830496121246727 -0.0817194304245744 0.10681887468227257
0.08868593207738547 -0.08182937431444191 0.10737169168273074
0.08863478028045152 -0.08096299927224766 0.10709977071405995
0.0885603560597096 -0.0803319909730016 0.1068934861739514
0.08897840526464043 -0.0805407163277818 0.10752766624319202
0.08912264549475717 -0.07967110815091483 0.10761217356348896
0.08907669022489963 -0.07890302845314183 0.10745965338758658
0.08887873544795369 -0.07829972186876369 0.10713551108415939
0.08931073946184598 -0.07843239836381208 0.10779847481815244
0.08943889693346367 -0.07749579114797892 0.10801276298499685
0.08949416017649485 -0.07658354420472673 0.10813198603592601
0.08910907196500117 -0.07579865198808794 0.10762815065861502
0.0894102826868018 -0.07568696766147533 0.10812343401893079
0.08932965650036133 -0.07493462187675433 0.10818257000936589
0.0894537981786593 -0.07440499474176836 0.10844942903714531
0.08920791721586788 -0.07386100433543151 0.10808947385560855
0.08936751548013654 -0.07363913085315182 0.10840799963292837
0.08915329754070561 -0.07280704846279142 0.1083340448532325
0.08886498341555003 -0.07201368806122331 0.10826027724951591
0.08939749668444444 -0.07238870289260395 0.10894797050566345
0.0894564097024044 -0.0714669239920858 0.10938422443057666
0.0891601396222678 -0.07022721281812795 0.10922981350041762
0.08909572258902863 -0.06902953402455204 0.1094217758636567
0.08906768952901883 -0.06833127686030525 0.10963598514695
0.08890471077558765 -0.06784931573707458 0.10951648729503755
0.08935171276520637 -0.06795862907487343 0.1101529219729876
0.08924289506444116 -0.0667600488666021 0.10998482770055575
0.08918239920105261 -0.06611582254978317 0.10977702445507258
0.0895827106039038 -0.06611513883782191 0.11044349488228125
0.08952698600503962 -0.06550303354588156 0.1102170678251398
0.0734663664682605 -0.11042443145335658 0.11193955542810394
0.0737340468623583 -0.11000887155864521 0.11182368931628935
0.07434920333625579 -0.10916522024049849 0.11152353024463912
0.07508957232133684 -0.10826431240653012 0.11112006592367063
0.07575386907773353 -0.10740681718179607 0.11074846620005563
0.07627722373837066 -0.10680827163193021 0.11059859507692923
0.07674418339691065 -0.10612886781208007 0.11022302517021346
0.07666901268720296 -0.10668109082035819 0.11100819154427811
0.07718259320476423 -0.1054616148221076 0.10986219365897176
0.07739555397490323 -0.10574517234982732 0.11063101313797395
0.07815019175112987 -0.1048034523309298 0.11019954867485997
0.07866197141705265 -0.10417714415817851 0.11000356392920108
0.07909033180980725 -0.10351242636078194 0.10958469462497733
0.07903097659264509 -0.10403743927485248 0.11041292446259089
0.07953984932835464 -0.10283834456580287 0.1091178867135458
0.07971631716501537 -0.10308794650257681 0.10994752891710816
0.08041706269680796 -0.10209832725991591 0.1094895387128717
0.08085202309280638 -0.10150075054751574 0.1093572311733646
0.08122938818843914 -0.10082159947785242 0.10898298496313055
0.08112259929142639 -0.1013666433578155 0.1097980248020731
0.08158595836153637 -0.10013267334570443 0.1086058519907181
0.08167716547532368 -0.10039936703363504 0.10940720415626887
0.08220619153112088 -0.09943134450536299 0.10901540786068907
0.08256896630748874 -0.09880697543164414 0.10886721851733344
0.08290027286636681 -0.09810964169811977 0.1084922780726493
0.08279881862392761 -0.09864446774828482 0.10931730803947633
0.08322192376476058 -0.0974390746830923 0.1081433454446763
0.08328360159957894 -0.09768730142843803 0.10889232216510411
0.08382083701800046 -0.09671279007379985 0.10871672552853043
0.08427152287176218 -0.09579600952085372 0.10833595224257819
0.08459531319862501 -0.09521379049167594 0.10825815696995139
0.08485164698293345 -0.09456998660173299 0.1079599856954392
0.08479976775326811 -0.0950793279940786 0.10872431100562001
0.08511128111597484 -0.09394508075227452 0.10765434287942163
0.08525406896141591 -0.09415371609504222 0.10842529768415321
0.0856870319889784 -0.09322825402810633 0.10809938148691399
0.08599508940695377 -0.09265330331402144 0.10799583577758833
0.0862457876709947 -0.0920290971416182 0.10770061775824402
0.08624886923967312 -0.09247578415250524 0.10842260495050828
0.0864520744183826 -0.09139077397044139 0.10742240640058018
0.08665596707406611 -0.09157448037747844 0.10812872796749928
0.08697438773603154 -0.09065878415943335 0.10786496395292337
0.08718763729442329 -0.09007080782340775 0.1078135008004568
0.08729143550086509 -0.0894115189637405 0.10758633461202324
0.08741894306923786 -0.0899055555870601 0.10825233330571046
0.08742361379049456 -0.08858357752978632 0.1074059488685614
0.08758956239475468 -0.08910098406956916 0.10808340841510661
0.08747804842516092 -0.08791877978537127 0.10722127216305838
0.08775316765472416 -0.08811076337084457 0.10790855666546537
0.08788209909890127 -0.08715349073538069 0.10776245967090467
0.087992361644781 -0.08654203731909756 0.10775485663898905
0.08801866803970276 -0.08589709158974239 0.10756923279891697
0.08822781749006753 -0.08635022934212376 0.10817571334005753
0.0880417801145616 -0.08525384452129878 0.10738380918167231
0.08835640210579203 -0.08544518535920141 0.1080436977495703
0.08850143326464699 -0.0845676672114996 0.10794024303317586
0.08873737956018436 -0.08395016869950683 0.10811938268039291
0.08854604270084684 -0.0832954550821709 0.10758155300677054
0.08888516026160541 -0.08320358087316335 0.10809444077472556
0.08902084923245131 -0.08255726508710737 0.10806713922748659
0.08929762443737146 -0.08199458270479174 0.10831174501270419
0.08899823918808458 -0.08131512789160197 0.10771459192750837
0.089410968134307 -0.08118449280865696 0.10826897341563102
0.08945806635956693 -0.08046694822688627 0.10819405382810642
0.08965382097118883 -0.07990295256575239 0.10840482522293514
0.0893792050812696 -0.07922105837623476 0.10795006208670327
0.08972013279580197 -0.07915248219423733 0.1084583124484394
0.08979311924581826 -0.0784514111083128 0.10852822272492182
0.09001093052088474 -0.07789373655910764 0.1088527402880049
0.08973212990122213 -0.07727293655571742 0.10845174075630451
0.08995014908170072 -0.07707554264108807 0.108812011947474
0.0898241723977766 -0.07629056482754201 0.10866645441834279
0.08971387220301294 -0.07551602389408411 0.10864258128234978
0.09011546703382024 -0.07607901019369669 0.10917184851051574
0.08960547424290834 -0.07498834988700004 0.1086070477259578
0.09001713598349871 -0.07511692899066252 0.10913492088270091
0.08977917665764724 -0.07409187555253263 0.10897294154837124
0.08955123663668936 -0.073300062415901 0.10882944285306709
0.09002956346059413 -0.07354663241650608 0.10949458288833615
0.09007861621322012 -0.07255997391059617 0.10985351026248609
0.08996775698591748 -0.07156320857611857 0.11006878723399156
0.08953516304098362 -0.07096472499534268 0.10969229138110975
0.08965737599436242 -0.0706067333714027 0.1100270086126703
0.08947256067734266 -0.06970644843859063 0.10997526226944412
0.08934104387456959 -0.06884315645506131 0.10997595623214564
0.08981618623418892 -0.06934672115813548 0.11067842844112938
0.09009687180412601 -0.0684983952494604 0.11117707914840777
0.08995221418425435 -0.06727095525870337 0.11108445266856093
0.09008455460212554 -0.06642220056085682 0.11134352818137762
0.09018375366080017 -0.06593507796963606 0.11132917763915347
0.07380291257762489 -0.11027105267877466 0.11239527364716453
0.07423002778716778 -0.10971939700112088 0.11233449941227347
0.07427984001741947 -0.10996965384784711 0.11285517442129403
0.0748995051024582 -0.108864499381569 0.1120010292003261
0.0747547880094141 -0.1094047359728582 0.11276032320320892
0.07564166510282784 -0.10797078366961187 0.1115499890976863
0.07550141219100648 -0.10852785560103745 0.11237761664695982
0.07614047997964732 -0.10726702807721042 0.11115778701865722
0.076310685988785 -0.10749930369976095 0.11184499545879022
0.07705800355337153 -0.10662726467707416 0.11155668577614901
0.07759719244588426 -0.10604399851734493 0.11140711939054249
0.07808021920508353 -0.10536340560038633 0.11100842078528228
0.07799718157722822 -0.10590275555521735 0.11179826927713617
0.07854714745308843 -0.1046623749673184 0.11059842249791615
0.07870654207540138 -0.10493011470191475 0.11138873251143057
0.07939344804111578 -0.1039829998220332 0.11096785585549362
0.07985619908794818 -0.10338822760941198 0.1107910018036309
0.08030529065857568 -0.10267487557063681 0.11034725508493877
0.08018378662415335 -0.10323664102268536 0.11120388112103634
0.08071599560593488 -0.10196881982824793 0.10993887849189157
0.08083361200807483 -0.10222467184131329 0.11074774982772548
0.08141187901614352 -0.10125431112094173 0.110342692571211
0.08179619241090935 -0.10063417118489162 0.11018560982179687
0.08210722500680766 -0.09994602324096552 0.10981460432049607
0.08204055302742694 -0.10045844597170185 0.1106304830285249
0.08243413798451092 -0.09927131164843508 0.10945052540334864
0.08251106324828457 -0.099488950263357 0.11020221907519251
0.08307886128589546 -0.09848780029136543 0.10999638102718717
0.08353491376643854 -0.09753760994095577 0.10958401559829718
0.08387563725750063 -0.09693963211599746 0.10947746214647196
0.08418827794284933 -0.09629167042878593 0.1091289580003692
0.08406656571757078 -0.09678686744538349 0.10994301910817696
0.08449085536257805 -0.09565444648462719 0.1087908942787766
0.084535922132148 -0.09588835639178304 0.10954901518176664
0.08502639973848067 -0.09500445679428764 0.10942375412521309
0.08538793576072859 -0.09434188434858853 0.10922056931105499
0.08567961298778061 -0.09369164884332343 0.10886303860815488
0.08562349116448621 -0.09415797141509705 0.10966046249310478
0.085945780526145 -0.09305328010880852 0.10852776527187821
0.0860928800127501 -0.09323689356724345 0.10931470637741819
0.08653537193108836 -0.09231230220056195 0.10895385884979135
0.08683377376196172 -0.09173272154801879 0.10885114296241025
0.08705115964904367 -0.09111445045070264 0.10855698316683443
0.08706439044668711 -0.09155152995296423 0.10929268428498641
0.08722468810672965 -0.09047763235926863 0.10828837746040196
0.08739737981545193 -0.090643354675789 0.10902351033176058
0.08767251998206928 -0.0896813987153675 0.10878458922439004
0.0878467012698517 -0.08887434252230347 0.1086111726402331
0.0879847367084434 -0.08827309193942955 0.10858866427853517
0.08805758837698291 -0.08761326102648645 0.10838456703650347
0.08819986008262025 -0.08806837465510974 0.1090323834464291
0.08810779704914473 -0.08695477803276555 0.10818310203524308
0.08837331817994626 -0.08711434641992159 0.10886202720789241
0.08852921475544497 -0.08618299724479518 0.10870021360668541
0.08866319445093851 -0.08560902856573532 0.10869848826824952
0.08871141574489977 -0.08502851624846222 0.10852389841018427
0.0889065982754861 -0.08543364144681438 0.10912682850024576
0.08876174753248124 -0.084530894438189 0.10838200738906126
0.08905161339389257 -0.08458677911168541 0.10896186173113087
0.08914076736583551 -0.08371758846221063 0.10871302536755728
0.08927331396618231 -0.08303259664352489 0.10862142563186053
0.08953303786832376 -0.0834747153771001 0.10923715049950394
0.0893283878589188 -0.08256978131601994 0.10853028352684971
0.0896917376339254 -0.08268061252101586 0.10915143170198711
0.08989876492057165 -0.0817600953564043 0.10911833602872194
0.08978324048495971 -0.08092895155016747 0.1087432326209457
0.09011972202828836 -0.08112517138749034 0.10926202380473005
0.08973028227749091 -0.08046140692727238 0.10859404039956415
0.09002910621311477 -0.08048892376655672 0.1090290865685672
0.09009021215691439 -0.07976525632533123 0.10899923390286283
0.09013326971873452 -0.07905258567576595 0.10902756965639247
0.09050230070328691 -0.07962172916812878 0.10958692430778165
0.0901114604522534 -0.07853741924322472 0.10900435877975861
0.09048527822634121 -0.07868270906252582 0.1095851843759819
0.09046234369521144 -0.07762823708037486 0.10959549072867399
0.0901564398800432 -0.07676195570638711 0.10918856539887963
0.0904886036670396 -0.07673649442145478 0.10970799861852884
0.09049561888101158 -0.07599407012392279 0.10975249671287166
0.09065794409535362 -0.07532877039990922 0.11003405340569798
0.0902360739469792 -0.07449466359659997 0.10953859886146079
0.09059057519313823 -0.07438025299069637 0.1101244528554548
0.09053707466432888 -0.07357386687995936 0.11026430248824916
0.09072047651483953 -0.07295263827853116 0.11063938750836916
0.09035837181585805 -0.07230092980836231 0.11028347453412048
0.09051977842136703 -0.07201321929403538 0.11067594554715648
0.09012413882873312 -0.07105498840919726 0.11061537985405004
0.08982632782932325 -0.07023128731654693 0.11052214733743124
0.0903685352779307 -0.07055218691627788 0.11119918503336577
0.09053897594231956 -0.06960942814687653 0.11166755986127494
0.09066158380523379 -0.06874511210072728 0.11198107486474965
0.09031509727466272 -0.06807008979874378 0.11153968681678353
0.09060073024392325 -0.06786132137984822 0.11194807930448136
0.09064761847671036 -0.06699365749587592 0.11201241217392265
0.09037162752995632 -0.06630570743416782 0.11171324535432774
0.09074908182327776 -0.06627065008530644 0.11208487896844348
0.09086629608956408 -0.06597669431827252 0.11218747098248179
0.07470035439599598 -0.10965347789547979 0.11310868132534253
0.07525969879565542 -0.10902240668538096 0.11292634395303186
0.07617012750525813 -0.10805214939414576 0.11267971346967703
0.07692417656110029 -0.10720260586429049 0.11238008468399326
0.07697871670476406 -0.10762037439069826 0.11335567575592233
0.07743632638345264 -0.10650624066699783 0.11198198801801054
0.07763040357963005 -0.10668417469001913 0.11269724416823464
0.07839379730971117 -0.10578333113376448 0.11232279011473277
0.07887685910316201 -0.1051744169179966 0.11216978538760573
0.07929501873578801 -0.10453360324758668 0.11179745437737612
0.07921638175061572 -0.10506116391834026 0.11259526822162322
0.07972392204475998 -0.1038719699875526 0.11140158603651142
0.07986588254594931 -0.1041045467344146 0.11217997963329032
0.08049617226398172 -0.10308515903036147 0.11172809564601317
0.08092350781656484 -0.10245512259030168 0.11155407639632929
0.08130995682477364 -0.10176686398090272 0.11114762107370313
0.08118653442456963 -0.10228363597699006 0.11200125218302351
0.08166861571923448 -0.10108406903253285 0.11076307085607329
0.08173674236402871 -0.10130133549463743 0.11153485869713298
0.08232232387039658 -0.10029854120629941 0.1113237656928616
0.08278387668233197 -0.09932239382100556 0.11088604569377367
0.08312692303974553 -0.09870842610514992 0.11076573108791718
0.0834330659314876 -0.09803824351215798 0.11040297736958131
0.083322510153409 -0.09854477884759981 0.11122558552568583
0.08373448259196715 -0.09737915887118004 0.11004444471386036
0.08376928992633523 -0.0976006086482471 0.11082486364340519
0.0843053968669999 -0.09664272015806735 0.11065988414552355
0.08477590864309427 -0.09574854725564931 0.11024258574980778
0.08509786165259656 -0.09518435456266952 0.11011354217000668
0.08530585428746526 -0.09471338673557765 0.10977410417567117
0.08535477284437618 -0.09490649415779116 0.11049358135350852
0.0858831763553091 -0.09407278749281976 0.11037130030257533
0.08625521024743013 -0.09339796366427122 0.110101124796549
0.08652860597133978 -0.09275871541845086 0.10972300356773045
0.08650669133406551 -0.09318793955374739 0.11050301415528993
0.0867918699822429 -0.09212529642949191 0.10938549647180293
0.08691621026390814 -0.09229776473605787 0.11016813596736269
0.08728672898372442 -0.0913941227794605 0.10984167718608417
0.08752726301620173 -0.09081472225381611 0.10976727309370861
0.08771955228593892 -0.09017456875653644 0.10950853214699036
0.08772106810951708 -0.09065892297126 0.11025054307760955
0.08793195542682518 -0.08935632109077334 0.10928780508232397
0.08798435302052439 -0.08985630672055468 0.11004699236318256
0.08804648523992298 -0.08869041309686261 0.10905191501265545
0.08824260547082591 -0.0888495973335853 0.10979143384617582
0.08845853422700711 -0.08787790573121673 0.10958271180232598
0.08861280289444631 -0.08725995319729171 0.10955427968239373
0.0887033325669803 -0.08662288421031127 0.10933897882781451
0.0888238560914573 -0.08705599070589443 0.11000053699692451
0.08877413044423373 -0.08599230079313824 0.10912953813909294
0.0890268638140516 -0.08615617039397992 0.10982817031105623
0.08923255981064468 -0.08529801815399424 0.10970036758833056
0.0895156385466589 -0.08469553751243972 0.1098907000934666
0.0893916346728137 -0.08408966013804825 0.10932345431602641
0.08973785892112277 -0.08397252069687179 0.1098558279646157
0.08991760474074185 -0.0833547710136301 0.10982539963414971
0.09020027307627318 -0.08285152862091037 0.11006671223663832
0.0900439893758887 -0.08237266097893196 0.1095614800729713
0.09033237306971857 -0.0821653670552495 0.10993679007942117
0.0903726059961387 -0.08152236862346171 0.10976450588460977
0.09042760056041882 -0.08086132184075916 0.10967944380541217
0.09073345490055218 -0.08129254518688298 0.11030136313343249
0.09040043411405872 -0.08024931171546847 0.10950685706962629
0.09085550274095447 -0.08041635249795391 0.11025513291828591
0.09088575242270508 -0.07949011141262695 0.11019706610137506
0.09103366553425564 -0.07887315992231285 0.11043411121708246
0.09072637205660308 -0.07833265492990085 0.11000482069656835
0.09098616095600072 -0.07811192119711777 0.1103934451430098
0.09090212300674318 -0.07733750445072707 0.11026718236887852
0.0908675304576223 -0.076552354485815 0.11027035545379056
0.09126156912945382 -0.07707838224853825 0.1108473665093573
0.09081833170265743 -0.07600855761033916 0.11022091130981729
0.09120324613997755 -0.07611613854748708 0.11084003322239441
0.09106828596121519 -0.07508977914210455 0.11071345398324364
0.09100255922606296 -0.07423298538872891 0.11072878091324193
0.09146032740812492 -0.07483041238316675 0.11129256571763896
0.09090842576030356 -0.0736523355510457 0.11073310410182037
0.09138600875135414 -0.07380598370549303 0.1113054066334189
0.09119294598503379 -0.07259315747782673 0.11143290766102065
0.09062681680122933 -0.07154084234724645 0.11112451047182814
0.09107547269172873 -0.0715312559027004 0.11167779191730222
0.09102758154174508 -0.07066899057134093 0.11193533841535347
0.09121884874506372 -0.07008343983012015 0.11245232963001514
0.090842519758846 -0.06940835598842668 0.11219885363862363
0.09114590425885352 -0.06930804049688057 0.11264442084474659
0.0911922654396083 -0.06851166677487125 0.11272918473579228
0.09092939750132256 -0.06774969568931911 0.11235639426334432
0.09126846646129728 -0.06764931988210653 0.11275561216063425
0.09132381771128682 -0.06682329319295398 0.11279741055690631
0.09108335267380963 -0.06620089439749338 0.1124920860639842
0.09137150728852478 -0.06623854707453554 0.11290997322570816
0.07686909095954543 -0.10805763879585285 0.11415578025243026
0.07706116897366719 -0.10787988994889629 0.11416633656439834
0.07753808659896233 -0.1072596644071396 0.11373772798522158
0.07735086645640558 -0.1077341910314109 0.11459638553331794
0.07822044451882869 -0.10638619505980738 0.11321711086130926
0.07807241469667948 -0.10695244169934283 0.11426822973145113
0.07874681552927128 -0.10565447481493798 0.11275186939058322
0.0788604029399445 -0.10588163755988482 0.11351168347830058
0.07954329732100841 -0.10498025573930102 0.11315634034627167
0.07999947759583373 -0.10434362663212694 0.11298491375548804
0.08040432755628744 -0.10361579364425975 0.1125496035792814
0.08029190616006991 -0.10414695913510617 0.1134232974707648
0.08077109498141234 -0.10290610371326114 0.11214952368668285
0.08087115172716285 -0.10313886120881095 0.11290849090339238
0.08149314397978788 -0.1021218999210786 0.11270020281311524
0.08202998116572893 -0.10114563240227024 0.11223418689242821
0.08237395658169407 -0.10051154055648191 0.11210116779157997
0.08268606605623041 -0.09982919505722701 0.11171312447860592
0.08258208670481502 -0.10033144525899626 0.11255316580927828
0.08299169212677415 -0.09915174452865451 0.11133831132050793
0.08302547282325405 -0.09936794592461731 0.11210356892254571
0.08354619765205766 -0.09839721018086328 0.11195897064998357
0.08399023433854629 -0.09745388999013044 0.11156477114074621
0.08432313746845875 -0.0968593973420668 0.1114588634695856
0.08465721179643777 -0.09621750838749078 0.11107831607052719
0.08451116902870912 -0.09669945563439505 0.1119401981393526
0.08498105032068094 -0.09556790501851656 0.11067927348285277
0.08501437515858976 -0.09579212473492783 0.1115108851137574
0.08557191512104083 -0.09488876230749257 0.1114047538871635
0.08597581907352785 -0.09419766258746477 0.11106936690831648
0.08619588054369906 -0.09373686255950545 0.11065855652720927
0.08628898574026703 -0.09382489113724295 0.11130307962306703
0.08674745478547555 -0.09308484123504678 0.11115843621254352
0.08705920710191369 -0.09246628640823241 0.11095332791668429
0.08728676786045049 -0.09184956671297324 0.11059608130510051
0.08728037797106686 -0.09228587470802464 0.1114088205238833
0.08748942041292404 -0.09122079142825647 0.11028424310087838
0.08760922237943691 -0.09140897224529854 0.11104418573601348
0.08796181310453306 -0.0904771349464786 0.11094023435279057
0.08821833180619985 -0.08959289460771307 0.11060310181447973
0.08840529145478603 -0.0889814367861167 0.11052777142344308
0.08854824692954603 -0.08832429788498145 0.11027246714974928
0.08860703409937974 -0.08875898214172882 0.11098239438628206
0.08866611196143408 -0.08766135957129531 0.11002695694726977
0.08886632411731447 -0.08781701415233081 0.11076832831794195
0.08909612594616077 -0.08687986072263292 0.11056421302963237
0.08928212998269901 -0.08630427071028487 0.11054508085947372
0.08939605749592808 -0.08573149913388385 0.11033259209300654
0.08954454570069674 -0.08612435574788779 0.11102463550843165
0.08948877167871688 -0.08524709126614723 0.1101682828257261
0.08976381861393351 -0.08528603549431234 0.11080708082907711
0.08992426019938407 -0.08444447862089213 0.11051717235953619
0.09010480695917564 -0.0837869178747288 0.1104003723922303
0.09030926567302675 -0.08418685359772224 0.11106067672891459
0.09018414363291327 -0.08335770380689382 0.1102959192004541
