# .PCD v.7 - Point Cloud Data file format
VERSION .7
FIELDS x y z
SIZE 4 4 4
TYPE f f f
COUNT 1 1 1
WIDTH 790
HEIGHT 1
VIEWPOINT 0 0 0 1 0 0 0
POINTS 790
DATA ascii
0.0885061636789657 -0.08820884019617277 0.11503691128687751
0.08837583491777454 -0.08752571306662318 0.11408198901779901
0.08862006238720478 -0.08755168357297903 0.1146294262430143
0.08898903008315776 -0.08682868780261285 0.11472564287585792
0.08908972356172068 -0.0860369317078115 0.11420976347682608
0.08932468217860805 -0.08620288086101213 0.11486448367218977
0.08914144664015702 -0.08557507668488741 0.11391511585820237
0.08939997692904042 -0.08557101397501247 0.11446097722562129
0.0897340826168345 -0.08486990131815914 0.11455339718758382
0.08984494575036704 -0.08411372665545552 0.11413543732581624
0.09007439724821963 -0.0843067949196472 0.11476510174254319
0.08991389297068898 -0.08366617282508083 0.11388506126823185
0.09020008190544812 -0.08369042881792885 0.11448231540135724
0.09062291291809986 -0.08293874424006281 0.11472348503400688
0.09073854903443869 -0.08206532023487656 0.11424295390435689
0.09101761128872393 -0.08226826868176845 0.1149761723887359
0.09079906601755129 -0.08159492511781492 0.11404087770950498
0.09106060608437194 -0.08161399790591242 0.11461434591609752
0.09134296798360596 -0.08086334502041714 0.11477669320205328
0.09133422082332661 -0.08001139721516135 0.11434950401789545
0.09165470615824235 -0.0802235446466799 0.11501579594478667
0.09133637349544386 -0.07952988847038446 0.11416529523815118
0.09162577594858519 -0.07955112102671676 0.11470976193566552
0.0918646577305486 -0.07877590988805672 0.11491228339525218
0.09178855026690058 -0.07788960936273367 0.11453708790353821
0.0921398859391518 -0.07810761424930535 0.11518767499709238
0.09176115359361015 -0.07739409005177143 0.11437932051956075
0.09206230887865624 -0.07741577454284104 0.11490222760244505
0.09224508187879267 -0.07660384007579923 0.11507724341962296
0.09205588849485746 -0.075767504040475 0.11461066767557992
0.09249172280858395 -0.07574035141517697 0.11525510909460891
0.09258734409188357 -0.07499084174396621 0.11524556142471848
0.09283673116323624 -0.07442963874996626 0.11555188219339883
0.0925651905048545 -0.07382474606775129 0.11509781079074277
0.0929326358408021 -0.0736763850686234 0.11560698620011814
0.093095612585117 -0.07285589537041968 0.11579629269273645
0.09285849813604653 -0.07194998783559564 0.1154427284193975
0.09330431367676856 -0.07216328831699054 0.11606268151837354
0.09272268929148511 -0.07143074331841454 0.1152436171282203
0.09311831144556754 -0.07144364031082977 0.11577518904364564
0.09327334473022417 -0.07058533588003815 0.11599169210608852
0.09299020142914552 -0.06978154139688997 0.11572544691463302
0.09343716876080813 -0.06972246551739544 0.11621847625511154
0.09367364397203559 -0.06888752433460532 0.11648276574387267
0.0936669280225111 -0.0677068888982483 0.11638020431368504
0.0941588862189007 -0.0684099695035276 0.11690607919978703
0.09343684350783242 -0.06673155475408116 0.11613971007922035
0.09439687253858581 -0.0677933093328888 0.11712058559626783
0.0940007453730709 -0.06692671862005224 0.11669722788878639
0.09455957115074952 -0.06694913312647746 0.11725538427044288
0.0936703480226197 -0.06621199873028717 0.11639971225342449
0.09423820681736732 -0.06604451347222491 0.11692142869035317
0.09410396633407446 -0.0652415773989131 0.1167835524843892
0.09440017738389385 -0.06510237800630075 0.11707374363107116
0.07797602344458889 -0.10831367183020094 0.11929449193868116
0.07818541247355536 -0.10798326929830106 0.11911230161249163
0.07825584917461734 -0.10821130184528638 0.11969835933357906
0.07869446424769183 -0.10719966238896081 0.11868929756277785
0.07860025632996033 -0.10774229600045736 0.11961842209689055
0.0792900822697524 -0.10629845376562079 0.11827726743377931
0.07912760376089709 -0.10690855682024754 0.11931334823012112
0.07977474163282822 -0.10553846416642354 0.11783728675400769
0.0798137293690214 -0.10577404181558561 0.11889778395983117
0.08048322890823516 -0.10459962241386378 0.1183302663783576
0.08098457255122066 -0.10367406921630201 0.11786974842310607
0.08133589069939332 -0.10300078643884351 0.11770616780615732
0.08166755967116143 -0.10225983486458876 0.11735937694880995
0.08154683925042808 -0.10280187853622647 0.1182319308010976
0.08205822204991743 -0.10130125874375008 0.11700934396349631
0.0820052708172253 -0.10190983002604671 0.11803987255926898
0.0823842606003136 -0.10039210162114974 0.11666729333767623
0.08238241439205046 -0.1008827646760283 0.11755188092750912
0.082596950422999 -0.09980873082867084 0.11642541679699912
0.08271798227020233 -0.09989932702639984 0.1170354849175718
0.08311414661419511 -0.09903049966874782 0.11682080837701242
0.0835139606451578 -0.09821828587029646 0.11660636237298239
0.08339600582076809 -0.09888775005728141 0.11752971806676983
0.08390834335250115 -0.09734907857283534 0.11622873561359592
0.08391179981566747 -0.09792483537155457 0.1173495927704631
0.0841901141924603 -0.09663249509539792 0.11579557665186684
0.08435711818698718 -0.09678856034577073 0.11664752215031964
0.0848139994531782 -0.09593454518616121 0.11650418331059131
0.0852075067350821 -0.09539122327676886 0.11678513756922393
0.08543443910750977 -0.0947439615254835 0.11604590909999143
0.08564235288562028 -0.09467862206701931 0.11667006553287895
0.0860000049545509 -0.09401693958780256 0.11641644139765561
0.08637553814848686 -0.09347894246075053 0.11659135446870054
0.0865591780655063 -0.09284244455916363 0.11577659938924613
0.0867867530505835 -0.09273973285321556 0.11646823969922564
0.08711208141674343 -0.09204328077250891 0.11623956638957685
0.08744134270062509 -0.09147530145789122 0.11640190375741458
0.08763332352100693 -0.09068419018550951 0.11571337700788714
0.08777338699198851 -0.09088640453597253 0.1164452053575887
0.08783066097472712 -0.08990605000239432 0.11534397876216754
0.08797474183892334 -0.09025868443052934 0.11612003651763875
0.087985671376758 -0.08939788740785203 0.11516148242466039
0.08818542285137486 -0.08948199447375914 0.11577088185413141
0.08862972380432947 -0.08873732489823923 0.11597727491446538
0.0888098076140541 -0.08790628799961783 0.11541354540152739
0.08902480080125226 -0.08808376287277646 0.11614326802405957
0.08888930025447449 -0.08742596081466628 0.1151007765525822
0.08914699500939526 -0.08742312564666915 0.11566768794127888
0.08950376337584977 -0.0866775218442085 0.11572002286183801
0.08961733403314075 -0.08589880224622844 0.11521809750920485
0.08982898604621871 -0.08605803194046134 0.11587803647896958
0.08967097869790748 -0.08543863062055365 0.11492672689369984
0.08993297984711475 -0.08542628605693162 0.11549073588031525
0.09016566888434338 -0.08474158237721985 0.11538700632770688
0.09040152819583261 -0.08410576652068275 0.11529648913549441
0.09052952220757393 -0.08456991521423673 0.11611573680421022
0.09052968532900016 -0.08361166977905043 0.115104095809072
0.09084338626926787 -0.08369733780970036 0.11594938634904539
0.09126910517524485 -0.08275401782119558 0.11594498973080936
0.09133185814976526 -0.08194587357112837 0.1154061482303409
0.09161772163993977 -0.0820918000635647 0.11611087098011176
0.09134262400520397 -0.08147541911847367 0.11511930448907845
0.09164694434282433 -0.08146024268263719 0.11571021844406058
0.09198347133295001 -0.08072978056469168 0.11588141138674274
0.09195222835001346 -0.079913480930011 0.11544433212097538
0.09228359205425644 -0.0800958015093771 0.1161294155255502
0.0919165883846701 -0.07941984378686005 0.11520458554515599
0.09224706497554269 -0.07943034917177316 0.1157830483251576
0.09253732955571285 -0.07865947353386943 0.11600694592812365
0.09243924370247154 -0.07779199048399517 0.1156112043654086
0.09281469503248206 -0.07799500189486085 0.11627728633654276
0.09236070737411173 -0.07727367166586858 0.1153814372087272
0.09272829807456517 -0.0772803174833145 0.11595583738906776
0.09299056662489527 -0.07643400826596533 0.1161987864832987
0.09291247616826924 -0.07549070124436466 0.11586489954560926
0.09329626259614912 -0.07575518550026408 0.11652380267497502
0.09288660926638038 -0.07498685669587458 0.11572577989164641
0.09322163444897341 -0.07504980677461692 0.11625893798482113
0.09345269955142921 -0.07429056496754924 0.11644265286543652
0.09329301787548028 -0.07358936657369157 0.11610713389539634
0.09365406051223511 -0.07350243827984233 0.11661384536216104
0.0938436811727575 -0.07273142152680956 0.11682371339703172
0.09361908531888483 -0.0718666655011121 0.11646699364596708
0.09409528472858779 -0.07206486630832248 0.1170895913401805
0.09349202380221483 -0.07134072319096639 0.1162457694752596
0.09392833408925029 -0.07133421631474587 0.11678171609909094
0.09407824780890367 -0.07039827116747803 0.11694645239552201
0.09384423671765622 -0.06965822591100965 0.11671217514998514
0.09420610520931257 -0.06959247110025597 0.11713111625092273
0.09448877621512027 -0.06894977227307289 0.11735199930841304
0.09447445084019303 -0.0684190058630234 0.11723485332815305
0.09477485213214018 -0.06830241072100529 0.11757292003689165
0.0950642235493928 -0.06752418906071012 0.11781073613886578
0.09505646303151633 -0.06635490381057636 0.1177440865204179
0.09547226058484354 -0.06688966657415867 0.11815853981592485
0.0946855746673322 -0.0655024915906726 0.11736432815243798
0.09573860917926436 -0.0662624583688693 0.11843099476311407
0.09558452211389726 -0.06565506127875796 0.11821725070757044
0.09604999492837804 -0.06564805242744268 0.11867073735101237
0.09629768574665656 -0.06531812668755989 0.1188437084449944
0.07865083074220022 -0.10801008215619688 0.12018160767356478
0.07898284667250632 -0.1075018805502721 0.12017332465245131
0.07944159808486109 -0.10673500877100096 0.12001924782167175
0.07987996727497954 -0.10602482061185861 0.12018987483096452
0.08032040659991478 -0.105083273918716 0.11940940560570233
0.08030762595901365 -0.1052994161661304 0.12023781215625316
0.08083603960470444 -0.10416041192462722 0.11881958998074185
0.08071230836989952 -0.10453854333747785 0.11981126123239794
0.08120761235875398 -0.10343714363803388 0.11833264685689741
0.08126724235531278 -0.10355792568511125 0.11917407234376255
0.08177702025383982 -0.10267344674092821 0.11891562346733711
0.0821335468766494 -0.1020611553390302 0.11882707004010357
0.08242308196187262 -0.10134054251441774 0.11847682646675209
0.08234172639411422 -0.10185438764587301 0.11936966672674694
0.0827819800089868 -0.10040088331237226 0.11803102903476455
0.08281149885750239 -0.10090875940928692 0.11916813186621587
0.0830365156689992 -0.09959230292164166 0.11757827469885646
0.08324093646318848 -0.09973862304207501 0.11844603717945014
0.08367733211541589 -0.09880352031551291 0.11827603435250457
0.08410048675906757 -0.09815264678547184 0.11846575429355741
0.08439358606269558 -0.09727901240708674 0.11774214487593712
0.08446861681557392 -0.09750409935592905 0.11853278574637718
0.08471031802541294 -0.09647499953267297 0.11732512958602646
0.08473205817727686 -0.09683851431573015 0.11817063193595279
0.08493561421867472 -0.09595981518707714 0.11709433831187127
0.0850406154477793 -0.09604203078339402 0.1177238424652141
0.08550507101158782 -0.09527854848809937 0.11779846641712205
0.08593178445656557 -0.09446561554034887 0.1172216434375109
0.08592910392480896 -0.09470080669729478 0.11799726240491842
0.0861599174978956 -0.09401181205654999 0.11692942320759303
0.08625272677315031 -0.09407837044048639 0.11759824968733583
0.08667667257332945 -0.0933351565160084 0.1176919385228352
0.08706292285811469 -0.0924877344826262 0.11702610612370684
0.08710166011007979 -0.09269267490131002 0.11779839744480142
0.08725709809855288 -0.0920184956151016 0.11672686645964289
0.08738675359779778 -0.09203753290909045 0.11731226448465798
0.08771635876017678 -0.09133827093361829 0.1171358741968792
0.08804180067326728 -0.09066357884290348 0.11698159387641975
0.0879927672412413 -0.09120029959919707 0.1179159451945754
0.08831055572528948 -0.08993161267315915 0.11665452519024717
0.08841257220026276 -0.09036551770481313 0.11777240926747776
0.08845581694302412 -0.08938913702290756 0.1163513251816048
0.08868598721430757 -0.08942612355551285 0.11708453173937952
0.0891323173043553 -0.08857956759387597 0.11718521170007477
0.08935277982765581 -0.08775486979268507 0.11652599706636632
0.08954582430890014 -0.08788759132884634 0.11734341390320888
0.08944811000629971 -0.08727970989098757 0.1161494872184728
0.08968321199251805 -0.08721822172524978 0.11675823136565255
0.0898943898474623 -0.08647534382282161 0.11655018526876915
0.09012478854283011 -0.0857778078837554 0.11640097917396426
0.09023819224613672 -0.08622805194275295 0.11725174053535224
0.09027238936641319 -0.08516562480409472 0.11610154819697739
0.09057556285700447 -0.08530016415873698 0.11708982197504089
0.09089798452802987 -0.08441094581456664 0.11687578905826256
0.09123415455193724 -0.08382483888324935 0.11706982549102471
0.09122140708137423 -0.08336242881371012 0.11648593747047584
0.09151303987008844 -0.08317517703732992 0.11697647162502668
0.09187217734108537 -0.08251280988543536 0.11701901462765797
0.09194514806163968 -0.08177596606358788 0.11650379483167121
0.09224740848523783 -0.08192667219083952 0.11720392056386747
0.09197237985798547 -0.08132323723571935 0.11621976806224661
0.09230251534776306 -0.08131846453143138 0.11681871251214258
0.09263669803316935 -0.08059601542886632 0.11701088835296401
0.09261783741884545 -0.07978770433650773 0.11656015730401002
0.09296490283746303 -0.07996100426755952 0.11726481206775224
0.09259547300050135 -0.07930398766767034 0.11630501898285055
0.09293151329427862 -0.0792948245606881 0.11691484951018313
0.09321856329990544 -0.07852087898192198 0.11713296082819429
0.09314239848045917 -0.07766100107948543 0.11672225954568209
0.09350581912552311 -0.07784214225787908 0.11741535697690664
0.0930836605207732 -0.07713085465777425 0.1164898452186602
0.09344066374208711 -0.07713514163709487 0.1170937989590954
0.09372928763466554 -0.07633109166235016 0.11733645424701514
0.09364132486538904 -0.07545249740174456 0.11695996819343267
0.09402878319288457 -0.07563528115566755 0.11762053226343033
0.09357543276313186 -0.0749399147033863 0.11673674981423937
0.09392890317211715 -0.07492469316372188 0.1172905845310317
0.09412678093673632 -0.07408742848102687 0.11741372800120281
0.0940051576800321 -0.07341792664503095 0.11711128974781869
0.0943221559441455 -0.07332647775054671 0.11756824713259692
0.09459480131691138 -0.07260195132770925 0.11783850333043683
0.09447213843718753 -0.07167806107382174 0.11750097133196839
0.09497325740436885 -0.07182290093965463 0.11817834596683394
0.0943452662937452 -0.07111890952093876 0.11726323973391553
0.09477462162348457 -0.07095367198492784 0.11781582741221469
0.09464763728737635 -0.07004959630969583 0.11762755415169379
0.09457057787255006 -0.06954230434373707 0.11752600052826544
0.09495578003957651 -0.06946563400743223 0.11791159705780432
0.09508442697520014 -0.06872685936136527 0.11794828137535762
0.09508959226050465 -0.06819592295199893 0.11792113915438887
0.0954582037490773 -0.06814509203354305 0.11828657221993122
0.09567094969684917 -0.06735974678321408 0.11840480322829168
0.09573848999773994 -0.06683345147248658 0.11844449167742592
0.0960355533693223 -0.06676731009270113 0.11877862896258028
0.0962434036405742 -0.06598232642660855 0.11890709137492991
0.09632470167992097 -0.0655259530200472 0.11890303653529076
0.09659834169410123 -0.06554108484117935 0.11915682363697243
0.09671799646963598 -0.06521103180013799 0.11921902387995133
0.07895259843855443 -0.10775144292804033 0.12053422789227677
0.07930226912868914 -0.10714478826971664 0.12058440534639238
0.07954760548128305 -0.10667176180696765 0.12053391873437658
0.07973811097848087 -0.10645180410945836 0.1208493826763299
0.08016963431939766 -0.10578623093092043 0.12086888350838583
0.08062721814206235 -0.10499202888538171 0.12072345437743251
0.08058175397825108 -0.10546038334436686 0.12139699859669466
0.08112433304666802 -0.10409440857542201 0.12033317061265182
0.0811182376907304 -0.10467130596387371 0.12146704139185371
0.08161458916216198 -0.103168820703876 0.11984563441508982
0.08157607044311649 -0.10360111782284663 0.12086219513635095
0.0819967784437317 -0.10248040918840184 0.11944291290252113
0.08206441453996004 -0.10258515275080791 0.12026660613950499
0.0825297737558358 -0.10170568492419348 0.120104797837783
0.08298764449644472 -0.1010634209167895 0.12026828623968004
0.08329197268770716 -0.10018727795866143 0.11951741754084722
0.08338888052774476 -0.10038937646651927 0.12030766189545943
0.08362993487252854 -0.09933122473468808 0.11903991071801574
0.08366872021923509 -0.09967910632579992 0.11992538072706668
0.08384504259306885 -0.09877019903472783 0.11878774486615859
0.08400127645204512 -0.09880409428067172 0.11939438607883825
0.08436284961048168 -0.09799275035470269 0.11922287236849634
0.08468683147790015 -0.09724129185779488 0.11904049755620932
0.08460691734241965 -0.09778801802293006 0.11991486170514833
0.08501749492644817 -0.0964738820472003 0.11864343565091257
0.08499523808804782 -0.09689317804159192 0.11971206314036185
0.08524351144883956 -0.09592376748734732 0.1182639612455331
0.08536219413995524 -0.09594460760995947 0.11900743596779392
0.0857481349048434 -0.09516250343928337 0.11879331504327885
0.08613479861010193 -0.09449618659148709 0.11858544690723136
0.0859221912515493 -0.09495269023604036 0.11965194473202215
0.08638443303296374 -0.09399167040153067 0.1182680215437661
0.08646426564171746 -0.09403257406021007 0.11921046719412834
0.08697352272137228 -0.0931394901952006 0.11865965044067497
0.08737830610718532 -0.09241934506907337 0.11834819626245237
0.08729436547273825 -0.09284346277296635 0.11939275479393538
0.08767044031190808 -0.09179615629693207 0.11793038502636448
0.08779367347144533 -0.09195883427585648 0.11908394545365553
0.0882515402913659 -0.09107984762428434 0.11878133119022813
0.08864544003590503 -0.09046574411715103 0.11899636265611156
0.08882122901202735 -0.08974781798203209 0.11813289304826274
0.088989533776926 -0.08981320489805604 0.11897434616082084
0.08896402659181707 -0.08923066268399006 0.11767629709359319
0.08917532313236354 -0.08916277464407815 0.1183827582498641
0.08960326740010531 -0.08834083904720992 0.1184830756575246
0.08985314551916854 -0.08747293695461032 0.11778332555252549
0.0899927871213594 -0.08758881649626055 0.11868819387685399
0.08998811280393794 -0.08686141942806822 0.11729635915959041
0.09020651897462342 -0.08683782660651096 0.11816276304427119
0.09054637768570832 -0.08604043754229533 0.11804629246404254
0.09090737033330591 -0.08541093320200396 0.11826168430008085
0.09100097091133921 -0.08474553056901414 0.11763788731618709
0.09120758312873924 -0.08480381735724482 0.11827100251564349
0.0911212668998783 -0.08430894571494885 0.11737925164409596
0.09133639729458308 -0.08426060582258917 0.11789526225652215
0.0917046440563206 -0.08358521974201451 0.11788517275455332
0.09179427898606189 -0.08305244689410175 0.1174449965781314
0.09206180495939296 -0.08295288598929344 0.11789828815285334
0.09244923942292663 -0.0823622041548806 0.1180845170583094
0.0925851086764058 -0.08163266345899386 0.11762766953459952
0.09287392927183417 -0.08180041007619578 0.11835239229805375
0.09263050802600416 -0.08118990358152466 0.11735189742101357
0.09295285103434973 -0.08118674040120767 0.11797064726328975
0.093302632856515 -0.08045792333797636 0.11816063837989188
0.09328109606156208 -0.0796451018106322 0.11770613692264169
0.093616983876394 -0.07981154594672378 0.11841218021445059
0.0932560148893546 -0.07915868023434877 0.11744796042924079
0.09360370523765742 -0.07914833345501379 0.11805191767145089
0.09390003870240704 -0.07835513957207924 0.11825611585283742
0.09383058321836053 -0.07751533951723635 0.11785359273950467
0.09420198177105311 -0.07767495206918924 0.11851439737952671
0.09379250943940597 -0.07700807827589407 0.11762248731878344
0.09415235123618777 -0.07699148902474104 0.11820839082542739
0.09444156219132062 -0.07616072458136275 0.11843565041394107
0.09434481224682933 -0.07525936206458878 0.11804216449982215
0.09477934502475449 -0.07540423301477177 0.11871743370400549
0.09426218867286937 -0.07473708080938915 0.11777887182529476
0.09465339119896427 -0.07462877252783094 0.11831789426620049
0.09466537787905556 -0.0737941403389131 0.11811511348990902
0.09464573325192532 -0.0732666089144402 0.1180222674289279
0.09499172060980042 -0.07328211328199156 0.11849027898120898
0.09541553282876966 -0.07245737395618446 0.11891759961136111
0.09548634369188319 -0.07124557881434924 0.11878325828267103
0.09582008465802723 -0.07178019851096916 0.11933482710349148
0.09525504809209964 -0.07019892866173746 0.11834113589333328
0.09608858278967676 -0.07120072240813176 0.11954011582675098
0.0960147100757158 -0.07021318788779791 0.11920769188907945
0.09639028703613765 -0.07064274898958439 0.11970878086303235
0.09566056737657458 -0.06911249679848207 0.11860067495570473
0.09666026233195284 -0.07000313426126605 0.11985622126238683
0.09653039334536521 -0.06895653758795087 0.11954556663589143
0.0969369845317992 -0.0692915394033053 0.12004367014332336
0.09616975730852559 -0.06778125912532375 0.11899020873430037
0.09717351807825061 -0.0685872506253749 0.12021527232037416
0.09704291291535465 -0.06756903516022701 0.1199180520019994
0.09742422419603725 -0.06781611410961808 0.12043827556675363
0.09667475873189639 -0.06644751354800822 0.11939075817635826
0.0976534757441642 -0.06713618846525285 0.12060403082950386
0.0974706777566579 -0.0664140183350503 0.12021910272426119
0.09795441851235512 -0.06645407879288896 0.12076754122105716
0.09697480125809253 -0.06564131958151896 0.11955600758538408
0.09807113548783837 -0.06619437701785115 0.12083877331716479
0.0801104037628248 -0.10604353391815857 0.12122284003285701
0.08103443800439761 -0.10523529407338081 0.12215210929096518
0.08136585336323535 -0.1048633273941838 0.12256110345312561
0.08165584264649214 -0.10403465552147063 0.12190213008607252
0.081736154252567 -0.10425137511477331 0.12271403022327007
0.0820498137155262 -0.10309924176823257 0.12134137419826013
0.08207242993511285 -0.10352718940973651 0.12233466454639415
0.08242740717872393 -0.10220957191943512 0.12088672626686861
0.08247847869720736 -0.10263223920081661 0.1218211932650156
0.08267335252709022 -0.1016535331091544 0.12062486408857433
0.08284130702340278 -0.10170547601728185 0.12124899293040778
0.08326318241919041 -0.10089572484116462 0.1210520191554468
0.08364296562288312 -0.10011178500506795 0.12087107390776122
0.0835299200260982 -0.10071268081500756 0.12180420083101107
0.08400432253794857 -0.09923359675017736 0.12047101705646356
0.08399106881196962 -0.09974190301016625 0.1216820052321568
0.08429153014749885 -0.09847728163087348 0.1199847117875382
0.08440077444873449 -0.09855950030261429 0.12095333402874084
0.08481312519379534 -0.09760165692205505 0.1206810102313055
0.08510901115214539 -0.09697831397953029 0.1206067619674469
0.08533665792632233 -0.09631021486815111 0.12020305535784188
0.08526471162787294 -0.0967386676473941 0.12124543538442953
0.08558357894714531 -0.0956080382124553 0.11972958469841655
0.085642941993921 -0.09573403780151779 0.12096393346152559
0.08608850046103574 -0.09474207816698557 0.12059309369136648
0.08652640366449048 -0.09408472410577556 0.12077976926589204
0.0869034991098614 -0.09349803504939846 0.11967588302245746
0.08708394069005608 -0.09333885504187912 0.1205514919079468
0.08754722781782254 -0.09267304035823998 0.12023917015500359
0.08791015614441364 -0.09213838591925586 0.12055856434954236
0.08822283992248624 -0.09146450548267128 0.1196903441344476
0.08828066353498679 -0.09156648971559976 0.12060604564294765
0.08842462525536933 -0.09100216516237511 0.11933909858105793
0.08856293204289714 -0.09097809689957376 0.12001770229844587
0.08895309490932393 -0.09021810987909412 0.12015240875067681
0.08927476501266858 -0.08944666947274714 0.11938804928035077
0.08932026350930558 -0.08953232240158719 0.1203479691372479
0.0894261273503506 -0.08897188815413136 0.11897578915652186
0.08958177399456153 -0.08889492734365122 0.11975054341800362
0.08996868931637735 -0.08804364168282923 0.11984727676252857
0.09030226005937772 -0.08717412933964638 0.1192181278694823
0.09035398790829513 -0.0873362144661817 0.1200645722749143
0.09057820511506848 -0.08644377901467276 0.11884465831768691
0.09066891114556058 -0.08669343201251847 0.11975924439658443
0.09074861104737211 -0.08595465521808948 0.11861697665785022
0.09096613213440444 -0.08588004495516655 0.11926195807009125
0.09128141062206105 -0.08509754339240864 0.11893384221690395
0.0914902740429205 -0.08449038081067074 0.11861879800610398
0.09163141997954209 -0.08466956185735373 0.119309805555031
0.09160032945090149 -0.08408564560102429 0.11833478419887675
0.09185503881162836 -0.0840157949514792 0.11891546771694117
0.09215772475899418 -0.08332055092894013 0.11857400366157132
0.09231613753422996 -0.08288845439467157 0.11836893902937798
0.09255679201782116 -0.08292118344254193 0.11891887088783369
0.09307731107951746 -0.08229415912495422 0.11930591254084652
0.0932372044388578 -0.08151206719639364 0.11880550948244552
0.0935096174456138 -0.08165135997443278 0.11953675772413233
0.09329323996694414 -0.08105831435127606 0.11851881354933015
0.09359400144322327 -0.08103187867911127 0.11913923183976695
0.09395497247596739 -0.08028969174180513 0.11930176897201067
0.09395783191836282 -0.07948277936823375 0.11883802348350828
0.09429930805543468 -0.07962488775723937 0.11953056533767563
0.09394349311842083 -0.07899459082952898 0.11858083201316845
0.09427736297981669 -0.07895236384850524 0.11916231847193598
0.09456150830504863 -0.0781271423376314 0.11929127140180412
0.09452088299394772 -0.07731888857273984 0.11892835960218134
0.09484161083208148 -0.07743506978371897 0.1194942917094176
0.09448352923466777 -0.07682373285435859 0.11872454383361881
0.09482416191661197 -0.07678514696363288 0.11925677412129519
0.09516867200242066 -0.07595777912403719 0.1194725583412141
0.09524077193895926 -0.07490207588868196 0.11926302433104556
0.09552055111576892 -0.07533086105248232 0.11984478290535576
0.09511725441464931 -0.07403774046116837 0.11882194573915379
0.09576705786079914 -0.07474183311465322 0.12002253591041895
0.09558224225553967 -0.07405185765085914 0.11954233260621379
0.09600495200778716 -0.0739624428568752 0.12012056058032738
0.0954164014425372 -0.07341444605736777 0.11912855287553069
0.09591257264510301 -0.07314885818861831 0.11976800492004407
0.09601898329785352 -0.07221464694216717 0.11966769732092197
0.09607121559237176 -0.07172855764140433 0.11964794365482313
0.09635634867017029 -0.07166053552365165 0.11996545149337107
0.09654892534813922 -0.07100753460677743 0.1200017402459183
0.09663688577069508 -0.07057429218203169 0.11994675834908483
0.0969031013435115 -0.0704527570690306 0.12026508168450754
0.09709613945643109 -0.06967074453115452 0.12032839709696395
0.09716608415234886 -0.0691655204292355 0.1202911636308153
0.09741376543640429 -0.06905072727875401 0.12061054642250092
0.09759381670798549 -0.06820803817402744 0.12070475262216113
0.09763422047078646 -0.06766026605536217 0.12070168634114137
0.09788413518143979 -0.06759364785792882 0.12098097011836216
0.09809319936385065 -0.06681299080006521 0.12102238638984138
0.09818152847614407 -0.06633059108439893 0.12098963178994605
0.09826634724274645 -0.0664972875212486 0.12114007460174765
0.08121077894271735 -0.10527166305042131 0.1227220642192234
0.08136798168065512 -0.10511834879922888 0.1230099456994567
0.08165650863495304 -0.10459420927732582 0.12317847286333351
0.08203349021809034 -0.10391222041886027 0.12317782656020533
0.08201925567529098 -0.1041312110585885 0.1235454487980406
0.08245892618201683 -0.10305979073632868 0.12284008465228768
0.08246986220514733 -0.10337123935136172 0.1235730985954652
0.08287323496277532 -0.10214108406221917 0.12231171788896396
0.08291384542412503 -0.10250981887865979 0.12330593995570102
0.08315064909068413 -0.10138252147561416 0.1218418379651933
0.08332182685554634 -0.10150425687833715 0.12274729376894239
0.08374578179591663 -0.10060767870380291 0.1226455993051113
0.08408599949816001 -0.09993210410434936 0.12294619989021931
0.08436705773876384 -0.09899248794194124 0.12219649342397718
0.0844093079226712 -0.09921574447447547 0.12310053395536821
0.08467775653131254 -0.09806435188523738 0.1217091659217116
0.08468048234654657 -0.09845042554183092 0.1227417120468294
0.0849744860158274 -0.09736690329403765 0.12131135512373703
0.08502734154556157 -0.09748464026171792 0.12227703021156847
0.08540872088178153 -0.09660678400203357 0.12220281348342084
0.0856859355327737 -0.09595399485019471 0.12261183897978406
0.08595245469977965 -0.09512767709751194 0.12169869060968096
0.08598492591385744 -0.09525681163229924 0.12270651025113943
0.08617388197717714 -0.09461164821937999 0.12128302390014228
0.08627868529568855 -0.09458557373173158 0.12205638552109209
0.0867990922426484 -0.0938409509851254 0.12210662056502547
0.08732902972684989 -0.09306247566085302 0.12129949503219233
0.08721817108637758 -0.09321392379967355 0.1223440881186413
0.0876438468004936 -0.0926420642977287 0.12091578284012584
0.08761978701545796 -0.09263539831222667 0.12176472368987194
0.0880722321784554 -0.0919466753624277 0.12189427847881898
0.0885033653973475 -0.09123296314868139 0.12109093863600334
0.08844598317727242 -0.09130477158428635 0.12210462261387253
0.08873877556186972 -0.09080306799789828 0.12063407595810455
0.08877368141796978 -0.09070200563535813 0.12148245032414395
0.08917590866602729 -0.08989395140958902 0.12159019322345546
0.08953158944363739 -0.08911799109454308 0.12087291401946877
0.08957571754512135 -0.08917102998372042 0.12178687203382599
0.08973989529789383 -0.0886571479832053 0.12044121792744926
0.08988126756089139 -0.08849907384208489 0.12119311493980418
0.09029927810115515 -0.08772378048489607 0.12082154269309803
0.09067396460960701 -0.08703745277758633 0.12064147817117794
0.09067500629123053 -0.08741364173338982 0.12136782211197654
0.09114252950864084 -0.08620444893541578 0.12050833445813999
0.09104236285472735 -0.08685702860361412 0.12140559227851005
0.09145258453058977 -0.0852852990338949 0.11985707727653398
0.09148127406891197 -0.08618878764211364 0.12173601112691812
0.09168993690422045 -0.08540851865363085 0.12092286479788665
0.09189112997182448 -0.08546180298910477 0.1217918641747105
0.09207036494051128 -0.08445252723077394 0.12020295615272211
0.09216991296004201 -0.08487311078843005 0.12135923886642869
0.09238025535418753 -0.08356627492001106 0.11945768100191057
0.09262913545801563 -0.08419961516262324 0.12135602916213523
0.0927220071919513 -0.08361773020458393 0.12042707733959646
0.09304757365799625 -0.08350999779926796 0.12125932738427862
0.09283510040888089 -0.08307357283187126 0.11973174207536973
0.09324650153325495 -0.08290767687923177 0.12055538606746925
0.09373211869753473 -0.08206678160087685 0.12049757075012388
0.09387314749113952 -0.08132774017715107 0.119947129959902
0.09412734414597776 -0.08142323532259768 0.1206127467772457
0.09392784770181486 -0.0808822668770374 0.11966703648646193
0.09423034908036745 -0.08083764822231586 0.12026527311858067
0.09459249109307095 -0.080068336223421 0.1204156144271344
0.09461547258421393 -0.07923573776979599 0.11994958130174108
0.09495445321580422 -0.07933934722431991 0.12063967842147083
0.09460598502614262 -0.07874608791374967 0.11966695836766351
0.09496979892639454 -0.0786038690041318 0.12024553502911763
0.0950901685452099 -0.07777056311572239 0.12004405710258709
0.09515723951359405 -0.07708561276792178 0.1198927802867754
0.09547471866376597 -0.07729168640199625 0.12046242982062855
0.09518124550055086 -0.07661231141312495 0.11973445888317563
0.0955544768550156 -0.0765299616434036 0.12027520018340644
0.09567886803157546 -0.07570665699228278 0.12020710357891425
0.09573427994813392 -0.07525531900376378 0.1201665152396817
0.09602248329669871 -0.0751627025834618 0.12052169114498093
0.09627176730828296 -0.07437639466509424 0.1205941779613962
0.09648298588791583 -0.07339212307718472 0.12059566279473127
0.09668631143255726 -0.07397734308963767 0.12105611415710707
0.09647653698247373 -0.07238846809897041 0.12027873778911961
0.09694159099080012 -0.0733404104557687 0.12118974639090763
0.09706971773478391 -0.07240469295207413 0.12109613244833987
0.0972914860360422 -0.07299212810542619 0.12156578966362022
0.09693277809302103 -0.07130700358305976 0.12058045936660979
0.09767005601429392 -0.07219077851456755 0.12193043630200574
0.09764570591439693 -0.07108870369029206 0.1215568903289678
0.09796290984096118 -0.07134211814834913 0.12216243490168285
0.09745208235231222 -0.06998702683022459 0.12092694716224585
0.09817445885773643 -0.07059281162000945 0.12235809856596938
0.09815100385651966 -0.06968817359327134 0.12193601812200983
0.09846965993213588 -0.06987940317687434 0.12254604999129892
0.09793635521062857 -0.06861239831631276 0.1212574063634938
0.09872494392508906 -0.06926485766574676 0.12267684215321832
0.09847462320038397 -0.06861274692735421 0.12209932088105058
0.09893228139356054 -0.06874917075538707 0.12281657680797452
0.09823637730825517 -0.06747453272585462 0.12138708750885242
0.08302940934597132 -0.10262775226028728 0.12392750211045568
0.08334622731376072 -0.10195922510375502 0.12373349161236354
0.08337984663369336 -0.10212672379108688 0.12415233584162427
0.08364814371338589 -0.10112890333234291 0.12342377054142598
0.0836994911053813 -0.10140297502021794 0.12402935669028523
0.0838418493347464 -0.10057276205287179 0.1232436575546441
0.08398182638522406 -0.10057934410866018 0.12377981606020055
0.08431987400931162 -0.09974085761778195 0.1237364970177619
0.08463851552657654 -0.0989097643493334 0.12367052587036441
0.08453325439241899 -0.09939021052942924 0.12415096785655565
0.08497685796492835 -0.09802097132200209 0.12342994877607832
0.0849093234186582 -0.09839194667722988 0.1241931355392227
0.08529100327350933 -0.09716396809910818 0.12315565695207892
0.08524605758314405 -0.09753825698153437 0.12406293855716534
0.08547698064979403 -0.09659261078897592 0.12295326295322889
0.08554967118939044 -0.09665141904650312 0.12369259680243233
0.08593032072740969 -0.09576461306799966 0.12381237155909477
0.0862437148399364 -0.0949233425268305 0.12317969172283433
0.0863290377398366 -0.09508832812484598 0.1240269805217787
0.08646956515506028 -0.09443497712099504 0.12271436769043863
0.08661706741575621 -0.09443842646571081 0.12350025059164561
0.08713776607875566 -0.09368191432457368 0.12348110653493129
0.08748717876620793 -0.09291550765098949 0.12285504213752149
0.08761385770154435 -0.0930612396892742 0.1236569931989707
0.08772755793337526 -0.09248570583583254 0.1224490767992519
0.08788628836919794 -0.09246378669757126 0.123186921241106
0.08838082115828239 -0.09173391263996854 0.1233194201199399
0.08867973459991438 -0.09092551795406154 0.12265371819250134
0.08882654359122714 -0.09104742157983862 0.12362245893291558
0.08889331426792174 -0.0904658411551208 0.12220437100042764
0.08908550874367868 -0.09035260978735775 0.12300159876725913
0.08950091549816692 -0.0895759636804307 0.1226937078945642
0.08998073623990374 -0.08879344483325738 0.12254917197638139
0.08982660436456087 -0.08932943255958498 0.12342658233990199
0.09037369743248519 -0.08799854385968661 0.12186791683669944
0.09026757981352904 -0.0888250713040399 0.1238986353763232
0.09055706848516006 -0.0881252863407198 0.12299893815001425
0.09077836531816422 -0.08814841640692557 0.12394465755323834
0.09094143391483722 -0.08738063489400479 0.12223820869105492
0.0910969626754083 -0.08753824214698724 0.1233410342366594
0.0912522981050902 -0.0868153896707764 0.12201825625187064
0.09146727875147685 -0.08676500594796344 0.12270823388189095
0.09200627368998694 -0.08585613932800645 0.12269516991139068
0.09229170959247852 -0.0850948662470136 0.12210747968710954
0.09247773724203198 -0.08514981948900527 0.1227247887628929
0.09246987347415062 -0.08468043354125432 0.12175505130624609
0.0926995853468149 -0.08457071614237616 0.12230293461716299
0.09315373636258105 -0.08379534710355074 0.12231719874309795
0.09345096148402221 -0.08306942929251869 0.12157655669387783
0.09366694506358687 -0.08309558996492691 0.1223863130876408
0.09360805786650599 -0.08263352340422837 0.12109132160422412
0.09393274113108754 -0.08246446818161869 0.12172109801730453
0.09425209093504633 -0.08171945348271524 0.12130615438417726
0.09446114047880315 -0.08110696893271466 0.12104679608166422
0.09467353293723159 -0.08130678273731275 0.1217430102703285
0.0945597074607946 -0.08067367738326568 0.1208133752523266
0.09486337063951467 -0.08061994077100623 0.12146261443234588
0.09512913038158016 -0.07978710978731003 0.12131290459282319
0.0954392182334904 -0.07890945766658322 0.12128238752558779
0.09553218806123664 -0.07952214924810619 0.12189552682687348
0.09551127142586004 -0.07796568458199109 0.12083474214275153
0.09599839664840293 -0.07896040312626401 0.12230892038591323
0.09597912642332113 -0.07808903691910171 0.12171529156628628
0.09640176892002475 -0.07817818248416834 0.12245853824039776
0.09605789700106539 -0.0770009651275747 0.12125520812348219
0.09647776098643446 -0.07745090006511349 0.12213783559446381
0.09610213482298292 -0.07587816246845476 0.1208823430583648
0.09661552139422705 -0.07673771851945314 0.1219939421997677
0.09669633071153237 -0.07590104158575758 0.12176798700278621
0.09694312893401125 -0.07633592772532549 0.12231258969966076
0.0966025302077328 -0.07485803741915398 0.12123088056731698
0.0973215097958003 -0.07567212222637283 0.12257285735426336
0.09727425473092714 -0.07474773279278733 0.12215894372252695
0.09761543292889281 -0.07493348549468125 0.12274290208636397
0.09714754068420679 -0.07383584868539833 0.12164070871531353
0.09784150979948249 -0.07426396753104794 0.12287285324297338
0.09764872122841746 -0.07367072998518939 0.1223769942916668
0.0980543996547344 -0.0734036010587748 0.12297677207927024
0.0975569230614419 -0.0730802406846038 0.12202451001616764
0.09798870113195007 -0.07263519213323319 0.122651791860991
0.09812101814404649 -0.07166913810310314 0.12252920781361223
0.09815697528417357 -0.0711326403883661 0.12247324670565686
0.09839352658454396 -0.07095745416684486 0.12281341596245968
0.098583648434082 -0.07020598015594423 0.12285922803612176
0.09869657815351786 -0.0697282364099177 0.12281716781609689
0.09889298535531763 -0.06965715006298893 0.12310401608312538
0.09904978556767889 -0.06904572542389048 0.12310837214905483
0.09909948528835058 -0.0687099437597082 0.1230588332435453
0.08401039530799649 -0.10081214466795857 0.12420369070374004
0.08423558164055633 -0.10019571649559132 0.12415159830696139
0.08523314012665423 -0.09772191881116994 0.12449997015021813
0.08553425541583526 -0.09698743458143122 0.12440877583328827
0.08572415853981288 -0.09645392195861752 0.12424849980926671
0.08588396067806155 -0.09624870869614771 0.12450722756560086
0.08630777133057707 -0.09543005583542064 0.12457394530315427
0.08662699883423736 -0.09476135019536361 0.12441950956179726
0.08669276375010498 -0.09487696723656786 0.12476026178707232
0.08683498440098382 -0.09429700614430175 0.12408825670193623
0.08699966857580892 -0.0942398900380523 0.1244265702034663
0.08759431396231726 -0.09337526285390603 0.12427076570856682
0.08796220780300655 -0.09276274017324346 0.12411574761482319
0.08810217644975565 -0.09280641810308785 0.12464909331800197
0.08814179154658425 -0.09233190531727231 0.12381651418466916
0.08834103039744874 -0.0922958336072308 0.12446305650741198
0.08884461745709986 -0.09150801759503925 0.1245880555401029
0.08928875418073838 -0.09067742109789889 0.1243595810671518
0.08932520651905194 -0.09107721345398287 0.125149119738119
0.08955430146241361 -0.08992259711569714 0.12374031619967228
0.0896913811023891 -0.09063651230169206 0.1253488065218927
0.08979340349507958 -0.09004989463623057 0.12470785291060366
0.09011136145039197 -0.09005312221426492 0.12539116647862117
0.08992668556530348 -0.08950993896498265 0.12416939072492639
0.09031394813693112 -0.08941255129326876 0.12492162684618449
0.09089493582475694 -0.08852412866704788 0.12492442802678548
0.09124527482108971 -0.08769866176892965 0.12430138234009945
0.09140134447826659 -0.0877564466337789 0.1250520344617203
0.09159370150458275 -0.0870062637991866 0.12369983628359767
0.09173000931225964 -0.08711061561481627 0.12462015564121486
0.0918192557952509 -0.0864965600578525 0.1232377600892146
0.0921128670070879 -0.08630680295846302 0.12387701574521677
0.09251685461655033 -0.08544586242041347 0.12341212447983096
0.0927777010760898 -0.08475902185954344 0.12309133848953403
0.09290619308703789 -0.08495152342637523 0.123776747953608
0.09293800407170386 -0.0843180712416451 0.12281523855157268
0.09319084047392957 -0.08423678711238727 0.12343567415367793
0.09365994008428415 -0.08346605065030006 0.1231766002688702
0.09419425098708768 -0.08270358910193877 0.1229408569154239
0.09407929744852522 -0.0832099637099698 0.1237154708019912
0.09452844795278242 -0.08190223529861211 0.12225457899024955
0.09461753731021527 -0.0827294527445106 0.12398093534947623
0.09481387651324054 -0.08201404107417086 0.1232461606480924
0.09509301497536549 -0.0821016116640811 0.123994154901484
0.09513502870250613 -0.08110528804546059 0.12265754028807789
0.09529101393287207 -0.08153699169561265 0.1236727389049024
0.09535724868831622 -0.080183959276714 0.12213196124767672
0.09570498247575526 -0.08089647358501241 0.12371758274175147
0.09570348936295783 -0.08028350081361187 0.12297084550136504
0.09607792882088155 -0.08019900062588614 0.12364452756830087
0.09575942189811729 -0.0797146981407621 0.1224794092108373
0.09617698601302388 -0.07955156642088379 0.1231661594310332
0.09665123276523081 -0.07864936996437226 0.12324459500025908
0.0968864530763785 -0.07767271586722378 0.12293763796035691
0.09706281002758224 -0.07803241270696407 0.12349144471739083
0.0969089104054533 -0.07692683619575001 0.12253429629530076
0.09736791333529711 -0.0774874659285806 0.12362102354633708
0.09728739525816343 -0.0768908698095808 0.12314288258372097
0.09766202940775472 -0.07677089641068682 0.12369700735539303
0.09722316742043324 -0.07638782536067976 0.1227625443140207
0.09766286298682703 -0.07606586423447234 0.12332376648651049
0.0977865982721437 -0.0752124741615773 0.12313474985712626
0.0978351435582547 -0.07475087703244897 0.12302606121686979
0.09811226909570546 -0.0745740788520231 0.12340143719051795
0.09833055070225516 -0.07373069151921133 0.12349129074859079
0.09851772357624118 -0.07271924305406603 0.12351381709693328
0.09873544034906581 -0.0732404402338625 0.12404108749674272
0.09849869873972802 -0.07170551748958243 0.12317043751520539
0.09897188174517406 -0.07258607875726104 0.12421375767978683
0.099008034432041 -0.07182513213582178 0.12405031978055475
0.09931896275320667 -0.07222679202378612 0.12468407862368604
0.0988002513536775 -0.07057198727124452 0.1233311292165416
0.09967121829160525 -0.07166254678518215 0.1251454414464167
0.09988312063220062 -0.07122447530781564 0.12538769196460658
0.09905486972990206 -0.06959053015996328 0.12336600789831743
0.0883601547292999 -0.09248567549344182 0.12490388209046589
0.08852404176350623 -0.0921438761479516 0.12486858704873145
0.08934853339383632 -0.09124354689056521 0.12539267418383876
0.08951549456862895 -0.09104700229282015 0.12552202388967146
0.08970506768324102 -0.09091863215548447 0.12569579955153387
0.09019214905668896 -0.09029781671340803 0.12581604914799807
0.09055350107836115 -0.0896589194213588 0.12565994931503852
0.09068323643978757 -0.08972357593068488 0.12595929373703796
0.09072128018302632 -0.08917159503529175 0.1253878396618508
0.0910655761499395 -0.08894956435636392 0.12577920460722047
0.09148235516097808 -0.08808501513301036 0.12567756316046183
0.09182456928523916 -0.08734448818437306 0.12547091852694528
0.0919890127732209 -0.08763575116242925 0.12609449185764218
0.09230933748105966 -0.08651304533579675 0.12508740223953288
0.0923315163987955 -0.08699022765688212 0.12597328803035526
0.09269769200516514 -0.08563449768212292 0.12434518923584585
0.09263408708517393 -0.08636237038558356 0.12579654888775732
0.0928823596582996 -0.08578157329714393 0.12530863716046897
0.09298544087680517 -0.08598484073786773 0.12599993125371162
0.09335856634003184 -0.08479720675203935 0.124657410256938
0.09336887180420672 -0.08539159584267675 0.12575878139057622
0.0937387551683026 -0.08381635009459767 0.12405390161923996
0.09392483873434408 -0.08464580457961202 0.12568725693845362
0.09403896281764794 -0.08393834236911027 0.12484818178333708
0.09440205355237258 -0.08388719182402439 0.125466520214938
0.09420638172263913 -0.08336757014694665 0.12431566465684048
0.09461713970298011 -0.0832489238408631 0.12492955867611266
0.0952105785449801 -0.08245349515761496 0.12484625444044078
0.0954507020028812 -0.0817543624486608 0.12431627088066874
0.09569103694367619 -0.08181850683473574 0.12483628188497722
0.09556502029509237 -0.08136012305704211 0.12406093175275879
0.09586471555512555 -0.08127112362767248 0.12448706559872416
0.09634301032684284 -0.08050967124729493 0.12447180068729571
0.09649697439105447 -0.07974114915585434 0.12390901400725596
0.09683065679318457 -0.07976555205754 0.1245452169159405
0.09656739933570255 -0.07926707373265789 0.12360570949059507
0.09694722268333773 -0.07909331004170438 0.12411034826793077
0.09716194224048537 -0.07835672135377456 0.12388379016912436
0.09727737045876987 -0.07794753472183968 0.12377720733789256
0.09754286157542197 -0.07786424770267789 0.12414479949430722
0.09784736926331344 -0.07715511192392994 0.12420679507477686
0.09818040091817361 -0.07622300066718476 0.12423079357212494
0.09828064609997209 -0.0768535694192347 0.12475547729533011
0.09820370526251665 -0.07524127788916891 0.12383209371649183
0.09873382052241807 -0.07617008737592387 0.12520208248714312
0.0988038521749805 -0.07516586359318174 0.1248136776079933
0.0991018927150277 -0.0754754509907042 0.12542550717572173
0.09867969028286983 -0.0741484722193874 0.12421345203125277
0.09936453412485269 -0.0748418350008728 0.1256442930679482
0.09932030396434383 -0.07398122464266296 0.1252792651495752
0.09959569895747553 -0.07417307797625247 0.1259240074213522
0.09919094664980915 -0.07305160069557466 0.12474254595104868
0.09984346197069009 -0.07355710860745142 0.12609954306389778
0.09970673654624611 -0.07292650760708111 0.12556027565067174
0.10010929141243965 -0.07279615031185593 0.12617702549995896
0.09960829462886532 -0.07231900164490855 0.12520129553165962
0.09997262368332957 -0.07211755212277163 0.12576678135125982
0.09993388144921687 -0.07139361926615653 0.12552214383986213
0.09188393285448071 -0.08813247541106826 0.12635036983236872
0.0924108699444229 -0.08795627175467374 0.12695701941344384
0.09256454718866915 -0.08744572313086085 0.12674597456067047
0.09285235451128089 -0.08763431994105896 0.1273126108137946
0.09281823854633002 -0.08656070942431517 0.12637674843447377
0.09308876423140605 -0.08724654210834785 0.12731413584018875
0.09316055890033365 -0.08670990403433826 0.12697549877610756
0.0933977463895003 -0.0868483139815907 0.1274418718173006
0.09337154911059027 -0.08587525693766926 0.1264865481172103
0.09355346892063852 -0.08622349702043136 0.12713110498082156
0.09367831167102103 -0.08525063684947778 0.1261729097672478
0.09400218257723539 -0.08506515673644592 0.126537066290656
0.09452423623768198 -0.0841598995634835 0.12617033443557277
0.09482835813095525 -0.08346175561006379 0.12571128428911246
0.09506296952071265 -0.08363146264896441 0.12641009012596394
0.09499523631714776 -0.08299684412794353 0.12536157523504116
0.09537261797837568 -0.08289941995366461 0.12591708616267175
0.09579271472418968 -0.08211132259869124 0.12548009236758428
0.09609002088139157 -0.0814933619115167 0.12513657234661232
0.09628789944850945 -0.08167962565069294 0.12581767682293976
0.09622745715563619 -0.08106690277882508 0.12487420366879333
0.09658790446686318 -0.08097494249928441 0.12544431253671473
0.0969710584248359 -0.0801307599382912 0.12520098907950344
0.09734314991910681 -0.07929415513210875 0.12506247207251475
0.09743020691640915 -0.07975769919563722 0.12568431727043397
0.09751469329500942 -0.07847957753655133 0.12459115124901661
0.09774002274776925 -0.0792477271155173 0.12575518268950941
