# .PCD v.7 - Point Cloud Data file format
VERSION .7
FIELDS x y z
SIZE 4 4 4
TYPE f f f
COUNT 1 1 1
WIDTH 790
HEIGHT 1
VIEWPOINT 0 0 0 1 0 0 0
POINTS 790
DATA ascii
0.0798697983512528 -0.10230649029096643 0.0966875286919025
0.08046570928188851 -0.10172993605211464 0.09641611977707173
0.08082250846397858 -0.10128280553176708 0.096018515898286
0.08079896875164333 -0.10139824617804666 0.0966808324371056
0.08147109846215657 -0.1006332461944305 0.09656483757285175
0.08217072120348513 -0.09993451759253265 0.09644172712766852
0.08283087905787466 -0.09925451786574244 0.09633946073924794
0.08342612986546649 -0.09871363304263024 0.09627699528839172
0.08383404601210932 -0.0981370674333697 0.09574948028865582
0.08428302033491525 -0.0977073558869478 0.09603709654341716
0.08496131482508462 -0.09704441190029162 0.09596968535600119
0.08560130039030646 -0.09641327290592396 0.09588271412337006
0.08601265486014742 -0.09596222135708242 0.09563500979543947
0.08619158299163274 -0.09564193866423754 0.09531157071815163
0.08635070808955227 -0.09570856354967419 0.09584420297627523
0.08684462112955228 -0.09512972974079796 0.09576996607425933
0.08725584825352073 -0.09448955726084864 0.09569681330174143
0.0876167392817925 -0.09389926077221013 0.09565679912880899
0.08780811526057167 -0.09340350825700429 0.095528535676859
0.08783439918995462 -0.09302473865636891 0.09527042873735654
0.08805228164985719 -0.09314349243116933 0.09580532263843629
0.08832782218834533 -0.092513459011319 0.09581117832959464
0.08858573034190453 -0.09187379709407738 0.09581493189563672
0.08883049792857065 -0.0912654735240555 0.09582101506018482
0.08891222141157003 -0.09074602983352027 0.0957183015480812
0.0888475207588278 -0.09032556143443948 0.09544057779840942
0.08916964260424164 -0.09044820110906537 0.09591384566491308
0.08940093987402185 -0.0897854603473394 0.09590835445672188
0.08960939108477205 -0.08924997561272478 0.09596564921676955
0.08951059006824973 -0.08864577794732814 0.09560778515023965
0.089798861104659 -0.0882909603439319 0.09592415732279665
0.08996444868516604 -0.08756772818733748 0.0960247497336075
0.08991067613867686 -0.0869333851887156 0.0958864196298117
0.08973830258362094 -0.08648103406512082 0.0955845224919967
0.0900099870426883 -0.08653519354942768 0.09602280609709726
0.09009588710730186 -0.08597194409544315 0.09614425391708711
0.0901361932874833 -0.08537923416709742 0.09625309552649475
0.08989710624345032 -0.08469018297195191 0.09584796673409586
0.09004538327066702 -0.08425493292769809 0.09622372152536597
0.09011288206882222 -0.08356723326475678 0.09645940700341266
0.08983473262546544 -0.08276914338806185 0.09606089823947322
0.089887017993333 -0.08219437699887751 0.0963312699255586
0.0898270555372362 -0.08147037584924995 0.09658658043213816
0.0895958369695714 -0.08072371309179355 0.09650541241492268
0.08929663732125118 -0.08014991594278767 0.09621902823619596
0.08956833223193411 -0.08023308222881605 0.09672541492013939
0.0895161833591787 -0.07959824868863646 0.09700784816076716
0.08903610064359763 -0.07865878044943037 0.0966918547803688
0.08900565996009438 -0.07798107278888827 0.09702109937157821
0.08889969648837999 -0.07731194503014441 0.09733175725033628
0.08840066453029258 -0.07632217220332511 0.09706570418289366
0.08839947646747373 -0.07580438686545603 0.09758576788108374
0.0881245713166405 -0.07492870441809334 0.09794800520908659
0.08746134782409502 -0.07385002928921526 0.09773195328677745
0.08745492931024962 -0.07321162990935551 0.098293055362777
0.08688495967896871 -0.07207124459596428 0.09832591295067111
0.08622018192226091 -0.07120106364910261 0.0981080610481352
0.08659279338093656 -0.07127433461666528 0.0986321106813223
0.08608090555988547 -0.0700789184588983 0.09903952017463427
0.08564175397517648 -0.06895337232921588 0.09903572015951444
0.0852416117187631 -0.06822945106611837 0.09876860446011222
0.08566484188440864 -0.06835267495257068 0.09932606124660473
0.08573451601503564 -0.06791511250640456 0.09963886165403868
0.07158319237867933 -0.11219357968418901 0.09884751604140525
0.07211729754611353 -0.1114688934569147 0.0992199850153293
0.0728032022869526 -0.11075715645491334 0.09896130145358449
0.07341216631263865 -0.11006865384825505 0.09895711754412705
0.07411879228806265 -0.10926256769146542 0.09883031804138814
0.07492764698266077 -0.10842636428239343 0.09868627460745265
0.0757236593249275 -0.10748447988670023 0.09851931508792379
0.0764535973494356 -0.10657268184107546 0.09836872118617442
0.07718420012246678 -0.10568878212432055 0.09820897503513493
0.07791587700353414 -0.10475459885506781 0.09802309310101916
0.07859777600618552 -0.10384799787063094 0.0978074545706375
0.07930239594460026 -0.10304017470095808 0.09760139964787498
0.07982955631531473 -0.10241336593902567 0.097335428987523
0.0802247201640491 -0.10199255106240594 0.09694449138557666
0.08016644308581339 -0.10209674414426147 0.09761515929704996
0.08091906935389907 -0.10135080466070386 0.09746379885248133
0.08164588422414863 -0.10062199888979775 0.09731557294355116
0.08235733379879207 -0.09991228550194645 0.09716926271999542
0.08304299992022367 -0.09924030197483993 0.09702699655744607
0.08355315080561315 -0.09873366243911706 0.0967495886266625
0.08382533095598795 -0.0983307309021894 0.09634210888251835
0.08388673643082285 -0.09836997233043737 0.09696009795521769
0.08454836627074225 -0.09767674821005068 0.09684937274835718
0.08526375492850195 -0.0970151044109044 0.09677128110179109
0.08575202762155483 -0.09646551641766009 0.0964808533533609
0.08597668141102903 -0.09613326729927638 0.09608395107174995
0.08613594983876591 -0.09616547485757537 0.09656597554547089
0.08665888448285465 -0.09571273410698761 0.09654311379915054
0.08721767279868137 -0.09509340057442904 0.09649302663088187
0.08758001058010932 -0.09443236436771851 0.09624022721258425
0.08781635047389967 -0.0940263656403443 0.09617595805365436
0.08788806937939436 -0.09366441194563252 0.09593320055488237
0.08808005371305079 -0.09379938802643317 0.09647244425781396
0.0884048525223228 -0.09315079310527127 0.0964579644236042
0.08870352541823232 -0.09251725152308415 0.09642690882480569
0.08897772460605508 -0.09190018195383207 0.09641057397996357
0.08910677336553571 -0.09138272085239381 0.09628171359435408
0.08908341893729743 -0.09099219841445272 0.09604768441485231
0.0893559268846413 -0.09112260277809119 0.0965285337397838
0.08958746811331013 -0.09048299611280594 0.09652792450239547
0.08980669728451486 -0.08984276425606008 0.09653131261857084
0.08986808396951365 -0.08933734770365534 0.096384402599562
0.08978905918093992 -0.0889184324810072 0.09608079212486674
0.09008547759087793 -0.08906125291999882 0.09660188143825095
0.0902447968366146 -0.08838190718734175 0.0966003370067804
0.09035216862714801 -0.08782902088188277 0.09669966946451342
0.09020005961179922 -0.08718700941801885 0.0963574398970844
0.09041229114840048 -0.08682350928812885 0.09670568154301729
0.09048384782523806 -0.086064925177114 0.0968392762809769
0.09034320550678425 -0.0854189629759779 0.09669565584115217
0.090170949137852 -0.08494685517714935 0.09635937816448066
0.0903853844277821 -0.08500135388576335 0.09682812844035359
0.09040635641497567 -0.08438900439643554 0.0969842771687418
0.09044284119043014 -0.08373081052322572 0.09710682090945565
0.09017775183778141 -0.08299744034200986 0.09672544351295785
0.0903106768496933 -0.08248736009630929 0.09710938317830685
0.09021318704931489 -0.0817697718478579 0.09733151228931353
0.08987623441042013 -0.08103517035599934 0.09704022872272548
0.08999097564143979 -0.08057760734944407 0.09746806946594938
0.0898912191373755 -0.07984870941430922 0.09769930770169273
0.08949647703421687 -0.07898645064123318 0.09735647703284316
0.08954204152321861 -0.07839406864345046 0.09788426964149752
0.08917749054169004 -0.07746508250468782 0.09788888949696357
0.08882416911696116 -0.07678895331899424 0.09759439621972153
0.0891060127371529 -0.07686920512625565 0.09812974423686531
0.08890849070871097 -0.07598195961819301 0.09843334569183498
0.08850873794155177 -0.07505662401457638 0.09846344223634154
0.0880304634069029 -0.07433804836518419 0.09823375665817621
0.0883969929734679 -0.07448126760711493 0.09874619072622873
0.08815426789013586 -0.07370294343943525 0.09912701960598533
0.08739023309871793 -0.07249708210703261 0.09888769242654531
0.08712792606066588 -0.07159713758593504 0.09937715934018536
0.08681710814399718 -0.07062837986013765 0.09982714301332932
0.08614485632520907 -0.06939890493754917 0.09960897540725291
0.0863000431097283 -0.06868288747441965 0.10023956576753998
0.08610449067286596 -0.06796417967269888 0.10032630664946278
0.07203722565425737 -0.11136271761765978 0.10014832119784113
0.07206464240599131 -0.1111765501194969 0.10083920354132886
0.07252912616413335 -0.11076345905668734 0.10000117214206913
0.07335304016467746 -0.10985443194667392 0.09965849208428518
0.07401019475629288 -0.10912414281097821 0.09963603609991208
0.07485152570456702 -0.10828047539142974 0.0994919273131396
0.0756715426296559 -0.10737250130835567 0.0993616222565961
0.07641506470055182 -0.10649977518086225 0.0992293546404084
0.07718637463388557 -0.10562878051753301 0.09906881549683068
0.0779912197342822 -0.10465802996980737 0.0988969046904383
0.07876811635779238 -0.1037632086855682 0.09844654802643506
0.0792723715167617 -0.10320643254069106 0.09826605231478529
0.07963633654261737 -0.10271263661148738 0.09787432975200033
0.0795675508192752 -0.10289657888479718 0.09859110250696915
0.08031228713185341 -0.10208098501324187 0.09842641834339452
0.0810761346559175 -0.1013186197445181 0.0982335268560572
0.08179027786889818 -0.10055561316041094 0.09806679959395427
0.08252199627978572 -0.09982490558864589 0.09790564593841504
0.08303967437177583 -0.09926295743498019 0.0976206752759537
0.08339883515136795 -0.09891830994754419 0.09722624469569383
0.0833641665672287 -0.09895938990290078 0.09787166157752898
0.08407025274552285 -0.09829227181421783 0.0977445087699096
0.08474555686371946 -0.09767597823910638 0.097630740039273
0.08534513093503694 -0.09719046866431591 0.0975851428701777
0.08575923341973697 -0.0966524431258231 0.0970662244767977
0.08627259958017126 -0.096355148510106 0.09734934964096166
0.0869761375345685 -0.09577326515759213 0.0972879238835595
0.08738860482627203 -0.09528111583834056 0.09712760807392458
0.08765211994939398 -0.0948129571219688 0.09683595759998075
0.08768128634147508 -0.09519158175216551 0.0974580145270581
0.08785113648912861 -0.09431375723307184 0.09657177378978023
0.08804931290642024 -0.09451755118217896 0.0971849962339816
0.0884444282037328 -0.09380718016013037 0.0971342500029091
0.08877239062212587 -0.0931488401983689 0.09707053550209549
0.08907123270956144 -0.0925316337733216 0.09702176405637887
0.08922803775350788 -0.09204713327249056 0.09690590833778082
0.0892334142290676 -0.09164790719677045 0.09666197298736673
0.08949259903235382 -0.09179784631272972 0.09714878723215015
0.0897540592608233 -0.09115672729478132 0.09713289267288512
0.08999237983292196 -0.09050759774551032 0.09713347361460217
0.09009422514883013 -0.08999918892413723 0.09699808194715184
0.09004167604011255 -0.08960345197361644 0.09674924548095891
0.0903228689594786 -0.08976661505581168 0.09723042975134753
0.09050514876278266 -0.08910452756209074 0.0972123709515184
0.09063852288520204 -0.08845531256149874 0.09721688071947367
0.09062606598010543 -0.0879028274167889 0.09710411056291501
0.09047631947125154 -0.08746561507086294 0.09684821971039105
0.09079401319348299 -0.08761270337816203 0.09733524581903372
0.09085115924254208 -0.08690473355583991 0.09737376078824019
0.09089831017787801 -0.08631675390738776 0.09747640099386451
0.09061158450051965 -0.08567959104682402 0.09718061693535167
0.09077138872511852 -0.08528937520902538 0.09753294391966237
0.09079228008843639 -0.08447096525928817 0.09768704493665328
0.09067755553430516 -0.08374333314839184 0.0975494089611006
0.0904921975349868 -0.08323543664571559 0.09722622810152241
0.09073399567516857 -0.08325699478385272 0.09770534578505807
0.09068241161603846 -0.08253590786601783 0.09789711661101752
0.09042816114479049 -0.08180623839110733 0.0978172456608554
0.09016367438503435 -0.08130853238397967 0.09754570458537738
0.09041632262850559 -0.08134442104864005 0.09802104450218208
0.09036433205842996 -0.08062521702392257 0.0982530920936409
0.09011698899320832 -0.07988361417226304 0.09821461020698888
0.08981941343235408 -0.0793344525987061 0.0979351363880041
0.09009598109759402 -0.07939850569485059 0.09844313449581149
0.09007334083484593 -0.07876205744699148 0.0987240247906327
0.08959739350964223 -0.0778070771815507 0.09842607587881068
0.08956627255584486 -0.07715804088526103 0.0988210681374854
0.08945932855330982 -0.07647078244799906 0.09917720616097339
0.0889928983997186 -0.07550265359646775 0.09894175136513988
0.08899492558444785 -0.07498888986526772 0.09946361094530055
0.08863377324543718 -0.0740479178948327 0.09982827072165988
0.08797954801506813 -0.07293117585694307 0.09959723341939282
0.08788454266947765 -0.07212142062700445 0.1003037001500415
0.08722408396349646 -0.0707905804845828 0.1004616683667458
0.08668593889672488 -0.06987809654263472 0.10016740241896356
0.0870671422119654 -0.0699408220140154 0.10075535505342331
0.08689175342990568 -0.06900644830198471 0.10110548255354669
0.08668919994060004 -0.06809943530573856 0.10121858999736447
0.08685139281078742 -0.06736262802194921 0.10159241469488559
0.0723171730775613 -0.11075168192564297 0.10102965834367492
0.07211528964399658 -0.11094758527101137 0.10177316419293635
0.0724639038523508 -0.11044373451451459 0.10156510073005616
0.07307605034850029 -0.10983843701629324 0.10066302885343949
0.07401014928912046 -0.10889190174630524 0.10029805916016656
0.07476841060524134 -0.1081594872305915 0.10030296698807382
0.0756116697934252 -0.10726616710788293 0.10018878343900318
0.07639195044846542 -0.10643557915732467 0.10005185463202827
0.07719220058368984 -0.10560339650373328 0.09994091004124947
0.0778446109834493 -0.104878788217375 0.09971408631746013
0.07840732137130257 -0.1042117729896814 0.09928408628834776
0.0780346465545408 -0.1047089071434237 0.10013052327910232
0.07899217326251863 -0.10358263532951828 0.09884548243901488
0.07885966903273553 -0.10379084636853506 0.09965214152199464
0.07967454102813727 -0.10285433189657413 0.09943862474874669
0.08047022037757895 -0.10204455789919166 0.09921503945169108
0.08121309364869042 -0.10124173260494879 0.09901548246088407
0.08191285812349498 -0.10046962979327942 0.09885366151236974
0.08247608939055351 -0.09991011299900675 0.09856234797177521
0.08285165329789733 -0.09948698422392654 0.09815056367062791
0.08280774052712384 -0.09961683448027206 0.09881413852433615
0.0835242200032336 -0.09892920203091403 0.09865568494591277
0.08424978795781038 -0.09828156984493362 0.0985011783641762
0.08494955886439251 -0.09768240587901757 0.09835481061439137
0.08547776817445253 -0.0972448053737856 0.098073637614975
0.08576594044066611 -0.09687697716925461 0.09766631331580373
0.08590113976756114 -0.0969835600624697 0.09825649630616547
0.08663471892868138 -0.09638847558651042 0.09809565155173622
0.08712038856797784 -0.09594451180426443 0.09786334296402197
0.08734987427003116 -0.09559087742805973 0.09756697471680786
0.08748364866306338 -0.09574744250830813 0.09810487742430603
0.08802417811800489 -0.09516488993167072 0.0979751031115841
0.08845315918249534 -0.09447808680206378 0.09783511220265437
0.0888568881819784 -0.09378674849551333 0.09776575759917079
0.08911498276698383 -0.09311158648997794 0.09756142237238362
0.08931318117528081 -0.0926973444702164 0.09749414496644912
0.08934839733632473 -0.09231661386551386 0.09726094241357192
0.08959420512156505 -0.09247682363723708 0.09776908935381924
0.08988549137325591 -0.09180489179898389 0.09773774221745224
0.0901365396724275 -0.09117813054895012 0.09773359852394789
0.09025682135179368 -0.09066209334995777 0.09763921384087046
0.09024140771310109 -0.09026970053971689 0.09737652136353399
0.09050637273383723 -0.0904412567267086 0.09786571345235483
0.0907196477017904 -0.08980720665208886 0.09785245025491186
0.09090717631136977 -0.08915036354700587 0.0978330378315092
0.09093089281570697 -0.08861338250001732 0.09770870014270615
0.09082894992322954 -0.08818261472315254 0.09745890975750525
0.09111382184372782 -0.08835149350606859 0.09795660193897777
0.09117805383275382 -0.08766430328934864 0.09796587940234992
0.09123747703428522 -0.0869716337035381 0.09798520907012784
0.09117044128118487 -0.08639404994596135 0.09787160807838341
0.09094256888569852 -0.08595357020659683 0.09762953986515203
0.09125324613705907 -0.08610263688991528 0.09812966114194449
0.09117391801318496 -0.0853760188490174 0.09823214426332565
0.09118844226688294 -0.08474201507187337 0.09836515579632812
0.09095577032768991 -0.0840141641214631 0.09805645467068297
0.09114128113290257 -0.08357238931665299 0.09843179919944772
0.09109662865280352 -0.0828414349034369 0.09860629706227962
0.09072119597492953 -0.08209900782530517 0.09831891501790045
0.09082751800033813 -0.08165949757850392 0.09874818784443515
0.09076191240371795 -0.08094790518044252 0.09898474717164836
0.09044287479834999 -0.0801847068095688 0.09870300455029761
0.09056030784566609 -0.07975955714724887 0.09914208131214247
0.09047712480020097 -0.07901719324796787 0.09939456718535555
0.09005838622070368 -0.07816175236621285 0.09911235077629098
0.0901641131606882 -0.07758065348660399 0.09964987346143855
0.08978422528234806 -0.07660223888262715 0.09969592098345009
0.0893954323557034 -0.07593893240805022 0.0994583933364257
0.08972092495853536 -0.07601081200870534 0.0999574647662102
0.08942320602416866 -0.07507797655834617 0.10024131197848656
0.08896631490827604 -0.074148897058938 0.10031467806864373
0.08848718819364614 -0.07340267324239941 0.10015327398362715
0.08895457681905512 -0.07364037203029528 0.10072240360225973
0.08860576771285951 -0.0726278424710781 0.10113366923925035
0.08796512591854082 -0.07132509906016113 0.1011986848636774
0.08744774968295298 -0.06994314009419625 0.10143207827100441
0.0871680794518186 -0.06911066624787947 0.10162094065426125
0.08694549011973338 -0.06863338888761622 0.10150001992869592
0.08736315618215994 -0.06866841410641089 0.10209999343575883
0.08714297831500044 -0.06757590790345744 0.10199158733611342
0.08707711838548389 -0.06713291264086915 0.10193052786446682
0.08751288703101212 -0.06712331621677992 0.1025712930988247
0.0721255312161535 -0.11090969450833167 0.10250620773253587
0.07292991842076496 -0.1098548052393057 0.10163011534556785
0.07249286856434203 -0.11035353626915034 0.10241314693178684
0.07320881907251185 -0.10945124840406364 0.10208116846369383
0.07373277917488703 -0.10898427487065065 0.10120320106968932
0.07476985495289737 -0.10797771468617685 0.10111231296084325
0.07561519088882786 -0.1070914961236417 0.10096199234620637
0.07639116292519109 -0.10634619610686913 0.10077818844126996
0.07696739348263215 -0.10580616106802153 0.10068214889792684
0.07749087852713986 -0.10531506496027626 0.10030747758128122
0.07728407435398296 -0.10547657289705106 0.10101471186652983
0.0781702388938202 -0.10457548054401798 0.10078115207316249
0.07901434533421968 -0.10366317216675908 0.10048592728305676
0.07982195381099674 -0.10277990695485628 0.10022334593908766
0.08059169603056862 -0.10194591423799038 0.09998197612045132
0.0812982189785704 -0.1011311705405365 0.09980418215152531
0.08185449711735289 -0.10056769711472084 0.0995178337808658
0.08224869946222167 -0.1001740242362423 0.09910340509158513
0.08220329807946324 -0.10027588446394518 0.09976662832206161
0.08294984356785885 -0.09957408942194297 0.09959000622796649
0.08368043264431616 -0.09888820480375837 0.0994087229126772
0.08444435039213243 -0.09825539234406581 0.09924267242869642
0.08499515274141128 -0.09775295797127484 0.09896467358651118
0.08534870330480782 -0.09743369222480505 0.09855828534871418
0.08541187475230655 -0.09753870232519067 0.09917435173688255
0.08622786123323335 -0.09699343141994946 0.09897854888402831
0.08675952358138923 -0.09651135838396932 0.09870269878019654
0.08704629002090669 -0.09617680481525533 0.09832461596328841
0.08716210513500329 -0.09632432599882225 0.09890827100276146
0.08781109598535031 -0.09575809761080292 0.09874911204883292
0.08841596637963725 -0.0951393794266696 0.09863778146138708
0.0888046770656929 -0.09443661451073981 0.09836936549564296
0.08908095546237055 -0.09400592016087758 0.09832726362452054
0.08924483247040156 -0.09349575841166878 0.09810751154857338
0.08935233292748257 -0.09390700101365036 0.09866614191789903
0.0893892128108769 -0.09299626982254353 0.09787298656485394
0.08963762145296802 -0.09319152933785098 0.0984243563076111
0.09002687454346624 -0.09246681853439863 0.09839871365399647
0.09024071190156155 -0.0917793531810102 0.09822397181446274
0.09039177844783472 -0.0913337480255356 0.09819577729659912
0.09039305230945485 -0.09094331834491105 0.09799206702275881
0.09064661039601887 -0.09111209309750959 0.09847275975728814
0.09088829084164408 -0.09048262150701518 0.098476136573902
0.0911126443753484 -0.08983062070869711 0.09847200014454048
0.09118232046196197 -0.08932570936972964 0.0983314212871178
0.09112220068556977 -0.08890641383162276 0.09807230463660829
0.09137456882956618 -0.08907678716069531 0.09857729719661111
0.09148567783116178 -0.08839524978119474 0.09855258992394096
0.09156139828378075 -0.08772323581659863 0.09854237051414609
0.09151784407455033 -0.087153448339805 0.09843668519924227
0.09139017139948372 -0.0866905106323221 0.09821375095899333
0.09165632269868786 -0.08688291181389063 0.09869477761861635
0.09162560043834941 -0.08615647776749798 0.0987509008502399
0.09155149828510764 -0.0854468806702393 0.09884390541354815
0.09143419623003976 -0.08483482468600656 0.0987806026269784
0.09126948295493441 -0.08432037948962334 0.09853639370739274
0.09157086282614414 -0.08448312674906627 0.09905368943195804
0.09153133511263396 -0.08363403835336959 0.09917236724854707
0.09131687674313936 -0.08290100662988319 0.09907596552097826
0.09102619454284983 -0.08238658796695615 0.09881427612009273
0.09129081588259126 -0.08245406319630501 0.09928119901298432
0.09123634736429578 -0.08175165023125126 0.09951904205737855
0.09099658081691075 -0.08100852839353911 0.09947994498851932
0.09072539446275998 -0.08049983045290518 0.0992108780184996
0.09099119465185486 -0.08055147229772387 0.09970376880601844
0.0909537425350621 -0.07982004627568874 0.09988080274073473
0.0907510797261485 -0.07909275227567202 0.09985893864969697
0.09044841636175266 -0.07851462713388961 0.09964971699836438
0.09082916519130335 -0.07869365161923488 0.10017743329312254
0.09070995003447856 -0.07790875760067335 0.10040271641904347
0.09024730057045457 -0.0769965543478632 0.10017344705140094
0.09032944409449334 -0.07637867428764485 0.10071232021942052
0.08984448599194705 -0.07531141879167322 0.10079914198255355
0.08939483977276834 -0.07459249771090692 0.10063004621902318
0.08974603638057578 -0.07472096347839859 0.10113713767703386
0.0895023009957593 -0.07375432940530509 0.10146401756841457
0.08895465516981814 -0.07279106772903342 0.10161823417896601
0.08852783059836651 -0.07222637201589402 0.10152191514724415
0.08893543253787686 -0.07220474017026347 0.10202671797096519
0.08822007950648655 -0.07074488189819707 0.1019789644954296
0.08761687445089417 -0.06963387554112144 0.10193370116335801
0.08822077636765646 -0.06991850886830829 0.10249209808773735
0.08820995285479628 -0.06907934206047725 0.10294728312607497
0.08790562659626193 -0.06797785715105671 0.10292170513260535
0.08795459274148239 -0.0671578001005691 0.10315620374184137
0.08794357241976819 -0.06668533728017657 0.1032917235177112
0.07224923656040105 -0.11066809997552494 0.10286852641640963
0.07259860638620683 -0.11010911899290467 0.10315193449738443
0.07393694152271589 -0.10863862336899183 0.1020336006787209
0.07323249357787659 -0.10937188795582277 0.10290031799313568
0.07492922928372296 -0.1077257280342275 0.1018572162211002
0.0741937648033962 -0.10834827320356277 0.10275417862917802
0.07580275053579762 -0.10685352375179973 0.1016038490288864
0.0752343945671218 -0.10741245720824917 0.10250189926776375
0.07654144058766972 -0.10618193641049925 0.10125315527703507
0.0763554172971268 -0.10635732670022069 0.1020487315240665
0.0774279146758398 -0.10535897031150836 0.10181464373001191
0.0783296556470119 -0.10443994412187754 0.10155862022355572
0.07918423502453142 -0.10351253810420247 0.10124720488179864
0.07995233753554741 -0.10264678355190338 0.10094369538318579
0.08067747505290843 -0.10183432623520032 0.10073541548753927
0.08122777160665484 -0.10122892687385936 0.10047478334923453
0.08162665860308169 -0.10081803239203342 0.1000637410888471
0.08156935110410363 -0.10094530065445327 0.10074001371134222
0.0823402422269106 -0.10021752058867474 0.10056242485783845
0.0830879514060476 -0.09951020645300754 0.10033889384867331
0.08387025857750662 -0.09887096406630554 0.10012619721011165
0.08445714029485787 -0.09837836049237482 0.09986097370850197
0.08484761810092682 -0.0980058498921029 0.09947028789553879
0.08487607686323752 -0.098149167147922 0.10007084159133497
0.08568776184798957 -0.09754998130066285 0.0998802145022263
0.08631473630164974 -0.09713096601002935 0.09957268512770052
0.08666455977239124 -0.09678325759642661 0.09918684781016186
0.08673680801290318 -0.09691866750195115 0.09976485378738432
0.08746720354528527 -0.09635773742139613 0.09956127482994957
0.08813925228892346 -0.09580129847476143 0.09942654452530936
0.08857610174182277 -0.09533795473535067 0.09923659578926582
0.08885554182172441 -0.09485243297496868 0.09895757287479989
0.0888453360283687 -0.09520791653440974 0.09955409284060725
0.08908472667317917 -0.09435575135426533 0.09871234685043496
0.08925442463425841 -0.09453484851483489 0.09927482242474903
0.0897183189382687 -0.09381963365036271 0.0991960165899867
0.09003371070474343 -0.09313788545762815 0.09897400513731894
0.09027562042621338 -0.09268620892000026 0.09895827319270097
0.09040654546022762 -0.09217512760571145 0.09874784367113952
0.09053322342088395 -0.09258464413554894 0.09929491516649303
0.09049733280987374 -0.09165911580596708 0.09855428835425932
0.09074537668180531 -0.09183980139281103 0.09909635435435658
0.09102195380427655 -0.09112747311362694 0.09908877626799766
0.0912645140281217 -0.09049128636907112 0.09907942403485044
0.091383391921677 -0.08998757048993697 0.09897501129789858
0.09134035960851093 -0.08960666166722 0.09872273326279615
0.09160762259878692 -0.08975974452239034 0.09920444573071353
0.09174378650809252 -0.08910250918098052 0.09915168400988328
0.09184818522804157 -0.0884540697995062 0.09911195136506351
0.09185558725765496 -0.08791051934988607 0.09899972781729292
0.09171782761536569 -0.08747662896673929 0.09878832839489593
0.09201083503460344 -0.08765087979136352 0.09926710943562286
0.0920170914884345 -0.08693204902269631 0.09931505787382981
0.09197367800459749 -0.08621250305678237 0.09938240982139311
0.09184851563419337 -0.08561378150332853 0.09933234347000247
0.09164563723724227 -0.08515263411104985 0.09913850980245785
0.0919666920580892 -0.08531668421079851 0.0996321800784559
0.09194415630352258 -0.08454739797893027 0.09971076305568159
0.09191227385874896 -0.08392001267399823 0.09984576625506726
0.0916026981242427 -0.08321782533093142 0.0995666680746799
0.0917248490401903 -0.08281703070874911 0.09999457400506861
0.09168859399767801 -0.0821157155097787 0.10021811301131502
0.09133825742174055 -0.08132785484553938 0.0999726797980559
0.09150258090391941 -0.08086466763872198 0.1004439238779406
0.09128501924703729 -0.0800048096942526 0.10042475141145106
0.0910193925734279 -0.07943266406108969 0.1001993914251084
0.09131441211853185 -0.0795303563067427 0.10067675669869482
0.09128601870930192 -0.07876681840447763 0.10087285853860091
0.0910335140807718 -0.0779912794438511 0.10087010860859068
0.09065790510736411 -0.07738467660834435 0.10068669755412933
0.09108675813292684 -0.07755584678244508 0.10121460558277579
0.09091798073495994 -0.07671808408240624 0.10146236821757013
0.0903618064367195 -0.07573989947028227 0.10129249530059596
0.09045621997900144 -0.07511937347374066 0.10190571327580879
0.09003861253572629 -0.07400424142065419 0.10202727185810867
0.08945966415636643 -0.07321503061295644 0.10188471761937665
0.0899048600543154 -0.07333695987081919 0.10233581530831969
0.08976772399649145 -0.07256641762625958 0.10265817028304978
0.08922134781681472 -0.07139346185786845 0.10280170553728742
0.08890772069500791 -0.0701514605532862 0.10317656738545948
0.08891348407245386 -0.06938823254780173 0.10356851704345674
0.08833964248891464 -0.06868578935979751 0.10330500080456806
0.0886295696438301 -0.06846649034778417 0.10362736260109115
0.08852770413252792 -0.06758400685256453 0.10373254340026558
0.08813292145378479 -0.0669349727420672 0.10347351000530107
0.08836380954164486 -0.06677956571796838 0.10379978464750308
0.08825279244945666 -0.06647633664355593 0.10375438880195696
0.07313119569873971 -0.10943900600453882 0.10380567368964173
0.07368230498725324 -0.10883952511977009 0.10350220489735204
0.07445489215891371 -0.10804927639262563 0.10344363658633575
0.07558052465680325 -0.10711514301415263 0.10316211685740613
0.07662083442751379 -0.10616485754629006 0.10286729055420596
0.07762814815441581 -0.10526671304948663 0.10259172779383671
0.07856117971924716 -0.10434584508885494 0.10238048214727909
0.07942096416834536 -0.10332807768204737 0.10190243998170435
0.08010269070642072 -0.10253682695063498 0.1015689941153056
0.08059984485943858 -0.10197962783017628 0.10140664988408142
0.08097990598663272 -0.10150963571436672 0.1010182250122345
0.08091475884312116 -0.10170712319448738 0.10172530373978703
0.08169859776462926 -0.10092716312176506 0.10155920163348599
0.08249423659420192 -0.10014443014900053 0.1013836512436686
0.08331474238879817 -0.09943821881471361 0.10092087169378598
0.08385881016240224 -0.09899929533102404 0.10072519180473773
0.08426121462088548 -0.09863012587990969 0.10035577393045181
0.08425356519373196 -0.09877602615007167 0.10099520952933634
0.08510604884933691 -0.09816201833523865 0.10081965456688903
0.085742181125411 -0.09767803434025535 0.10050592686090956
0.08613620736337964 -0.0973396840451638 0.10008055995938189
0.0862052943948907 -0.09749149319536947 0.10069383134189555
0.08703761117744692 -0.09692254210571462 0.10041815744297326
0.0877758837970094 -0.09639465988960734 0.10020066181250128
0.08825653071612803 -0.09597235155419516 0.09996778865408683
0.08850625490718195 -0.09562856201625328 0.09966449523982188
0.0885939552782339 -0.09575385387497944 0.10019750054948201
0.08916037886079499 -0.09509110725900745 0.10010114719929507
0.0896133816541711 -0.09444220981839062 0.09979234981403029
0.08992547018771464 -0.09402453298058047 0.09973192400835595
0.09012528634547143 -0.09353733733788716 0.09952050516482708
0.09016290272123856 -0.09391077172118678 0.1000745329550485
0.09030674046987522 -0.09304005246205924 0.09932226468780943
0.09048036655281462 -0.09320590180710894 0.09987331464002522
0.09083622981683573 -0.09247714124712948 0.0998051781569698
0.09114328712231093 -0.09174072692899563 0.09978436808717529
0.09134420968975021 -0.09108091927397516 0.09961788790872797
0.0915017572570648 -0.09065263011760194 0.09957523101202927
0.09151842666910498 -0.09025968150217807 0.09933768492220454
0.09174237076183253 -0.09044213139133121 0.09983672647074252
0.0919787994094775 -0.08977980732154983 0.09981559696073902
0.09203839653034214 -0.08909866501478536 0.09964078955686373
0.09208858393385617 -0.08865734092904541 0.09960699117843234
0.0920339574437805 -0.08822200939058064 0.0993661060930838
0.09228299205629598 -0.08841340037388128 0.09989976033121896
0.09234321742831059 -0.08768492223199212 0.09989669338709785
0.09233511703088282 -0.08697936987009323 0.09994343583043429
0.09224994881642141 -0.0864019076828329 0.09989096715485701
0.09209983551442348 -0.08592921851666378 0.09967673949678352
0.092379306931411 -0.08611211574165008 0.10019281961102249
0.09231276768580472 -0.0853439119825057 0.100250351280453
0.09227416743709779 -0.08460423199689106 0.10032610744228146
0.09215206840067126 -0.08400709215485427 0.10028088819502858
0.09190089697727893 -0.08353606986027656 0.10006282837971571
0.09221667990600473 -0.08369362386843648 0.10058330061009126
0.09213897674550883 -0.08289740033599281 0.10070123407752497
0.09198796232552017 -0.08222721803486846 0.10066516761898164
0.09168971422844109 -0.08169043268394396 0.1004701000755168
0.09207735002265476 -0.08189465930867255 0.10099922716276925
0.09199665859186781 -0.0811891552764218 0.10120140169990703
0.09168073386381655 -0.08036474418909646 0.10093000013649875
0.09188394145336111 -0.07985734283053975 0.10141470070196522
0.0916820153617042 -0.07895088249477898 0.10140587851232179
0.09138433140102256 -0.07834269745000416 0.1011941477487224
0.09170624152711086 -0.07843781196895479 0.10167044037975817
0.09155006159459338 -0.0776143056057726 0.10192382559159235
0.09122340721747837 -0.07682120509572647 0.10194349692027861
0.09087395151281764 -0.07616510240443591 0.10175901096530443
0.09128117641527166 -0.07637971882897235 0.10230710966609007
0.09116052879548338 -0.07558048425886955 0.10262314175467059
0.09071096801712712 -0.07453641906451335 0.10268621901633586
0.09038716836093512 -0.07343423961997163 0.10288272313907382
0.09020967331764089 -0.07277034179954917 0.1030374081375037
0.08989353721486382 -0.07226797754995927 0.10297391137865819
0.09029372205740947 -0.07230438826619515 0.10349676784268734
0.08964095813406504 -0.07096091500638019 0.10362038228442869
0.08930621476376267 -0.07019669168699452 0.10363164837863678
0.0897534882737599 -0.07015588446538497 0.10412789809141267
0.08930527306483808 -0.06899850675424492 0.10411637780020827
0.08896687254542626 -0.06829774977384574 0.10399694430109342
0.0893532788698993 -0.0682201756777396 0.10453274359256352
0.08895427372329678 -0.06721354618040468 0.10442112023588147
0.08864585131103386 -0.06666959841524019 0.10422765450563616
0.08922054070042039 -0.06695262171335953 0.1049083321420132
0.0732403373266468 -0.10927636123050621 0.1044814378246136
0.07354642180722136 -0.10897863387936037 0.10474058282556328
0.07373984000672616 -0.10877900933238704 0.10426268765884533
0.07475242038227912 -0.10782349163242448 0.10413464499836732
0.07582368016547607 -0.10690677503776182 0.103875874936984
0.076832386653134 -0.10601312663097075 0.1035746861492121
0.07776486338729705 -0.10522969574466626 0.10329613141246397
0.07839450920397074 -0.10466715867202989 0.1032001503816718
0.0790304134263789 -0.10393317086950066 0.10280979881761025
0.07854966504424733 -0.104550268104384 0.10366096596428293
0.07972053751159737 -0.1030716416353207 0.10240543170083616
0.07934613735634571 -0.10367450447212039 0.10330516233588444
0.08030395655812829 -0.10238339325843561 0.1019835261648983
0.08022485885188453 -0.10264214715671759 0.10277472616802116
0.0810434354105954 -0.10171718787053137 0.1025667261366311
0.08181775302750244 -0.1009392890771683 0.10241057942949289
0.08241076117107145 -0.10034201102714775 0.10215432015304507
0.08299406270483049 -0.0998049648827078 0.10170368872199019
0.08271245124323927 -0.1002277927225353 0.10251105790647526
0.08359292889456728 -0.09929444052391315 0.10126266973735434
0.08354790618938432 -0.09949435060916767 0.10201580786948364
0.08449065954263087 -0.09883880952575166 0.10178702088238688
0.08513762568647136 -0.09832761760233691 0.10146264751768495
0.08556538989863346 -0.09795746105812668 0.10102974188571885
0.08561574983546809 -0.09812894985355988 0.10167226242955915
0.0865668525864068 -0.0975322149714071 0.10141854293140694
0.08738527855173261 -0.09693305012738511 0.10094636330904602
0.0878881920966244 -0.09657910843785458 0.10073495296518259
0.08817260049278235 -0.09622932335283485 0.10039292970194237
0.08824616537061043 -0.09637913672731663 0.10095964369509464
0.08883962793525924 -0.09573141125125692 0.10084120263129238
0.08926520097376332 -0.09524658034351824 0.1006763704905734
0.0895875083712433 -0.09478729733900013 0.10039388100648168
0.08950642953780169 -0.09512020778640234 0.10098396034476873
0.08987946901163237 -0.09434325114446769 0.10012131374156268
0.08998202943154171 -0.09449003955967647 0.10070328626843134
0.09043711660793663 -0.09379171469686429 0.10058992828495121
0.09084510118600253 -0.09308476302339815 0.1005031489863601
0.09112507654622586 -0.09236167117752107 0.10031927277478171
0.09133575873222388 -0.09189228020368675 0.10031795225795376
0.09147384432328873 -0.0914323398728568 0.10014273078348333
0.0915610610887429 -0.09179129709101815 0.1006476146827265
0.09158174990391614 -0.09095856998641953 0.09994715518815207
0.09179016083593997 -0.09113307411017409 0.10043864107529679
0.09207776642416911 -0.09050714655713642 0.10041882271088798
0.09223844217077896 -0.09001314160126768 0.10034909661821119
0.09226997479475836 -0.08949527775721988 0.10015204867274859
0.09246454530051859 -0.0898937925696872 0.10067787833455628
0.09225393257764528 -0.08898842256535087 0.09996859808375112
0.09253723183609865 -0.08917157746288147 0.10050602058888607
0.09264450894765561 -0.08841693885851327 0.10057960341535746
0.09261831714755535 -0.08764893489905655 0.10043473900455231
0.09261395244507377 -0.08715969821022759 0.10043646838918442
0.09246151377722371 -0.08672765374885243 0.10025517950171853
0.09273976256964608 -0.08691497959284468 0.100758571132328
0.09274017290260804 -0.08611840350135036 0.10087105697214234
0.09258848112921719 -0.08530741315925439 0.10079709363736476
0.09254834644216337 -0.0847843809786454 0.10082159947468312
0.0923943836892874 -0.08431561974012261 0.1006263020846326
0.09268272540226219 -0.084519003979102 0.10113764879639973
0.09259454266921541 -0.08373872158727426 0.10125918011168289
0.0924644140221522 -0.08309703448586801 0.10122283732569812
0.0922775039053103 -0.08257614364934601 0.10101068401927506
0.0926055575945195 -0.082776467111455 0.10153847540741533
0.0924841450754744 -0.08196488796919198 0.10167536299417461
0.09228454852343698 -0.08129632543111846 0.10165777247385502
0.09204789488643769 -0.08073375805914382 0.10143360838187963
0.09243170941066695 -0.08094909595864581 0.10197864662190204
0.09244629176840416 -0.08020437388261169 0.10217056149906198
0.09209100037442025 -0.0793323512217788 0.10192249125723611
0.09228348262010513 -0.0787907261866217 0.10247399891599411
0.09198985648557916 -0.07779706774445962 0.1024956657043558
0.0915737071208739 -0.0771670950261978 0.10228325664294344
0.09190204167972438 -0.07720944276520308 0.10272553057261084
0.09171433153359772 -0.07643790347988462 0.10294410989353513
0.09151395212624107 -0.07575685203319558 0.10302955890613541
0.09124914986974365 -0.07529144810982702 0.10292539123362315
0.0915778350077038 -0.07533880625956019 0.10343177670912573
0.09099531239866075 -0.07408283090122064 0.1033941768651022
0.0905707013641313 -0.07320486290928514 0.10332279526861694
0.09100578850238757 -0.07337639733306912 0.10384636755259924
0.09095700450312619 -0.07260197555842879 0.10421801860893791
0.09056583925255944 -0.07151377658589009 0.1043560232552195
0.09040063983454608 -0.07050954025232145 0.10470084552132683
0.09009010746727186 -0.06950024140768636 0.10488983847358545
0.08998454952860825 -0.06856152140457775 0.10520857722463177
0.08972182466421687 -0.06762794546630353 0.1053513322398797
0.08971934286225454 -0.06695790130031146 0.10564511736399809
0.07426700880489076 -0.10831776625065444 0.10482122223805167
0.0751027250497591 -0.10752585392511971 0.10479200118482562
0.07482772306282628 -0.10782757897276321 0.10546743998359047
0.07611147201631847 -0.10666487684841579 0.1045240550087087
0.07543167838323654 -0.10723492432741953 0.10546558931690239
0.07710544063848143 -0.10579170979181217 0.10416148136295644
0.07645723743995463 -0.10636957272087019 0.10511998488005377
0.07789103481139287 -0.10513726465517544 0.10379743307178181
0.07762173892602786 -0.10536436355911794 0.10458749949600545
0.07873811185735749 -0.10441101623667373 0.10425473178236555
0.07965418476815667 -0.10346851488309813 0.10387530119157527
0.08049643146271536 -0.10254254465897573 0.10353283672756092
0.08123240568653595 -0.10172234664907258 0.10335740205290465
0.08180741520729952 -0.10113075798489803 0.10310177201822318
0.08216236947583512 -0.10068766919387569 0.10271712038182546
0.08220929355160533 -0.10090053917352826 0.10336363137786254
0.08304510368563497 -0.10022052714074475 0.10307331851883797
0.08390031306056196 -0.09953568877785486 0.10276234288741863
0.08454351931927265 -0.09902946517025325 0.10244136767171715
0.0849648313074354 -0.09862736051052233 0.10200202483946094
0.08502154166100638 -0.0988226024787668 0.10266809291079117
0.08591312228480563 -0.0982216846572103 0.10243293341640208
0.08660198908298165 -0.09775514300086295 0.10209473386745906
0.08718557883499956 -0.09730807663347484 0.10166195001935903
0.08694383992758295 -0.09765446483572805 0.10239397643643874
0.08773260341569723 -0.09687722651501014 0.10123630870177795
0.08776982276926182 -0.09703800546733841 0.10192561815747979
0.08849464803149791 -0.09633585780910897 0.10151449801582828
0.0889118807552957 -0.09590280487627971 0.10138145224075742
0.089161588189627 -0.09553560906687728 0.10109409920556238
0.08921148021674374 -0.09569002916140258 0.1016574151059416
0.08976603649089765 -0.0950231534540469 0.10150571031707777
0.09030852270705399 -0.09436021733316616 0.10134728450233262
0.0907242736086562 -0.093699817289294 0.10108945999538989
0.09099562707452166 -0.09325465933350569 0.10105260177513475
0.09118589454292766 -0.09275276554847654 0.10085550171415318
0.09121396892030063 -0.09313986108080231 0.10141871067664755
0.09135217562005518 -0.09223770768442273 0.10067315038357469
0.0915123618587185 -0.09243571477553532 0.10119113736127643
0.09185526555200078 -0.09170993280900587 0.10113535376807234
0.09208762728766459 -0.09105037588040263 0.10092158781973606
0.09228836388907499 -0.09067412651362532 0.10088725931416513
0.09234039639668573 -0.09033792038153951 0.10070321789345736
0.09252619358433166 -0.09046071013346267 0.10117286049655785
0.09273161766761319 -0.08981097913337598 0.10114981160115413
0.09289362659448555 -0.08912761000000968 0.10115198528727762
0.09294195794713042 -0.08860760258085876 0.10114130197305525
0.09286327418504 -0.08808449721296746 0.10098234733547518
0.09311490627740247 -0.08845773622795841 0.10148386368984698
0.09279897584786105 -0.08751031035696759 0.10079293862590684
0.09305123309694135 -0.08772398588165803 0.10134120662701708
0.0930671634723458 -0.08697539871725492 0.10142822601963065
0.09305319497639225 -0.08637190941997464 0.10143400189493365
0.09293055904342562 -0.08576344519172267 0.10128289846690222
0.0932320123688054 -0.08622000662674403 0.10178500633175112
0.09277247208759977 -0.08515907457763694 0.10115581948900407
0.09308565593587373 -0.08539516854497625 0.10168556562645537
0.09306506973699999 -0.08455589955438277 0.10179384931241948
0.09295527414573994 -0.0839146252155764 0.10175522522257922
0.09273524056104264 -0.08343685446025241 0.1015826023894277
0.09309719878585002 -0.08360694575062307 0.10206281948622631
0.09301061263760549 -0.08281848050076909 0.10218389201423082
0.092859972004298 -0.08215504871208999 0.10215096927761043
0.09260383155753395 -0.08163893571677593 0.10198295936188669
0.09300979225538375 -0.08183276476861787 0.10248989277418194
0.09290810275542255 -0.08099956117094001 0.10265986587036588
0.09277163244815219 -0.08030884532610892 0.10263289520517097
0.09251825636121526 -0.07972000841759543 0.10243129463778658
0.09292016757581066 -0.07994147367747897 0.10297047389689631
0.09289694288958839 -0.07920188585712463 0.1032527502874666
0.0925045532824452 -0.07821577756389572 0.10313158638276541
0.09224727725725301 -0.07727617357959593 0.10324689731999484
0.09206902538235143 -0.07671185806376206 0.10341053748682555
0.09181617451245985 -0.07615528197252383 0.10332133931301332
0.09224944563136041 -0.07647681137063532 0.10383231747255388
0.09219274197717492 -0.07571668121298637 0.10420071614765035
0.09173102337590006 -0.07459044765472132 0.10424177523177698
0.09142427341984556 -0.07341658486660935 0.10447608493557016
0.09121752752246186 -0.07270636144173259 0.10467879481291478
0.0910033570792467 -0.07223809636565863 0.10459180301460506
0.09128041177691558 -0.07223749963073854 0.10516090040281144
0.09089250426688364 -0.07105178385925344 0.10513765220224902
0.0905760886991047 -0.07032610892079139 0.10508711549084693
0.0909080206155519 -0.07020093285893751 0.10564831173726673
0.09048973245297133 -0.0690553221503221 0.10568437032012705
0.09017581908614808 -0.06835871323516061 0.10561792769714806
0.0904809953902646 -0.06818954051502639 0.10621666363770929
0.09015010954634112 -0.06720234094378987 0.1061883501096305
0.09003525567184371 -0.06681259991181573 0.10615147466037404
0.09039346478217652 -0.06694985220019833 0.10667359389230949
0.07507057744098078 -0.10766165001345604 0.10634058846341474
0.07575047741028412 -0.10698372364598126 0.10612705209038223
0.07680540129079552 -0.10606883345671593 0.1057169437103562
0.0779699153887859 -0.1051109563819174 0.10525371715738013
0.07901484767239648 -0.10418087664409866 0.10484875908395536
0.07996521381077266 -0.10330445712309158 0.10446908365112002
0.0807172234796237 -0.10247566713771483 0.10416053111944523
0.08120037881934314 -0.1019250705960993 0.10402985317077632
0.08160650856171768 -0.10146757526502899 0.1036454265094447
0.08160999242406725 -0.10172898848178201 0.10431699680016357
0.08255906198112922 -0.10097035751009704 0.10409877368044258
0.08340043660221666 -0.1002123780414989 0.10363046333818964
0.08398343976621504 -0.09973811613046119 0.1034056193576834
0.08436150693447435 -0.09931423184009132 0.10299036011658128
0.08443422933569597 -0.09956366950477931 0.10366103189286414
0.08532423330313521 -0.0989479428847484 0.10344392396032424
0.08597588814682613 -0.09843407636167192 0.1030621750925104
0.08638274944842302 -0.0980541356839985 0.10262898578631154
0.08646052577451652 -0.09820216204398588 0.1031837375533686
0.08722179243278971 -0.09764491573240622 0.10292257776067668
0.08780432488588318 -0.09721366460879043 0.10262648671092825
0.08830440114331992 -0.0967260609484506 0.1022110043228393
0.08806713802435834 -0.09709181958598705 0.10295055026523622
0.0887466622884672 -0.09620242405088038 0.1018428273703049
0.08875067115771407 -0.0963787646878327 0.10253087385834736
0.08945375968754121 -0.09562641781870869 0.10237008945559439
0.09001218884179694 -0.09492377334610955 0.10203334458627825
0.09038550230380803 -0.09451500026776438 0.10193323198189759
0.09067612788810818 -0.0940453935814423 0.10167132221635156
0.09058577073491308 -0.09439401897826837 0.10230262130121431
0.0909527685445904 -0.09358948090301894 0.10144381116519122
0.09102349824411667 -0.09373151024396707 0.10201801545605832
0.09149312885104709 -0.09305077615586245 0.10193788861618507
0.09179817900879723 -0.09233734247177636 0.1016988699643067
0.09203126372547506 -0.09187265834420943 0.10167939489329786
0.0921856350437033 -0.09137956053829441 0.10146733848579516
0.09226172651704462 -0.09174946793329136 0.10203738502264656
0.09232988594664032 -0.09092123762843432 0.10123984206857098
0.09251416653866677 -0.0910655476151346 0.10179590294099676
0.09283250367410421 -0.09037200746873039 0.10179268731564048
0.09300469448571494 -0.0897181984561799 0.10165196689769151
0.09312046821823203 -0.0892604540044449 0.10164245756597534
0.09309573293996087 -0.08888845299103292 0.1014691419104003
0.09329210208661655 -0.08901715584826153 0.10192411042100441
0.0933773204292187 -0.08834967106072286 0.10196790929178036
0.09332430740635346 -0.08763587233993003 0.10186012098950668
0.09333507255654204 -0.08716033222530471 0.10189848706972264
0.09324648495815781 -0.08673879131210226 0.10176618492099562
0.09349758969372618 -0.08688941286549148 0.10222159218028061
0.09348069438175659 -0.08612392200356045 0.10228068508898604
0.09345253447082551 -0.08534534015921434 0.10234256683436867
0.09338001647194354 -0.08472728449837749 0.1023098552455411
0.09322200428339875 -0.08424174338345485 0.10209691629367104
0.09352910980765464 -0.08441800320746257 0.10260484512494694
0.09349711264783811 -0.0836389066118935 0.10272604878974945
