# .PCD v.7 - Point Cloud Data file format
VERSION .7
FIELDS x y z
SIZE 4 4 4
TYPE f f f
COUNT 1 1 1
WIDTH 790
HEIGHT 1
VIEWPOINT 0 0 0 1 0 0 0
POINTS 790
DATA ascii
0.10445652000955083 -0.08127302091618657 0.10996290546289479
0.10438134521506345 -0.0805065474598147 0.10973553512690662
0.10466372126729949 -0.07988595906633007 0.10969580307637632
0.10504007779339443 -0.07961548246439745 0.10979452152529047
0.10476613952772103 -0.07919013007007861 0.10960312781963223
0.10515762674446646 -0.07919891860239502 0.10979554593589956
0.10534423624003715 -0.07869417402942802 0.10978520911088344
0.10504884750225098 -0.07799330516192039 0.10950737432112538
0.10557726233132489 -0.0781255131922394 0.1098193806879513
0.10572406051747686 -0.07759712558975018 0.10986910968680204
0.1058678723926605 -0.07723885029841053 0.10995582356948748
0.10593632562056746 -0.07675859331718694 0.10991841140495053
0.10618557030500786 -0.07630132611509699 0.11001498720445774
0.10620095375588452 -0.0758432867922417 0.10983769007253907
0.1066280487871231 -0.07554698806977038 0.10989421820713337
0.1067954466210873 -0.07487803146529903 0.10968108227484878
0.10748447303477286 -0.07558406165153793 0.11029208628734741
0.10733014728581908 -0.07481201901706294 0.10990647204144556
0.10781894842260563 -0.0750970993153848 0.11028630274425272
0.1077269520415874 -0.07442032757427945 0.1099642944650526
0.10788559443716494 -0.07372474421259112 0.10978857937751951
0.10782976017660374 -0.0730746842142749 0.10953063939328288
0.10823331659289098 -0.07332839508793922 0.11009202351379237
0.10839620052181433 -0.07259745397608235 0.1103512206850384
0.10853234335547748 -0.07183132957021515 0.11058385426779316
0.10809318913559468 -0.07089557400796224 0.11023855101607782
0.10846500056253153 -0.07081268526592768 0.11065329733128364
0.1084047303672957 -0.06985713260747768 0.11063926027602164
0.10843997480473802 -0.06916233163144096 0.11067759675809284
0.10831638850612195 -0.06843043628980493 0.11063009223623908
0.10885491407806228 -0.06899172474283416 0.11088357441161094
0.1088362289373331 -0.0681490412232073 0.11084523300624413
0.10935595879273474 -0.06873353582571531 0.11117488373214326
0.10933704760789734 -0.06784056257174938 0.11114209526677893
0.10994355833478693 -0.06834129681907038 0.11160207112998555
0.10967552785461235 -0.06763997108228027 0.11139461255270555
0.11008807535021066 -0.0674323967977599 0.11168204052163626
0.11023713139704623 -0.0665390952288107 0.11179373333248294
0.11002966851350081 -0.06584703967332688 0.11149710474584032
0.11036315438965687 -0.0656620959046154 0.11193184143483835
0.11045637801653413 -0.06475682078452774 0.1121752176383995
0.11015833244345745 -0.06403331139098531 0.1119136452782859
0.11042793848881216 -0.06377177851048968 0.11251744198057771
0.11032332087044579 -0.06278898729693184 0.11291786739447661
0.1100885296482606 -0.06214782881051492 0.11257528376633004
0.11029351785109316 -0.06182067787481387 0.11329008581237698
0.11026096065292235 -0.06081218664431879 0.11371357919096887
0.11006284133951483 -0.060093102613450224 0.11341887416198747
0.11023776969397617 -0.05980467317385152 0.11417449088955353
0.11047461358191304 -0.05895845034388711 0.11454760092136688
0.11056183379153092 -0.058245646787002434 0.11426455856354896
0.11078934583565032 -0.05824150441525244 0.11493640726053553
0.11085176065942894 -0.057619775639974315 0.1146323796427281
0.11100018741938641 -0.057133750969137385 0.11464971871758181
0.07909553470969576 -0.10414668969131392 0.11680725082459333
0.0793174612857941 -0.10361716143633276 0.11661682941766376
0.07980996072263014 -0.10401948532417293 0.1172220757470103
0.07935916515285414 -0.10269975638358604 0.11599766347248891
0.08004262346666316 -0.1027971550968236 0.11654642017079918
0.08026054833552794 -0.10330830024912582 0.11706535226150819
0.07984127179849088 -0.10191488361744055 0.1157080521390119
0.08037194093029904 -0.10201390436213423 0.1161533528735245
0.08099967764619144 -0.10228399923071903 0.1167910444259832
0.08035734073703601 -0.10152139633850897 0.11569350840304095
0.08092367161167917 -0.1013693764949807 0.11589998858201393
0.08107833823617255 -0.10165355034494547 0.11629094462015717
0.08159101190002672 -0.10088614463148005 0.11572009849815534
0.08188710199882457 -0.10045191889700467 0.11524127399201878
0.08234154554447622 -0.10041861328910356 0.1154985864474999
0.08313781886628187 -0.09997788916885875 0.1152819712634472
0.08341328670151359 -0.09956240608833586 0.11473871009016856
0.08388915328132089 -0.09948948173550518 0.11495056389214926
0.0843961592393806 -0.09903297507862356 0.11461265884376383
0.08481784863795917 -0.09859893021383498 0.11434979783340589
0.08522138622810113 -0.09880728870844704 0.1149760480376861
0.08624633740854248 -0.09803073057071385 0.11500234576265128
0.08693959865357648 -0.09702610775841403 0.11470840765549851
0.08747807401411722 -0.0961444892200225 0.11459188827091052
0.08684647280699409 -0.09502737828676862 0.11357325420727084
0.087222151536436 -0.095539129921615 0.11408850423334098
0.08719927767404223 -0.09429196827641873 0.1134612163684932
0.08783133191795296 -0.0945382793314312 0.11399859071798654
0.08883281111971167 -0.09357894682009991 0.1140658461271747
0.08947274399708378 -0.09268879959216031 0.11383412288409263
0.09031534406450092 -0.09215637485809962 0.11381514061051165
0.0904083325904147 -0.09152796498065133 0.11334314296236685
0.090885780601048 -0.09166524053271985 0.11369217333866684
0.09059150682596241 -0.09111871099784315 0.1131176022809653
0.09110597250064191 -0.09117578419621589 0.1133799149250865
0.09190723461493384 -0.09060061598886365 0.11327112499794792
0.09224021776994308 -0.08984054154635089 0.11293809736530107
0.0927524705184427 -0.09012214426691012 0.11326776205524774
0.09243034716551868 -0.08940041281896127 0.11279002011750927
0.0930103080653894 -0.08947471022406533 0.11304170973225396
0.09340130211521286 -0.08880495485660295 0.1129399586337286
0.09376731709184367 -0.08823626561456387 0.11285958731555804
0.09411246479202785 -0.08863695889563998 0.11306750087253836
0.0941465877920243 -0.0876491719989987 0.11275199632081016
0.09458745337559399 -0.08813648147780628 0.11299683775888886
0.09443985951111351 -0.0870262306103133 0.11261400194221945
0.094965617423335 -0.08746976218989462 0.11288339909209882
0.09462951461241505 -0.08660482064252628 0.11246654748911478
0.09527161282139991 -0.08677746763930431 0.11267970648059279
0.09610200809361029 -0.0862266691710278 0.11253880874751766
0.09617488771011146 -0.08569863787816984 0.11224024836994169
0.09687364696793961 -0.08576775574504189 0.11232713689950034
0.09746266682392815 -0.08534214479959219 0.1120267396628611
0.09811581641560575 -0.08490541804660383 0.11161035306318365
0.09877808155266227 -0.08556798105305409 0.11212712231566503
0.09933484051339621 -0.08514500828360598 0.11169971448620263
0.09968807545157828 -0.0854634494660718 0.11196138132918254
0.09907207532217964 -0.08467633930870234 0.11129319875528489
0.10023671751263045 -0.08531442076304584 0.11172532589050402
0.09993613027424167 -0.0849415963697711 0.11140767159627034
0.10074679597646828 -0.08503117975037656 0.11133547801368006
0.10153965611373228 -0.08485923390873436 0.11098012705992884
0.10180994975235297 -0.08450373769415462 0.11054112464569835
0.10231651347274859 -0.08471879651221573 0.11071353052208188
0.1025715130646588 -0.0843668370211751 0.11028927549163099
0.10322970036271396 -0.08403106004298967 0.1099764890097197
0.10357981727015027 -0.08375778833703132 0.10987616949328206
0.10355128770177711 -0.08341365816668736 0.10971079758756622
0.10408673820416137 -0.0836819733234043 0.1101337099308433
0.10445407944925703 -0.08315185043123136 0.11024394604382229
0.1047804546903297 -0.08253587523719184 0.1103570917006262
0.10483539494838151 -0.0818950283791433 0.1103160997472303
0.10515224949204864 -0.08153114896620173 0.11040467334524487
0.10479546636650906 -0.08108292691205508 0.11008946523327579
0.10523686590549267 -0.08099181568542284 0.11025606957914076
0.10519236084089136 -0.08039670175987908 0.11002928615415906
0.10513862970724402 -0.08000860327145243 0.10989534844394364
0.1056045154886153 -0.08012329711802815 0.1101099156273671
0.10564606478102799 -0.07963137761997975 0.11005848734185573
0.10555129588691416 -0.0792287736305768 0.10997978741582502
0.10602958532779203 -0.07934952091047416 0.11013583332572861
0.10611282026404167 -0.0787618063259123 0.11012264021478918
0.10612774196327719 -0.07814738394072451 0.11015558665122849
0.10663019075792027 -0.078670681862219 0.11037051392796539
0.10614191055281637 -0.07761215926028296 0.11016722893673084
0.10662072171847861 -0.07808219529398286 0.11041182320700925
0.10608266254567378 -0.07724561195904045 0.11012391448962665
0.10644398639841145 -0.07737708745647921 0.11033489533557027
0.10651487779306171 -0.07678273422414954 0.11028990834371308
0.10662112690046006 -0.07623514319496308 0.11019148014706454
0.10708492973590446 -0.07679793793767566 0.11051883755272074
0.107214526213455 -0.07620070264850455 0.11040611305606843
0.10784013463864865 -0.07690961820588997 0.11077358377860158
0.10765784137666219 -0.07622815045001492 0.11057631957648809
0.10806353853144572 -0.07626905443056212 0.1107622568745209
0.10827544261022969 -0.07566109817329582 0.11074402493467297
0.10818492242159657 -0.07497653247819774 0.11049147308716786
0.10850830625753558 -0.07518902317426775 0.11081391642175979
0.10853191407611322 -0.07447275058950166 0.11062094034813583
0.10875279386929408 -0.07355308389122912 0.11070428490988626
0.108826378218211 -0.07299862801881603 0.11081394681337894
0.1086986611039061 -0.07255095868396357 0.11074521589820342
0.1091403218493499 -0.07268500751535642 0.11110110705424933
0.10906504484227215 -0.07162996942818355 0.11104345065954369
0.10902370360418508 -0.07057156400919548 0.11102986940695159
0.10956191493318931 -0.07137028212319757 0.11135009885897712
0.10882013343113242 -0.06969753042536667 0.11087740613564194
0.10951258266773278 -0.07061544437439367 0.11134434026828052
0.10930631868361672 -0.06976137176907773 0.11119918224416332
0.1098125604200138 -0.07026890885576648 0.11159571721551294
0.10981102158332438 -0.06936492259178885 0.1115312730725394
0.11033292084089298 -0.06983136333762009 0.11199372151671368
0.1101410605343313 -0.0691088678565827 0.11177423126868048
0.11045461139016592 -0.06882341246024822 0.11207130893175798
0.110650554962552 -0.06789344551730504 0.11227470830347326
0.1104763317329198 -0.06719501392514975 0.11201473332088699
0.11076861473222954 -0.06695236640870081 0.1124641298463109
0.11082876098611878 -0.0661020973072325 0.11272870816749117
0.11068061595414688 -0.06549423018829095 0.11240600171298223
0.11095009407239613 -0.06522463055020052 0.11300672676366606
0.11093398134143988 -0.06419908338852132 0.11343400173756898
0.11064267730253063 -0.06346266730163004 0.11318396244959412
0.1107742217165664 -0.06317504121540166 0.11391953743682948
0.11068739463310949 -0.06224114260800551 0.11433851002369279
0.11047569214353774 -0.06152873777913352 0.11401271543792796
0.11070413842952107 -0.06130327653525092 0.11470727518755913
0.1106966479251227 -0.06028571000400438 0.1151094151506074
0.11047437983848539 -0.059556040022925576 0.11487844580560677
0.11078175556798453 -0.05934223746470337 0.11547354981983014
0.11099200715463159 -0.05856933962552558 0.11567247470040397
0.11097244516594061 -0.05802907055853206 0.11531348277981315
0.11109428357092417 -0.05803620876525777 0.11563711830557562
0.08037829715215253 -0.10423750645113007 0.11774345159514639
0.0805816391155064 -0.10380620208762606 0.11763546594980243
0.08116881200743493 -0.10417889737646763 0.11820343584142108
0.08109279346594778 -0.10298359534901184 0.11739042455458266
0.08130779878452181 -0.10344596233762264 0.11786535746890085
0.08151288928960522 -0.10239260975774944 0.11722969388315806
0.08198885973293289 -0.10259436652693393 0.11757101899186205
0.08134077655061328 -0.10130341884115249 0.11610002039996115
0.08170739719266369 -0.10141044845700187 0.11640078584663441
0.08196587865412765 -0.1018720539785004 0.11701422015171309
0.08239234486811896 -0.10080508194448877 0.116081789235069
0.08282291655686878 -0.1004308266797985 0.11580571135494479
0.08336945922778573 -0.10056758494270249 0.11623234212054065
0.08410995390541941 -0.09981217809549289 0.11561627867210617
0.08455160599732052 -0.09932857262674478 0.11517539051639232
0.08503273487415136 -0.09944124830095395 0.1156540866219425
0.08595498709253198 -0.09893727536801403 0.1156675250672368
0.08680629291261985 -0.0983800669979952 0.11571776320799249
0.08724734082381516 -0.09751876739474721 0.11529753105864442
0.08755087572978067 -0.09783044043493379 0.11572895272918769
0.08774598769241203 -0.09665588842739051 0.11510105683407025
0.08801786361674163 -0.09713256504235253 0.11556551841418548
0.08812528718581215 -0.09594859173247172 0.11498031244257888
0.08861825243853362 -0.09620181912815158 0.11544715703203143
0.0885984968234124 -0.09551987107596722 0.11509746461141056
0.08814164827855998 -0.09527147185174119 0.11463040966398126
0.08877778378098186 -0.09442916173250762 0.11456786175830758
0.08963626403264136 -0.09389395271733153 0.1147531139070332
0.08983448557441642 -0.09312361955938989 0.11434747056068321
0.0904307369756777 -0.093311998557889 0.11476703014225813
0.0900651228955324 -0.09265478843503906 0.11411765996585987
0.09071021117992015 -0.09265201132987222 0.11438082043871338
0.09117067698914483 -0.0919998202622627 0.11406559221627584
0.0914815607513495 -0.09149156258557893 0.11378922239476055
0.09190300454972128 -0.0917622855481729 0.11409901494564098
0.09168660319117532 -0.09113535415324982 0.11357234505893449
0.09228422236530004 -0.0912230327712747 0.11380958974249332
0.09294956460628252 -0.09062219676622553 0.11359704609048028
0.09367722634221634 -0.09000160608863401 0.11347250538355946
0.0937546792682534 -0.09060231482520534 0.11379991315179032
0.09396404246316617 -0.08921509403661147 0.11322498031106841
0.09469154785926846 -0.09035434700202431 0.11384196662405109
0.0947796904450192 -0.08959340787008398 0.1134904531847132
0.09556425434969822 -0.08986504948441228 0.11373215072671188
0.09500675342646564 -0.08876945220324588 0.1132466833291502
0.09581306147410598 -0.08921706094493832 0.11354409427309323
0.0955421335651344 -0.08797653850584712 0.11310097988754807
0.09618738289742922 -0.08845860191766362 0.11335926690170066
0.09587425942833949 -0.08727273697511531 0.1129417272339861
0.09661826363009691 -0.08769302716648789 0.11314673444870788
0.09601711850658565 -0.08679003910972341 0.11280481076836296
0.09682092091729502 -0.08690061553782635 0.11289582677133583
0.09733291675301174 -0.08629276861128124 0.11264994186401384
0.09789617731906561 -0.08585494172613047 0.11242250583578203
0.09833591616623395 -0.08628207281881455 0.11263265709833925
0.09855345973185622 -0.08594877974243183 0.11244830920887869
0.09918071440025152 -0.08610723487325692 0.1124263806357397
0.09980757505673438 -0.08577570787934345 0.11214976091104134
0.10010238887929458 -0.08555382366829181 0.11197942711519897
0.10055592500614197 -0.08570529546692154 0.11193712605215132
0.10108271993449001 -0.08541563366936726 0.11157909048540902
0.10134702236018894 -0.08516939459146713 0.11130071067784712
0.10181957530048713 -0.08535059948219689 0.1113801377795393
0.10267839285946129 -0.08514487540544241 0.11110111404562557
0.10274774178374642 -0.0847646132887522 0.11070264388702827
0.10324416100315037 -0.08481866828880237 0.11073744040861482
0.10356439212487403 -0.08444450743861535 0.11041872905659662
0.10379711176662415 -0.08408639893403476 0.11018452137132828
0.10433449105818923 -0.08439818821211448 0.1107116742482747
0.10497046735478109 -0.08388404932541202 0.11082371472426172
0.10518110124798376 -0.08326263678155002 0.11075533155476945
0.10558701466693904 -0.08287997752424245 0.11092558100676553
0.10532410368115057 -0.08230012039170788 0.11068099874845141
0.1058205306173315 -0.08248861244128156 0.11101039264020915
0.1052495028823845 -0.08193438136255565 0.11057020118014536
0.10571580503822393 -0.0820161695721076 0.11082735903554823
0.10589418909197987 -0.08152863590439242 0.11069458424892493
0.10607085758289193 -0.08086613829024124 0.11049161964247553
0.1069048153075643 -0.08171548406957713 0.1110008525265372
0.10710904958743549 -0.08106348019320181 0.11080084563516286
0.1076233764082886 -0.08158517959042838 0.11103696894152684
0.10646060621895245 -0.08018141680575833 0.11040284696467287
0.10793626891551483 -0.08134718434378309 0.1109527422463724
0.10761228926344424 -0.08059054009855049 0.1107139863699224
0.10820883974252404 -0.08108933513342563 0.11089317534749393
0.1069257299536393 -0.07950245392795517 0.11043662576001136
0.10842844643768247 -0.08076199847917089 0.11085053984203184
0.10805096076280107 -0.07993475328659666 0.11073246180626395
0.10863779113467528 -0.08043004513179706 0.1108373546648842
0.10737880841676913 -0.07882043235959557 0.11061603069335357
0.10881596921986635 -0.08005558153871652 0.11088160137482453
0.10831246640512927 -0.07925076735309067 0.11083113287033258
0.10893725889565432 -0.07946508038520352 0.11096795721395371
0.1070950593386759 -0.07789115029201817 0.11061829101830542
0.10790486343237979 -0.07831199278366484 0.11083484341002821
0.10860383981411363 -0.07879073223495618 0.110995140199334
0.10690234177980763 -0.07725922309656999 0.11054117077774583
0.10746115265345225 -0.07747386639459515 0.11072802284093407
0.10836643834326454 -0.07817467255556167 0.11099012146905453
0.10801088699219119 -0.07770408181307245 0.11089321541325867
0.1084555973311306 -0.07767350847790445 0.11104088494715154
0.1086351066943779 -0.07699345382539224 0.11114931775194085
0.10844972628140401 -0.07629381464119292 0.11095282426322854
0.10874428705577813 -0.07625132169376228 0.11116411875655219
0.1087730991603566 -0.07563471445443158 0.1111068763563431
0.10876426016288467 -0.07517689848280314 0.11100536568919112
0.1091817356477369 -0.07536872064164712 0.11140476509520203
0.10926870600932057 -0.07428145621905252 0.11127264222036197
0.10912968901436938 -0.0734474180559441 0.11107811619436472
0.10956183420147689 -0.07355719265263531 0.1114317438294077
0.1096974489928712 -0.07297455829123271 0.11150364721746062
0.11007949212038959 -0.07185200413832211 0.11172159791751278
0.10999253234272444 -0.07237625545407708 0.11170476788564127
0.11023908347934111 -0.07248458505169372 0.1118266583925299
0.11045065846244131 -0.07227592985268622 0.111925110388459
0.10964137670929797 -0.0722670231770616 0.11146065748642153
0.10985391273760584 -0.07103170727193371 0.11157752733601087
0.1104886261555863 -0.07173714020572076 0.11199010850173727
0.11026894587084884 -0.07095319430175698 0.11191500396367282
0.11079544686020758 -0.07128798788808258 0.11235251839162139
0.11056222682652457 -0.07055680764769992 0.11216851690467412
0.11082823322823385 -0.07018453022375944 0.11248953611656265
0.11078418563816712 -0.0692451312848231 0.11247686262638079
0.11078215045304234 -0.06860992681205513 0.11244250410884302
0.11115391984163786 -0.06857820102085613 0.11304595520348429
0.11120656419636629 -0.06731448689203834 0.1131814087677135
0.11104299037188177 -0.0666915348652066 0.11296192518329974
0.11128680175951493 -0.06642063820887369 0.11352002965204817
0.11130506780180766 -0.06555419082581357 0.11392892554450604
0.11119061276200523 -0.06492153322340674 0.11365416351018869
0.11134565538765763 -0.06462432522446039 0.11436568607271413
0.11124951424999993 -0.06359931168443789 0.11489799857971829
0.11091169549363598 -0.06290134729972185 0.11466897326116475
0.11115194249655662 -0.06263428164664092 0.1153769607280925
0.11115198752731044 -0.06171932381957401 0.11572593852634329
0.11095403431969726 -0.06105866065436569 0.11539139560265685
0.11115348725634622 -0.06075504262476243 0.11605079719697754
0.11111481831908325 -0.059844960795573665 0.11619273331584674
0.11104591386594036 -0.05911966963446739 0.116026070353624
0.11121803537438962 -0.05889068969009139 0.11634075827377663
0.11128431301037911 -0.058445610189149004 0.11628430230699568
0.08125093670707784 -0.10583210191434368 0.11914775487645449
0.0813774002782769 -0.10607275901596647 0.11936710787061387
0.08145647504747205 -0.1050846169518531 0.11886535831814056
0.08162008109664746 -0.10567535411302816 0.11926705642709341
0.08180911782473381 -0.1043440764957121 0.11862676470678062
0.08222995782868212 -0.10476951271842497 0.11904250342421759
0.08250816228148204 -0.10391315611795565 0.11866961535342967
0.08210141473490479 -0.10345195526976425 0.11820116702138565
0.08288943882714822 -0.10250418996404222 0.11785051557619661
0.08252525579445837 -0.10121710600988855 0.11661682581571253
0.08316856342536472 -0.10156493705644713 0.11716244772224298
0.08416383638812949 -0.10073103068355065 0.116747524187271
0.08459207564532627 -0.10009222443474887 0.11621400546527252
0.08556154896834323 -0.09964517638639313 0.1161650919239554
0.08619553449249989 -0.09925494840378327 0.11612330524077678
0.0864414384292917 -0.09890213949605739 0.11594181933732814
0.0867253752265983 -0.0989757758971947 0.11618201330216715
0.08743770221159479 -0.09838746054955759 0.11610807445912283
0.0881439618489021 -0.09766781299939824 0.1159888781466369
0.08812910707264383 -0.09831733899983167 0.11643321624178632
0.08869044411106343 -0.09688424797980649 0.1158672241546177
0.0888478746225392 -0.09743415656107515 0.11628980109792261
0.08905830518193406 -0.09635647264826006 0.1158058881635327
0.08944764069023418 -0.09651799522334599 0.1161324018523522
0.08893887862987979 -0.09491491100073837 0.11498319487849487
0.08918754296650531 -0.09533396554379452 0.11537914803721422
0.08942940967728893 -0.09583242330848202 0.11577476224787993
0.0892765130798669 -0.09444383825349817 0.11489286521761168
0.0896980505159924 -0.09457158554267896 0.11522428349467918
0.09064186827928171 -0.09390170936465082 0.11527616510251802
0.0914224812844107 -0.09305517524695354 0.11494491919210385
0.09149841723875479 -0.09351607316245027 0.11535649657402963
0.09177349058331215 -0.09229385924174659 0.11447028155994109
0.092197603819484 -0.09321931296529642 0.11531033203963875
0.09263856244581084 -0.09257108724927772 0.1148893599131574
0.09292951093846871 -0.09295582262463424 0.11522662714844245
0.09280294318936043 -0.09177557650019182 0.11433410778221706
0.09364143316398124 -0.0926640212741479 0.11511725552318448
0.09370564339742983 -0.0920611315667366 0.11469307495215393
0.09441850153909628 -0.09222078659463856 0.11492178005645401
0.0933141557500752 -0.09110582451164842 0.11398201297095056
0.09394524616226854 -0.09144433392990252 0.11430613970239785
0.09465047032225794 -0.09169789832967802 0.11460199087074152
0.0941400642781233 -0.09091534782376046 0.11403673636657757
0.09497555348527288 -0.09102990364183815 0.11425569983183206
0.09598312163689887 -0.09040171097068037 0.11409949294594456
0.09642542495396764 -0.08960630137423163 0.11383429861416981
0.09691495155494786 -0.08989750537260413 0.11407483892461737
0.09681567605832864 -0.08890732377520114 0.11362828706363699
0.09733500878531533 -0.08932154797599957 0.11390472551103913
0.09729639817169716 -0.08817118609479696 0.11340659342902204
0.09786201116778595 -0.08864404133319961 0.11366717184401322
0.09787954839755819 -0.08737005387496125 0.11311544502470326
0.09838699484504349 -0.0879676275393772 0.11339660908700123
0.09789996910439878 -0.08672547304086098 0.11283456866539004
0.09893138796105222 -0.08746482369595521 0.11311488513424613
0.09914079326123575 -0.08680389248547399 0.11275254009526173
0.09983980949462387 -0.0873603055179577 0.11299256485239172
0.1004889823436485 -0.08688953047220455 0.1126249457694168
0.10068815879688603 -0.08731733679654805 0.11284745890751192
0.10035649330842694 -0.0862549766073292 0.11229382281015324
0.10123567904797771 -0.08705141096822278 0.11257892357385613
0.10155122042090861 -0.08658200987185212 0.11228232504930742
0.1018468241048077 -0.08700544872009673 0.11251446029054223
0.10152081945555322 -0.0858798581480493 0.11183436809714939
0.10259387143004055 -0.08676015205945667 0.11236338653253466
0.10248094294463614 -0.08615650926343989 0.11194313088296544
0.10322874136172754 -0.08632453092117243 0.11204989614287167
0.1024055655708576 -0.08564830766478329 0.11157224128680918
0.10328067164045468 -0.08576157993660258 0.11163270592484922
0.1036903062408601 -0.0852349419296177 0.11120232965986603
0.10392481707365792 -0.08482237365799322 0.11085749767841428
0.10457094493601014 -0.08511911399572054 0.11140862857662956
0.10522969242774045 -0.08463074371074089 0.11137503524856933
0.1058401723905142 -0.0842760420865583 0.1114438393807412
0.10567171333219469 -0.08368041755847376 0.11115844657287029
0.10632115402804268 -0.08391716434732255 0.11148925931667386
0.10563528000129498 -0.08331904020598123 0.11105817997872579
0.10618576720752913 -0.08337807989807897 0.11130985191650626
0.10625197510919289 -0.08284250117612087 0.111236154109486
0.10634590126704482 -0.08239137467863154 0.1111759929991607
0.10675838114515837 -0.08274726356168648 0.11136790876469133
0.10631135679702802 -0.08197219560233894 0.11101820743703145
0.10692313789597997 -0.08251138208283083 0.11132468293297224
0.1067677252689832 -0.08219910380587399 0.11118420109869213
0.1073458987330776 -0.08235221982429405 0.11129852672386226
0.10803691773149533 -0.08210916198034494 0.11120123086641041
0.10803040443060445 -0.0817086561750001 0.11108514718188703
0.10845589259188136 -0.08178251386278504 0.11105362719278719
0.10850264221515887 -0.08141523528948116 0.11098148968752135
0.1085053667660685 -0.08114250080726401 0.11093583230316663
0.10881816820102937 -0.08120516455887364 0.11094003073713171
0.1089097951101506 -0.08081212736297565 0.1108821343570701
0.1089060864037985 -0.08049639143927002 0.11086807695211959
0.1092260112197128 -0.08060261800572659 0.1109134955302183
0.1095014779155527 -0.08004500319765027 0.1110501663562048
0.1092462012009996 -0.07911699080887025 0.11113129873773935
0.10968568750489288 -0.07950761746194576 0.11120979201631492
0.10882818584572475 -0.07836632577439606 0.11114405454255603
0.10961610920454842 -0.07906018273517801 0.11129687296162992
0.10930580965612077 -0.07851801669318853 0.11134752349136083
0.10971436867094322 -0.07880858747624707 0.11149104905859958
0.10893786716510352 -0.07788632524819686 0.11127518246184191
0.10939822559118985 -0.07787258067740531 0.11159961997407652
0.10917316289743127 -0.07681452310240112 0.11153111443800659
0.10909359984280853 -0.07610093595112825 0.11143685255715483
0.10955208858460701 -0.07639957958377823 0.11184738536023758
0.10976000247501118 -0.07572627471763857 0.11199043911064348
0.10964220371662418 -0.07501702162110144 0.11176360130061912
0.10995619017572714 -0.07435580894668299 0.11184562441495183
0.1100925052619364 -0.07346262158916879 0.1117666147541331
0.1105617614869668 -0.0739498964468971 0.1121112269519682
0.11056456362565213 -0.07295817299649396 0.1119930694093861
0.1110373988551072 -0.07349494936692279 0.1123333028472321
0.11099335743674087 -0.07271685845922447 0.11230341329265937
0.11127711727496192 -0.07301924021712054 0.11254572918990705
0.11004783755018406 -0.0727850192566158 0.1117211748710465
0.11073031063132806 -0.07219506386509376 0.1121369592176023
0.11119011420628633 -0.07245559027167851 0.11257527820609003
0.11096497237486164 -0.07209604473502104 0.11241568320871471
0.11122113688080795 -0.07183675777443699 0.11276395619489181
0.11132565795894854 -0.07070236161355833 0.11316575484363126
0.11110155301866381 -0.06959451343416526 0.1129312203913308
0.1114394178067915 -0.06943593627769029 0.1135472036193028
0.1115774648706508 -0.06866137051957122 0.11381393892853103
0.11157654313334717 -0.06786739151561509 0.11392409806108268
0.11154758185894183 -0.06676001055174552 0.11431233772836726
0.11143793424985261 -0.06614508613989938 0.11414243390149767
0.11150622813435732 -0.06589743701508931 0.11483342071267595
0.11155087310035335 -0.06500700277626804 0.11534685257927392
0.11149750926810634 -0.0643511291757133 0.11509111732498202
0.1116180663541805 -0.06399660051600031 0.11588422480586204
0.1115862522234859 -0.06297939018214894 0.11640548460909124
0.11139944733892353 -0.06234211584956649 0.11609066032189166
0.11153678944477653 -0.06205311167983612 0.11680050947727251
0.11147552017739483 -0.061250208437346736 0.11688707948553818
0.1113453235866676 -0.06051215160633581 0.11661183060388568
0.11139249155029035 -0.060446906165254916 0.11676766017515251
0.11136557902700914 -0.05864790731311047 0.11657849134285096
0.08193910178258206 -0.10589616828275393 0.11956307524527508
0.08240332797397427 -0.1053752955358596 0.11947663065467312
0.0829345399767783 -0.10471674965777256 0.11928080487372264
0.08342644185965171 -0.10387685172336185 0.11888313274734685
0.08364666440493004 -0.10438960952589156 0.11922558631184953
0.08335643411681405 -0.10299119040437922 0.11832297661362626
0.08421528399784345 -0.10297457165066204 0.11850482335560014
0.08424126338526405 -0.10389403821603468 0.11901116958335851
0.08462015165019578 -0.10327073078061876 0.11872183823136899
0.08501717025547122 -0.10356998491627681 0.11890023658522818
0.08394231821569795 -0.10197305406730955 0.11774649393966966
0.08458927670436787 -0.1022637958590862 0.11809608351374444
0.08518720648742797 -0.10250744439186213 0.11834143982351031
0.08568268334397283 -0.10287499304246855 0.11856319139731525
0.08455817316951683 -0.10110766327585852 0.11720526928974423
0.08516595729021108 -0.1014280295303296 0.1175916375573099
0.08577694835598162 -0.10170131514561359 0.11788428802623578
0.08634402641163887 -0.10201170893766362 0.11814578231938842
0.0851783100952204 -0.10032512628457654 0.11667764009466598
0.08575634289409982 -0.10058744604833039 0.11707988968752457
0.08635011759109192 -0.10085646659660784 0.11742815006024213
0.08693044151580188 -0.10112504812440373 0.11773782332027766
0.08623712561466494 -0.09971243184845846 0.11654962460036555
0.08688104239817891 -0.09996260888586087 0.11697616989400102
0.08746670010114978 -0.1002232369505724 0.11733971789375193
0.08724278634330343 -0.09910075647535745 0.1165436513705878
0.08806454391840934 -0.09917552222527852 0.11694176971553963
0.08898001296574165 -0.09808464655882632 0.11673736642617259
0.08962844459770355 -0.09714865410358108 0.11657053814168368
0.09017518857208584 -0.09638530541555136 0.11644936107987279
0.08994498709990104 -0.09506153345768169 0.11565816817587293
0.0903295321708712 -0.09561239079067871 0.11612278815013798
0.09028693126129285 -0.09451741022645398 0.11550731370876337
0.09089154144323609 -0.0945814046109437 0.11580076631980678
0.09147097649214475 -0.09387171120333368 0.11562241381727503
0.09182167837325088 -0.09355255266134897 0.11550898679269693
0.09221713166863851 -0.0936140434331877 0.11563413991869674
0.09289299966147214 -0.09325503603029955 0.1154632891939398
0.093276089532387 -0.09299774035915002 0.11531884441261467
0.09363654696308087 -0.09307926553134814 0.11545603670948267
0.09477652734671253 -0.09265651629179718 0.11528403838059703
0.09523072157208447 -0.09198744451630486 0.11486591998676586
0.0957630635780994 -0.09218005269490902 0.11506076585429638
0.09554548372559916 -0.09139732099883337 0.11455412646115727
0.09612196544790406 -0.09165320649562826 0.11480116894664834
0.09573696429044541 -0.09096005875533344 0.11434959138262675
0.09640334077112912 -0.0909900120966748 0.11449745727401606
0.09706088575827741 -0.09036728203732654 0.11431414899304464
0.09772345920751649 -0.08976478816873786 0.11417883986060816
0.09795862542203657 -0.0902904687596902 0.11448092811430512
0.09833774186032611 -0.08911373150340378 0.1139582140541392
0.09872841619059453 -0.08964068795058698 0.1142941532483518
0.09907854708021235 -0.08840010891684214 0.11362400146992437
0.0993238403208828 -0.08895925479255251 0.11400134271848307
0.09932397927928543 -0.08782033975895674 0.11328388695943423
0.09993202416680257 -0.08849445674600247 0.11375385441163202
0.10033996485800566 -0.08789502118737505 0.11328664382789412
0.10085796437301561 -0.08849867997507047 0.1137658248436395
0.10145291903204055 -0.08789578982614889 0.11327925931965871
0.10167733162506078 -0.08817589217735293 0.11353364161251797
0.10144983200597922 -0.0874029600431657 0.11285722123704436
0.10201290394226077 -0.08788482161871788 0.1133398095241673
0.10213973695618997 -0.08753778613252354 0.1130594878725108
0.10252770573302539 -0.087775989947428 0.11333227358917429
0.10222767341628207 -0.0871786954472762 0.11270808754423826
0.10300231038779234 -0.08725819588923153 0.11289185037752857
0.10354307204749794 -0.08669299492301615 0.11244306722339836
0.10397029719703589 -0.08614842147997134 0.11209755701165759
0.104343907993885 -0.08656674744880354 0.11268780154193295
0.10414482652618527 -0.08562425971806742 0.111695148890674
0.10501170285351898 -0.08587073070427141 0.11229499104624686
0.10547818950574082 -0.08519040030030706 0.11190055001898863
0.10573967793619363 -0.08485195800086101 0.11174807356523613
0.1057322459061212 -0.08463089690899864 0.111584485805399
0.10616251700090865 -0.08469967284577873 0.11180025828308489
0.1069059273794339 -0.08440696821778668 0.11183114651070811
0.10708101328442009 -0.08375788867414324 0.11164815276602634
0.10768548440921628 -0.08414596290254876 0.1118412010353747
0.10689511692143244 -0.08316862266357661 0.11148543175201617
0.1079011092598336 -0.08383896876984546 0.1117593021073886
0.10776916451788618 -0.08338589032093666 0.11164115499383662
0.10837754532471175 -0.08369540057481836 0.1117201034969213
0.10740419590114253 -0.08283803876103209 0.11148403698625081
0.1084828776835664 -0.08341356296971768 0.11162335317995346
0.10822093104952706 -0.08305876663841727 0.11152233242909204
0.10887309691530618 -0.08326847239052922 0.11148179480377392
0.10796305013194725 -0.08263639438136795 0.1114233070343481
0.10878132130471256 -0.08279963449164707 0.11132925417990311
0.1089889460669557 -0.0822663398386591 0.11111157681777785
0.10910004790052705 -0.08174610409648572 0.11098158810710068
0.10967120147973541 -0.08229299399761182 0.11100096472450174
0.10973949820650475 -0.08183715164196777 0.11094686024796062
0.11011299477523549 -0.08224930619451178 0.1109312745529903
0.10936611278463325 -0.08123772967116771 0.11093033749958256
0.11016699787038844 -0.08188862208506605 0.11096196207094362
0.1099399811156306 -0.08138528813363072 0.11099271002444995
0.11034661757723119 -0.0815563345044195 0.11103473535186191
0.10969324544372566 -0.0808322335826593 0.11097061229347555
0.1101305795057483 -0.08077455563776469 0.11111429360913412
0.10997534932568905 -0.07989469464064035 0.11128575010484267
0.10986704955940428 -0.07933745390378526 0.11135604231274134
0.11006354140788584 -0.07940165906743216 0.11152777609715996
0.10991686964158015 -0.07869603155260768 0.11179833118049988
0.10993528822385906 -0.07799016246367946 0.11211380514836329
0.10959357616221632 -0.07723689075290603 0.1119008365922659
0.10995900814874868 -0.07708373836837519 0.11224863326359902
0.11001494187852744 -0.07635197358829388 0.11228735914933731
0.11013191206830657 -0.07583983050115575 0.1123150147718174
0.11007149389173809 -0.07524812221116159 0.11214135137277481
0.110484475477211 -0.07560953767769443 0.11246274987301828
0.11053062746532243 -0.07483498774235005 0.1122921595493059
0.11100195165006181 -0.07528469761567448 0.11262532100033597
0.11104808198828157 -0.07437912196325089 0.11248498631076112
0.11152563814957214 -0.07480145003434027 0.11284296680799878
0.11151155370113212 -0.07372525748336602 0.11274703941376975
0.11200431052333441 -0.07427499343752396 0.11323750310685268
0.11190166423290275 -0.07331637273186314 0.11317107851625034
0.11216644938894083 -0.07357920049864716 0.1134439442294096
0.11153214460017769 -0.07265318630109921 0.11289588575748984
0.11211928058157133 -0.07307002732204289 0.11352428380150548
0.11190394513969254 -0.07248193064168237 0.11345145612463849
0.11213903613038745 -0.07263332207729767 0.11401918258736388
0.11159169159146337 -0.07180358823072783 0.1132490453075203
0.11186186993991562 -0.07139155457193179 0.11413696806221287
0.11170224047213959 -0.07006926764619748 0.11411691333585834
0.11172767913242229 -0.06905391754097129 0.11429467106352549
0.1118021620649973 -0.0694046881374582 0.11496802457604974
0.1117684020783941 -0.06830189076869798 0.11440039017825948
0.11181637856964315 -0.06843518569034687 0.11512349509174824
0.11177751378032469 -0.06745677611910712 0.11505325339355865
0.1116689786552874 -0.06617579627867468 0.11569975472738774
0.11158554932453114 -0.06561950794232027 0.11556561469348492
0.11164967590854787 -0.06520776764485994 0.11637293251399866
0.1117452079927049 -0.06422581040344062 0.11696357850291032
0.11173591858028864 -0.06360323046167798 0.11670991738657226
0.11184234647029455 -0.06324839176215655 0.11748973988203482
0.1118510776966173 -0.06241392816916175 0.11784522087011164
0.11165463348892636 -0.06183414803612579 0.11747137272216006
0.11182330949543852 -0.06184923896387987 0.11789774716838453
0.08345703599570757 -0.10691977808155924 0.12064792588942035
0.08363466384125569 -0.10716432147073658 0.12083515053552775
0.08295767803179464 -0.10564062002763905 0.11982340498845254
0.08370175142150373 -0.10617391429751645 0.12030301241139366
0.08382733521808274 -0.10679414369866248 0.12071027931828064
0.08331956910927171 -0.10499866001334224 0.11954647244898253
0.08402126323351686 -0.10526799342053442 0.11982181033557816
0.08426090062668458 -0.1062460470270736 0.12046398413788502
0.084622928371284 -0.10561200281172754 0.12011582032922229
0.08490879955770772 -0.10592079942975711 0.12039242779759404
0.08451376713810316 -0.10433365607776038 0.11929518588845367
0.08545201362208997 -0.10461425297626972 0.11962135857404566
0.08555763316343293 -0.10531065030781252 0.1201082198691664
0.08600090179251124 -0.10348024264880108 0.11893694059954878
0.08652308953318683 -0.10463681740167026 0.11986177170174413
0.08680795221968696 -0.10375887921526888 0.11927690188623924
0.08736312386182478 -0.10390183710384598 0.11957856756639913
0.08684478015447654 -0.1024116224948947 0.11843922706106354
0.0873605374035337 -0.10281997494866346 0.1187881156802157
0.08782980273094272 -0.10317141196244044 0.11919531156133159
0.08748843970383875 -0.10145980153725985 0.11803988733158921
0.087991137499595 -0.10185041229157586 0.11840300253572685
0.08838043687261123 -0.10227562416283287 0.11884057512181263
0.08802959034511393 -0.10051306641208811 0.11769176576163451
0.08859113952692099 -0.10084099055228347 0.11809239711489027
0.0889679773072314 -0.10130758173698137 0.11856802861498619
0.08840928987720308 -0.09969308561877685 0.11737019421081266
0.0891585602072843 -0.09975678850101433 0.11774125757347313
0.08971439305239441 -0.10021025786873905 0.1183951242206395
0.08927235520422176 -0.0987744929099878 0.11724199388182574
0.0899528380029201 -0.09891646138184587 0.11762744991036744
0.09005088155659353 -0.09936716312764363 0.11799358526526914
0.08989714861895803 -0.0976871486727034 0.11699148985431541
0.09034344354697818 -0.09812399628057764 0.11740428070175371
0.09047097371948637 -0.09678641867298242 0.11679756290473176
0.09083501641977307 -0.09723192968502889 0.11717061230511025
0.09094358696601362 -0.09594424047441498 0.11659200223363463
0.09134313246834265 -0.09639105340425068 0.1169541515490847
0.09158761100452636 -0.09504727265070052 0.11631881075194513
0.09185334780320777 -0.0956156539634772 0.11673666119437963
0.09200216972975293 -0.09417833107665305 0.11594265569278829
0.09238426216918573 -0.09504371791940708 0.11658091098149963
0.09287059709159971 -0.09442089481943129 0.11631130262188308
0.0930112565174455 -0.09484589531488985 0.11668030309047533
0.09310978662813706 -0.09363638709422357 0.11581399182368919
0.09392779354169815 -0.0944825878390943 0.11666843827436511
0.09404279801112202 -0.09378618469200733 0.11613669899419468
0.0949576036937919 -0.09386616726813525 0.11640196344798295
0.09416108971648475 -0.09326278884466786 0.11570670732370758
0.0952763798930162 -0.09318861301540796 0.11585287205181516
0.09599823799242506 -0.09250650895392265 0.1153806136000765
0.09656862954530665 -0.09195312477754264 0.11507584503503311
0.09693459401552651 -0.09224296734727089 0.11535154619141798
0.09700989664751848 -0.09134380960994304 0.11481478440082028
0.0975151844580706 -0.09168966560660681 0.11511019699602833
0.09730921577853331 -0.0907948862445741 0.11458479582125135
0.0980375380913755 -0.09093007365353908 0.11481741550240433
0.09877826383039688 -0.0902301956468215 0.11462473213539714
0.09930724132718305 -0.08978940048627952 0.1144649792204865
0.09969772869282599 -0.08933802527036294 0.11425625209489285
0.09980173725304815 -0.0896639558214353 0.11448720807671009
0.10004602591471984 -0.08885132480542014 0.11400726967571728
0.10024709193956796 -0.08939128103854699 0.1143767816866642
0.10039131466233173 -0.08904566769395465 0.11415180403706254
0.10110014864704306 -0.08916172628980391 0.11435183092819137
0.10179121408951575 -0.08847795019304215 0.11388190889646391
0.10212724678021463 -0.08809660381375699 0.11355335531467539
0.10254321424148272 -0.08818442868545226 0.1137694176131609
0.10323112898432218 -0.08773596319635571 0.11348736732650021
0.1036787006773559 -0.0873324118720222 0.11317962242065542
0.10381826610894072 -0.08700610223917818 0.11286488180729
0.10432871492297097 -0.08711502900475632 0.11335485516451695
0.10519599716713422 -0.08657732440241023 0.1132265454235535
0.10598413149482001 -0.08613626259832372 0.11305359918015374
0.1061684960350601 -0.08558779681192549 0.11250542497607785
0.10660321990127317 -0.08589217253662096 0.11298230383112186
0.10616955092416025 -0.08507860586354198 0.11207401083449299
0.10708001663270082 -0.08566492535061097 0.11285332791616007
0.1068492068441873 -0.08525055199869785 0.11241757225718617
0.1075495436527354 -0.0853820286599379 0.11265194405147734
0.10670240538795378 -0.08487434902096817 0.11208309793990556
0.10752142312601226 -0.08496123954399101 0.11227586831642981
0.10802316705841061 -0.08456021279477842 0.11203438724105386
0.1085488588737016 -0.0841453038727348 0.1118203956563226
0.10915011856310022 -0.0847631405507469 0.11200469523781348
0.10953768895993787 -0.08431682653041465 0.11162134334222851
0.10993157043609814 -0.08470725057746513 0.11165510220986241
0.10911277945177984 -0.08373685553366327 0.11156852663006184
0.11022393080414801 -0.08448932018712375 0.11142692700260264
0.110169652379197 -0.08404022697052656 0.11128588941439
0.11079625494908897 -0.08447674640479065 0.11120213947344018
0.11099316099102739 -0.08412014218360292 0.11098289253820287
0.11130426868495458 -0.08446633944292889 0.11093451374714655
0.10965942305010871 -0.08330484824187748 0.11126282489952949
0.11061750790580271 -0.08355260103608789 0.11099596348737381
0.1114606117984001 -0.08423946782541032 0.11076504632506312
0.11133196110770104 -0.08378690146909265 0.1107610989267287
0.11170626096350367 -0.08414144915986374 0.11066575289851813
0.10952572274866143 -0.08272426461950942 0.11115977303944759
0.11021618744033364 -0.08281202701847196 0.1109996843035595
0.11097066896723931 -0.08307112360031979 0.11088611444147646
0.11175695486813537 -0.083824511139888 0.11066953098663139
0.1115560787534059 -0.08332012722047735 0.11078680642872146
0.11193952031664633 -0.0835799066558893 0.11076526176761592
0.11059502600109189 -0.08224033455587891 0.11095138223299897
0.11126859801573835 -0.0824630629016043 0.11105194284160559
0.11181771430039264 -0.08304948616378782 0.11095901236903664
0.11071063493798702 -0.08137641094436122 0.11119976981939247
0.11169095430626332 -0.08242236143110637 0.11135595695486188
0.11120152915290776 -0.08160461895091191 0.11149449454329208
0.11151546435575695 -0.08169039658338174 0.11176659072007702
0.11038820924706134 -0.08024775407847176 0.11140968207306118
0.11079668363951602 -0.08058535760480122 0.11165767593221466
0.1112070054418391 -0.08090956223170867 0.11197011979808436
0.11036400910470485 -0.07945456926630223 0.11184594787868518
0.1108447128723096 -0.07986595533228434 0.1122042989373451
0.11013598213565642 -0.07869993917221157 0.11205744464465878
0.11046635632784887 -0.07869514400431837 0.11236748097414793
0.11033577907490112 -0.07766748677142819 0.11255336804518797
0.11040161341737936 -0.07681721249908169 0.11262158296590007
0.11063914992136334 -0.07735430097749776 0.1128337393422557
0.11036835215975194 -0.07617502213077186 0.11251333930701739
0.11082295120841817 -0.07686536946440231 0.11289316735478873
0.11082447381196217 -0.07616434941190063 0.11275290849529837
0.11125130823202398 -0.07656843210955906 0.11306730650197216
0.11140513845910165 -0.07572292261571625 0.11295756073268699
0.11174478019506277 -0.0761179542086804 0.11331355116688678
0.11186678147903371 -0.07524810664616098 0.1132047432145651
0.11219610016429594 -0.07554386972852273 0.11367194861378715
0.11213644738518319 -0.07493884826103453 0.11340848781777862
0.11229486052929917 -0.07465204068215908 0.1136811143046489
0.1123215527045767 -0.07391277840970928 0.1137316908099709
0.11227095467395438 -0.07331437271073335 0.11378224750835664
0.11236948208646727 -0.0733887692114117 0.11443626796251757
0.11219929720153674 -0.07215040324475065 0.11505195951227198
0.11201896817407364 -0.07090384283832861 0.11549456669794311
0.11187517455926699 -0.0703212074523784 0.11485827865786366
0.11188557073303572 -0.06971866624486645 0.1157751587994571
0.11183136518035898 -0.06880459275928007 0.11582529302315121
0.11184811281965616 -0.06817654284170259 0.11587218665532828
0.11184873675586202 -0.06773462649747396 0.11572275972877498
0.11184104323483561 -0.0676063866655969 0.11633741546819397
0.11178324720344257 -0.06680387005284646 0.11644252309906038
0.11170775577813845 -0.06547680229950723 0.11724475715361433
0.11168185526097973 -0.06481501372724324 0.1171934817069936
0.11180072719891664 -0.06455759946053903 0.11792574294094672
0.11201818483121515 -0.0635963500302826 0.11843248436961845
0.11196581696733815 -0.0629286373203128 0.11824208203800897
0.11212815584694162 -0.06272039008781602 0.11883567803980746
0.11219344202571097 -0.06227433999125346 0.11883085886271783
0.08426573292520116 -0.10704523026711024 0.12100287021291645
0.08483306745268197 -0.10725354057136641 0.12142786448358954
0.08516391015623083 -0.1073947813789744 0.12178934216499529
0.08460164140910294 -0.10648957435650948 0.12072010762725946
0.08505945699348604 -0.10673233720604229 0.12109072563481384
0.08539146252603665 -0.10701260446438986 0.12161127304483124
0.08555329949057142 -0.10588544964197028 0.12058298110657194
0.08594762340676987 -0.10620115845034536 0.12114131316892228
0.08610020885020125 -0.10526876224591204 0.12022520628835567
0.08657386427012746 -0.10525993968896742 0.12051553237773376
0.08736635992229046 -0.10437368500864913 0.12009040101181284
0.08804181098420283 -0.10356279701955604 0.11972884733091783
0.08801146835488492 -0.10405381237239363 0.12044123240636628
0.08861965319506286 -0.10269407356596727 0.11938476093242996
0.08869390182287985 -0.10314331772291244 0.12006094077175654
0.08917771809424922 -0.101787979485501 0.11910820016221574
0.08926024088114311 -0.10224768565101156 0.11976080290529018
0.08971524731343536 -0.10090228541170654 0.11891917090681013
0.0897932351658919 -0.10136576274438538 0.11953682118412666
0.09009263668934002 -0.10034629504171615 0.11883685764347354
0.0903564536542069 -0.10047728105232848 0.11934842033496057
0.09081174575103072 -0.09859249102161051 0.11791816086554822
0.09058841084108128 -0.09938099291173438 0.11839610494524495
0.09048637754485303 -0.09988255132755638 0.1188466562850818
0.09128991535232914 -0.09763845304078361 0.1175721753637584
0.09148435102302821 -0.09881376358186955 0.11856116018372796
0.09182563251778439 -0.09796080044370914 0.11801867274482072
0.09234442589463074 -0.09810159565898771 0.11844866763690613
0.09176043793131271 -0.09680207284518585 0.11729987080374113
0.09222625245379543 -0.09714831095880368 0.11768033303649325
0.09269169763771727 -0.09742273814222659 0.11810331015887673
0.09225826423474941 -0.09600272901846461 0.1170573665703539
0.0926908906792068 -0.09636415900580057 0.11739381066513277
0.09312475517993189 -0.09669091961419127 0.11776929828995578
0.09265597602535111 -0.09532898957544814 0.11685916123399287
