# .PCD v.7 - Point Cloud Data file format
VERSION .7
FIELDS x y z
SIZE 4 4 4
TYPE f f f
COUNT 1 1 1
WIDTH 790
HEIGHT 1
VIEWPOINT 0 0 0 1 0 0 0
POINTS 790
DATA ascii
0.1023251715618009 -0.07772100082823119 0.10998747589124291
0.10194574365729629 -0.07719409903930355 0.10966269889390791
0.10240224652583826 -0.07711791970412586 0.1098550633854892
0.10243139786039906 -0.07654509296628657 0.1096449039556356
0.10246590599892853 -0.07604674285918071 0.109398782468968
0.10296925451712391 -0.07636507647526253 0.10994851836287983
0.1033512555402197 -0.07586146752172995 0.11012599301143194
0.10325445837787774 -0.07508627782100678 0.10971946909025214
0.10372742481760527 -0.07477761897498914 0.11010588288666907
0.10384323359406195 -0.07404316672079336 0.10988450927996209
0.10426297652773703 -0.07368431884106381 0.10998428126442979
0.10433301088862017 -0.07319675532451964 0.1097548562090888
0.10489437395170946 -0.07283866653520928 0.1098599348195563
0.10492601983730569 -0.07205730001698601 0.10945805912980683
0.10547424956376406 -0.07241516959291869 0.10996106962227431
0.10532093716623941 -0.07198870785281708 0.10963191948729072
0.10565893167399125 -0.07192166870601661 0.10984694326607797
0.1056803562976157 -0.07129605931756719 0.10969523404404607
0.10560896224457829 -0.0706581422746357 0.10960829073684059
0.10606530976941556 -0.07103388918829825 0.11018469216023292
0.10622586073604053 -0.07007622070523264 0.11045845222956356
0.10610573571725798 -0.06912394825896638 0.1104230794728229
0.10579655390748445 -0.06841527416679326 0.11028375125136082
0.106319091976144 -0.06859748613199151 0.11070913143026864
0.1063962628071819 -0.0674943350060175 0.11081628266716462
0.10642122379690071 -0.06662780052378477 0.11080570785086824
0.1063503935880982 -0.06585778796009659 0.11062959467514696
0.1069017206316383 -0.06636066258755388 0.11101435914948897
0.106933067354784 -0.06552188834859417 0.11086424936416314
0.10749190729502987 -0.06602847100287498 0.11128042779143517
0.10756452791528728 -0.06520713234914521 0.11114383279876122
0.10820433358905049 -0.06571414623614419 0.11168630305794879
0.10800288749410303 -0.06503108627913351 0.11136059219858553
0.10843247704633623 -0.06484484949798346 0.11166614150568284
0.10860973766369172 -0.06396031211344935 0.11175253067761803
0.10834812822405696 -0.06329007715347901 0.11144164175053059
0.1087638029542929 -0.06310073787223426 0.11187329470894333
0.10883352801881518 -0.062213462302835365 0.11209899513661949
0.10864916369351117 -0.06158240919557772 0.11171924529930256
0.10893594831540701 -0.06135665695926063 0.1123185757313674
0.10906158517974027 -0.06042856103503471 0.11261524609835717
0.10891389220658716 -0.059790652713118085 0.1122380634593284
0.10917394571878195 -0.05947346925326106 0.1129544701550134
0.10933980386495223 -0.058544980271569146 0.11335529876357858
0.10939706604744587 -0.05778234838817278 0.11305058292197318
0.10968882705016156 -0.05775959385525803 0.11386283279302992
0.10982491888749465 -0.05710069565276725 0.11363092866038224
0.11014859597792863 -0.056330241209226056 0.11384486467006108
0.11022645272253477 -0.055893076082308445 0.11365304320768217
0.11042745591557207 -0.05618929793092939 0.11443133597739963
0.0772476426394769 -0.10447390965774732 0.11604174064860583
0.077731744044787 -0.10460112840866574 0.11637219985018932
0.07688428960642371 -0.10318325787652093 0.11494608006028247
0.07739757525190617 -0.1034198655890643 0.11541596659989606
0.07759719682716455 -0.10413875833081043 0.11601381159778511
0.07824213835114437 -0.10261763148548436 0.11528464468302946
0.07894659310716516 -0.10200692013775058 0.11523247714809143
0.07971312606497384 -0.10157943993781855 0.11530863405874009
0.0797978003870482 -0.10119105634014024 0.11478281757249784
0.08030093612303921 -0.1010793432397135 0.11500289417820767
0.08102942830932197 -0.10058389995276412 0.11472930786468592
0.0813310340977202 -0.10014785626927 0.11419721853946666
0.08177061905060037 -0.10012523930078451 0.1145340443894564
0.08240798634878553 -0.09966598303073249 0.11427928081833902
0.08260628373411102 -0.09924716967164728 0.113786829911523
0.08301903546784399 -0.09917977920144602 0.1140753035139407
0.08349597356274756 -0.0986571539950845 0.11394989015408648
0.08403971746331779 -0.09803346895300144 0.11389791776698682
0.08412260225753126 -0.09857853075311433 0.11447888904552994
0.08447526774495573 -0.0973108363921095 0.1137998214413848
0.08475494265126746 -0.0977993942813442 0.11438270530517015
0.0847448234811191 -0.09679872675940672 0.11374231378722846
0.08520060902602408 -0.0968747464183543 0.11420891856312607
0.08416975089255474 -0.09537948648053192 0.11284551004064576
0.08456682918910904 -0.09581126552308478 0.11326429838681866
0.08498681812501248 -0.09625638544498921 0.11373726017773743
0.08438102287467483 -0.09481271854245342 0.1128096584103614
0.08489326554352343 -0.09489805506175168 0.11316369405170124
0.0854468115740163 -0.0940887226527836 0.11319252508903219
0.0859235317845084 -0.09338733843023478 0.1131326749322282
0.08622533592151758 -0.09399697100130044 0.11365515593040705
0.08624117425804641 -0.09276043683843262 0.11291323547753185
0.08684550952337815 -0.09306941543389402 0.11346328508414891
0.0877553751813969 -0.09218076917185138 0.11335289978057549
0.08830204968174317 -0.0913492991398437 0.1130263876692769
0.08902567714454865 -0.09084907085548247 0.11303949565921861
0.08895271705212111 -0.09021899116376368 0.11254319617276018
0.08961963332968118 -0.09018672325140226 0.11289838498094577
0.0900223358220332 -0.08952433939205011 0.11274957562133313
0.09067102555536909 -0.08901251948085484 0.1128465686580202
0.09067678837246994 -0.0882174223574426 0.11252022382743869
0.09117394735355681 -0.08847022764878804 0.11290582950935617
0.09094541789907254 -0.0874778450352598 0.11234701979822342
0.09139957852089736 -0.08790828713322885 0.11275837579180846
0.09125300853270467 -0.08682968895827577 0.112228065174888
0.09167955675236723 -0.08725162099813656 0.11261441910445937
0.09145154378700901 -0.08642403179792493 0.11215640820122252
0.09194371103086879 -0.08658939961580207 0.11244900540112632
0.09269756049424263 -0.08608910850838798 0.11241951761599775
0.09274345139120832 -0.08554779176071013 0.11208918608476373
0.09336612353876565 -0.08558762589615802 0.11231340839251412
0.09400676442592987 -0.08512742353341779 0.11212740119710295
0.0939657231200448 -0.08463911786602595 0.11178735850861773
0.0946495154463785 -0.08469066534432465 0.11189879384156193
0.09494884823486861 -0.08426591971882236 0.11157439782551631
0.09510258582601058 -0.08396428406419007 0.11133721910684488
0.09574681541003881 -0.08416169429090595 0.11149316646520792
0.09653488813325194 -0.08395052536028665 0.1112394811150335
0.0972416548465738 -0.08370005606393105 0.11091645020274891
0.09784684176963948 -0.084250345704666 0.11140558668692775
0.09814641222215777 -0.0838167408667081 0.11092542103821862
0.09874298246106096 -0.08408500455244805 0.11114353908385184
0.09899713886553246 -0.08371484743585439 0.11071149878203615
0.09961505132310343 -0.0834401571274122 0.11032727012182181
0.09982110670277643 -0.08318000696023806 0.11003443401594469
0.10023175530345318 -0.08332788791721857 0.11030689033833785
0.10067026161612753 -0.08292785613214974 0.11020179623263553
0.10083338064112378 -0.08248459217252142 0.11008736904070637
0.10071931114470396 -0.08208191993662517 0.10993131071965986
0.1013000910829963 -0.0823183386782688 0.11033558794435856
0.10157681785020568 -0.08169127985503152 0.11044519977878678
0.1017796317894775 -0.0809996971964922 0.11048495810707641
0.10210901506523569 -0.08043772983476591 0.11057098004526358
0.1020654135509279 -0.07963058737957547 0.11031563392865795
0.10236825162053523 -0.07896453986777494 0.11027718073800177
0.10275532028175126 -0.07865361203549665 0.11039161482291887
0.10250818157163895 -0.07822179900826635 0.1101720961907585
0.10289729905348356 -0.07820685615616117 0.11038503144592286
0.10311290313371897 -0.0776677328539263 0.11037544286921891
0.1028608475203563 -0.07695542582754869 0.11006644476624033
0.10338599733387588 -0.07704819157684291 0.11041750547957399
0.10356723114635182 -0.07648799590254762 0.110463609167201
0.10373828495828655 -0.07610411857558962 0.11055107907067914
0.10384644469618563 -0.0756032366903302 0.11050305624539673
0.10413208453757943 -0.07512118937181574 0.11059790828395383
0.10417686998237223 -0.07465492117211425 0.11041257457573858
0.1046312307440725 -0.0743322874184484 0.1104923588948967
0.10484305585416233 -0.07364828278813546 0.11027595902970627
0.10551076012002021 -0.07432967394743742 0.11094747506569963
0.1053997864433144 -0.07355590126130439 0.11053595342941733
0.1058896677402568 -0.07382252138519267 0.11095501149900264
0.1058369629752583 -0.0731435255088568 0.11061143989573498
0.10605034286892906 -0.07243240757259173 0.11043148235096374
0.10603506929331605 -0.0717773664287388 0.1101526474285654
0.10644759619439825 -0.0720192007608811 0.11074600831295092
0.10668076950599721 -0.07127607502672773 0.11099273104495433
0.10688236985575494 -0.07050478551915115 0.11120513618901566
0.10649063244245392 -0.06957805516311023 0.11080001586005656
0.10688712592196672 -0.06949108651232255 0.11122929398136655
0.1068852275658193 -0.06854656894126834 0.11117741434737469
0.10696582934812139 -0.06786357462127184 0.11119670991863603
0.10689184392583913 -0.06714718433353067 0.111113656079706
0.10740430155483205 -0.06769745085221543 0.1114297137334958
0.10744510696922832 -0.06687377503232352 0.11135933902876552
0.10795244709014201 -0.06744874632939951 0.11175358114029399
0.10800064998012987 -0.0665772828571536 0.11168638745748463
0.10860898170408283 -0.06707329146535296 0.11221326122847611
0.10837880304676065 -0.06638571791307674 0.11195455152353694
0.10882279880322199 -0.06618909884720053 0.11226488732746714
0.10904143439522043 -0.0653228735500736 0.11235151065594341
0.10886117163388824 -0.0646463419557764 0.11201469929919831
0.1092385079546072 -0.0644744430476459 0.11246589398303261
0.10940238146502511 -0.06360348753644478 0.11267898223887984
0.10913939818220522 -0.06289920528683317 0.11236897002716006
0.10945921563853203 -0.0626607820283778 0.11298036019302168
0.10944935734567396 -0.06172235656891917 0.113336760182923
0.10923869259565976 -0.061093599065816025 0.11295413358901922
0.1095026457356122 -0.06079809577238161 0.11366882121907725
0.10955666891556733 -0.05983996029584941 0.11404753812518559
0.109387260151906 -0.05914228880014415 0.1137132074845088
0.10962421844516933 -0.05888515198968116 0.11446296654734835
0.10992343882083487 -0.058081551911555035 0.11480515638779533
0.11002830782361367 -0.05739114264241716 0.11449198235726019
0.11029244617995716 -0.057405420366883605 0.11517120310679305
0.11037388167137178 -0.05680438564574703 0.11483651823350037
0.11055331295093465 -0.05634080621942595 0.11483262266755664
0.07823891189639808 -0.10473811417756139 0.11673531623024123
0.07843078193080578 -0.10420904416969953 0.11655338840856033
0.07893335574413873 -0.10460768081587019 0.11716607497469124
0.07842893138633317 -0.10329068679136552 0.11594356525728149
0.07910075673671371 -0.10338613842692415 0.11650630212419714
0.07933948243506055 -0.1038960593550116 0.11702472490663143
0.07886452824837523 -0.10250145851538663 0.11567205020123103
0.07938405876593914 -0.10259953086703075 0.11612916947333134
0.08001037467018303 -0.10286909907520922 0.11677766203083872
0.07934827262559846 -0.10210290474546842 0.11567387474145119
0.07988976165364646 -0.10194812697726863 0.1158962179704083
0.08005335955233484 -0.10223447749507189 0.11628780787835263
0.08051750581845486 -0.1014545547534185 0.11573674635639497
0.08078441786791819 -0.10100906596945347 0.11526850481010809
0.0812266649040768 -0.10097298156239899 0.11553663707231862
0.0819845172190822 -0.10051555679199341 0.11534107293839593
0.08223347723782735 -0.10008332445402482 0.11480601418142213
0.08269380842666775 -0.10000516018278775 0.11503062140245583
0.08316841025297664 -0.09952797794582675 0.11470598586557748
0.08355957134166928 -0.09907555308982435 0.11445247607922049
0.08396043512127034 -0.09929279411795958 0.11509280507794037
0.08492191244369222 -0.09849390470345318 0.11514478399141188
0.08554387321992038 -0.09746476644753639 0.11486298822074503
0.08602441565531926 -0.09656348894589552 0.11475595365240228
0.08536002057127978 -0.09540921425520195 0.11369933634972798
0.08574866206823048 -0.0959401036245288 0.11423466114753518
0.08566683952217792 -0.09465503510772025 0.11358838555231585
0.08629056674132589 -0.09491230652253178 0.11415491688644537
0.08721538622071434 -0.0939264421682388 0.1142458686897093
0.08779612587456208 -0.09300611717701572 0.11402167707628999
0.08858246685347658 -0.09245116419860791 0.11402422093820694
0.08864784717524951 -0.09179418502419387 0.11354057735165553
0.08911347849049853 -0.09193878085928432 0.11391272384482842
0.08881108863891535 -0.09136504254146563 0.11331089951977463
0.08930794874233866 -0.0914226006481528 0.11359708837094847
0.09006206391627528 -0.09081282830689388 0.11350589412942613
0.09035875638562228 -0.09001480840766461 0.11316505409226046
0.09086062919505061 -0.09030102859510429 0.11352639146255616
0.09052873642871331 -0.08955451301365067 0.11301210660663125
0.09108845016342257 -0.08962272862522014 0.11329223058167678
0.09144473271989158 -0.08891756784812134 0.11318682252675769
0.09177475747815957 -0.08831781491827587 0.11310397998326475
0.09211943346619879 -0.08872556748724077 0.11334639692378885
0.09211370872628669 -0.08769961278487746 0.11299290289857887
0.09255207878060873 -0.08819213234500589 0.11328066241231767
0.09237546478608491 -0.08705094043679802 0.11284944486355365
0.09289131408637372 -0.08749437466161471 0.1131605776070577
0.0925433640562501 -0.08661050367131999 0.11269848604709704
0.09316173239534371 -0.08677249419053397 0.11294660377116615
0.09394541297963813 -0.08618451899209763 0.11282920565897174
0.09400318403131075 -0.08563565550118898 0.11251818103836184
0.09467575455361528 -0.08568618255374584 0.11264276530876713
0.09523703371487564 -0.08522596400724322 0.11236143272459805
0.09586125812495928 -0.08474251995721828 0.11196957153922808
0.09650754923006223 -0.08541317911151838 0.11254000763382752
0.09703952614826736 -0.084947832195301 0.11213364024511378
0.09738400019496453 -0.08527143568718468 0.11242269960034627
0.0967848214932318 -0.08446012710975787 0.11169991962366965
0.09791481362304749 -0.08508814113278038 0.11221762284530687
0.09762168383681498 -0.08470370658063447 0.11187269533552517
0.09840908509397803 -0.0847597803425148 0.11185506254314155
0.09918006342392158 -0.08452787413307496 0.11154919098286509
0.09944737410238381 -0.08411760715874665 0.11111514130803428
0.09993814441862493 -0.08432652301806175 0.11132869976387959
0.10019396300185233 -0.08390687364109088 0.1109094282563478
0.10084375766396274 -0.08348506351863695 0.11063029807834246
0.10119055884786339 -0.08316713235635119 0.11054387230977944
0.1011721189862443 -0.08279369725446559 0.1103599362842121
0.10168403068854918 -0.08305967229763037 0.110829975164738
0.10205264674270981 -0.08245770366792986 0.11093233713958953
0.10238197885494665 -0.08177672712577784 0.11103501113049305
0.10245442715210969 -0.08108347426150957 0.11096756218949755
0.10277507908763794 -0.08068029757001283 0.11105811841560578
0.10244623625240379 -0.08021590952394839 0.11071108151799043
0.10288158120072696 -0.08009954995593783 0.11089735738867908
0.10286330038132996 -0.07947439904855791 0.11065474005608178
0.10282861244085463 -0.07906641632252785 0.11051056109225876
0.10328504134078222 -0.07915954738994342 0.11075264054876978
0.10335731539765389 -0.07863294353776121 0.11068802176675606
0.10328684079489424 -0.07821571376835182 0.11059167546812243
0.10375794499806494 -0.07830918855110118 0.1107843103493934
0.10388309432978966 -0.07767811755546251 0.11076751004442412
0.10394133488497787 -0.07703005172407494 0.11078706311345453
0.10441657258037387 -0.07754282342519238 0.1110434952870821
0.10399182661235348 -0.07647088422181253 0.1107874751755422
0.1044513809765503 -0.07692619492015319 0.11106906384230558
0.10395920946065608 -0.0760927592910079 0.11073185477242185
0.10432371649097939 -0.07620321122054369 0.11096363513478327
0.10443625337477613 -0.07559119121565246 0.11090544195336718
0.10458092596798108 -0.07502924974226033 0.11080114120606063
0.105020017713735 -0.0755765314870462 0.11116920215244902
0.1051917821463304 -0.074966244145502 0.1110527059929729
0.10579290929786096 -0.07565309029355566 0.11147935351924958
0.10564784898099916 -0.07497245321517301 0.1112549867780232
0.10607122121610378 -0.0749934118125421 0.11147454316512803
0.1063328518598981 -0.07437109943502772 0.11145979314351327
0.10628302172246014 -0.07368450033470861 0.11118514939282227
0.10661222563550331 -0.07388477430313779 0.11153658149320766
0.1066815295240388 -0.07316454800631896 0.11132717840757261
0.1069803415687947 -0.0722302074268376 0.1114017174034693
0.10710229348806607 -0.07166972095250732 0.11149648759847165
0.1070067466801839 -0.07122145049444227 0.11140322124245479
0.1074531478416378 -0.07135133075833995 0.11179389033599942
0.10744805715099413 -0.0702996751428503 0.11168869894974809
0.10747663683871513 -0.0692510454099579 0.11163381748308791
0.10798071323210261 -0.0700410126534284 0.1120221872152108
0.10732012446820444 -0.06838883213692391 0.1114408092317491
0.1079884823594818 -0.06929561234363912 0.11199216042819655
0.10783183025090666 -0.06845476937529488 0.11180496309738339
0.10834430828187828 -0.06895781007765217 0.11225949574931297
0.10840177808952851 -0.0680704135840453 0.11216655337563053
0.10893302964277655 -0.0685371292971098 0.11268576277817414
0.1087715986492945 -0.06782461386000133 0.1124264625901357
0.10912470220355737 -0.0675538314408083 0.11274092365529619
0.10939262029248392 -0.06665138868779194 0.11292363677055403
0.10924696505268312 -0.06596497939255914 0.11261938124034863
0.1095877057943255 -0.06573836950346239 0.11307989946674936
0.109730310470823 -0.06491751478284497 0.11331179426428074
0.10960191845439284 -0.06431964089205879 0.11295459041097233
0.10992193658173285 -0.06407391256812019 0.1135624146308893
0.10999201435441662 -0.0630968388874212 0.11394864363700218
0.10973320633399192 -0.062380043213564725 0.11365044798153223
0.10993614071707893 -0.062122046238697874 0.11438250053573261
0.10993900937143813 -0.06123070927144736 0.11475512944785672
0.10974663957210812 -0.06053549247305637 0.11439028519423976
0.1100300288436885 -0.06033596065900727 0.11508337125098957
0.11010247443902704 -0.059372003678298944 0.11543595559880661
0.10991224517367744 -0.05866462365946875 0.11516238810045484
0.1102606004428027 -0.058477766085755105 0.11575745809399558
0.11052057257080244 -0.05774157514982137 0.11592721228037335
0.11050764715734152 -0.05721405055509387 0.11554275752177004
0.11064930901182149 -0.0572304812254181 0.11586861038617118
0.07950136577841005 -0.10482296688012155 0.11769851913115273
0.07967992541732757 -0.10439206766663466 0.11759734579481482
0.0802741308057677 -0.10476164787265356 0.11817851764649213
0.08013770125666186 -0.10356891331265389 0.11737132760656635
0.08037500440341323 -0.1040289030979359 0.11784713200836655
0.08051919003200404 -0.10297816639313356 0.11722570735439157
0.08099612333904985 -0.10317314203815214 0.11757919477572415
0.08029158964674099 -0.1018801885456185 0.11610712551909012
0.08065610264546946 -0.10198538551610999 0.11641503730824011
0.08093626564753229 -0.10245059266054475 0.11702814432943935
0.08129546005262991 -0.10136682460845821 0.11611869530501492
0.0816970107250873 -0.10098240033430626 0.11585565237045004
0.08223891163023077 -0.1011152319849951 0.11629582337738455
0.08292408295998434 -0.10033760913876716 0.11570255005314753
0.08333161316990413 -0.09983545452729091 0.11527432035144518
0.0838045700603334 -0.09994828709883781 0.11576851407801303
0.08468025128742733 -0.09942328038296032 0.11580969015358956
0.0854834044955893 -0.09884874804790553 0.11588505007965702
0.08586605566403466 -0.09796726943148289 0.11547092235559583
0.08617661196889097 -0.09828367501405244 0.11591942525691812
0.0863086553949579 -0.09708730939443971 0.1152820466794383
0.08659409401398696 -0.09757130618087013 0.11576502798636319
0.08664188235493778 -0.09636550380879275 0.11516662880143466
0.08713108151531103 -0.09662312940468791 0.11565794886738788
0.0870800294015423 -0.09592826964715816 0.11529797524464597
0.08662582767942373 -0.09567200170514448 0.11480861005793248
0.08719948006688254 -0.09480620624229777 0.11476105213352003
0.08800569478141312 -0.0942560320914883 0.11497301783188978
0.08816271588412483 -0.09345793837450281 0.1145596212174034
0.08874802479771737 -0.09365279903060592 0.11500777927485506
0.08836338207721268 -0.09297073048238798 0.11432884416190346
0.08898551724846884 -0.09296563614358844 0.1146179160508218
0.08940156393270002 -0.09228493046390579 0.11430503604759973
0.08968274933611826 -0.09175188725536938 0.11403000910492433
0.09009862410438584 -0.09202832890225643 0.11436509732703037
0.08986623068591458 -0.09137456435883187 0.11381215118248149
0.09044679243475509 -0.09145872236178514 0.11407884725214712
0.09106703947075985 -0.09082014725281565 0.11388025679538295
0.09174846708306396 -0.09015930376834147 0.11377379928499529
0.09184297343387585 -0.09078596239897269 0.11411899994548515
0.09199764691868921 -0.08933213397024418 0.11351644851790356
0.09273429849507372 -0.09050395462391296 0.11420359574346203
0.09278879760561624 -0.08970415564431498 0.11383884188105049
0.09354887708929836 -0.08996882252651332 0.11412777694785897
0.09297508445645458 -0.08883994144350754 0.11357752726566975
0.09376355875979735 -0.08928896934209167 0.11393086106676148
0.09345936281106995 -0.08800477628806996 0.1134305008996305
0.09409644947597505 -0.08849336362157065 0.11373905882042518
0.09375410213251531 -0.08726829837403263 0.11326062985301377
0.09448284024461297 -0.08768860385418661 0.11352227465597393
0.09387698301305386 -0.08676703204110303 0.11311119517158774
0.09465417513741484 -0.0868625266629364 0.1132511015807413
0.09512972726750345 -0.08621617254370982 0.11300826511039312
0.09566321059655664 -0.08574582952922137 0.11279395239627786
0.09609768989706075 -0.08617364254356295 0.11304760034582406
0.09629911301573169 -0.0858192997457283 0.11286059882871813
0.09690784400308956 -0.08595893834092352 0.11288522415177664
0.09750534764997902 -0.08558920472761397 0.11263086799608282
0.09778683663805982 -0.08534828883758588 0.11246808377373722
0.09822862561503837 -0.08548010696397985 0.11246604238152012
0.09873578424828129 -0.08514894545173082 0.11213543031464923
0.09899079490057422 -0.0848742095735836 0.11186774467950902
0.0994512304745045 -0.08504184613799824 0.11198583957784568
0.10028800312589121 -0.08476743203134943 0.11175907073203345
0.1003583708533115 -0.08434403389260357 0.11134877459541478
0.10084119347924485 -0.08436535941574612 0.11142317938787377
0.10115886499136927 -0.08392802841516647 0.1111140799202375
0.10139355901692697 -0.08351587652248388 0.1108812359452394
0.10190865302176419 -0.08384155880136548 0.11145517110740849
0.10253367501970506 -0.08324572771614955 0.11157685393352425
0.10274896888221932 -0.082549845845355 0.11148773086818131
0.10314818447925601 -0.08212284190239577 0.11165790013263503
0.10291176411949877 -0.08150129267164515 0.11137258491210558
0.10338570195932913 -0.0816906604645175 0.11173161308914363
0.10285176399983155 -0.08111052468204893 0.11124308270053578
0.1033018199384968 -0.08118304488886732 0.1115239922302515
0.10349980395757856 -0.08064394478286827 0.1113840911375798
0.10370804810825511 -0.07992442346437369 0.11117441986314869
0.10448450165695483 -0.08079601656998132 0.11175161176106432
0.10473397298926361 -0.0800655134185442 0.11154829832956066
0.10520996381455883 -0.08060488398480205 0.1118288737091718
0.10413811571448536 -0.07916345186905273 0.11109417700369228
0.1055521804128977 -0.08030091225728568 0.11176468573498667
0.1052789926310471 -0.07950638849305411 0.11149004905621804
0.1058532820092359 -0.07998826668571325 0.1117176853912129
0.10465651261487664 -0.07840133293608577 0.11114636541222005
0.10610114494537522 -0.0796241777869192 0.11168520810034273
0.10577729928110251 -0.07877513165195497 0.11152502553686586
0.10634830192228735 -0.07924919369637361 0.11168609092221445
0.10517332171129869 -0.07764827885360909 0.11133653476170542
0.10656454362113363 -0.0788410489793294 0.11173726892308329
0.10610462546674143 -0.07803440998015256 0.1116256062078097
0.106736704610226 -0.07821893454637407 0.11181746139195911
0.10495706407830269 -0.07669370955124595 0.11129550499125873
0.10575891354022277 -0.07708232187905632 0.1115729202687079
0.10645090641038385 -0.07753512597333298 0.1117992235004429
0.10480290249086162 -0.0760546574698235 0.11118982632879294
0.10536358156747942 -0.07624432038630566 0.11141738178972811
0.10625326587919123 -0.07691205755823874 0.1117605688631669
0.10591573770717422 -0.07645092193483727 0.11162565403013654
0.10638405755255478 -0.07639676809154339 0.11180962651095185
0.10662840519714308 -0.07569753780736184 0.11192517899567093
0.10647576766877184 -0.07499956360227333 0.11169829720012109
0.10679333259508278 -0.0749435106689289 0.11193339072178103
0.10686361930438792 -0.07432240113329054 0.1118626408227365
0.10688263849817119 -0.07386329045021964 0.11174749426938262
0.10731531820204786 -0.07404250187447664 0.11218719414545511
0.10747340446218699 -0.07295136986331921 0.11203081346596427
0.10738295947108459 -0.07211623736252722 0.111797265116989
0.10782853361369742 -0.07222080623074681 0.11218867250745015
0.10801195916775683 -0.0716362919738086 0.11224756117053591
0.10849668422339478 -0.07052049957400693 0.11244750962280978
0.10836607965220207 -0.07103860592965418 0.11243954955492295
0.10861532281395625 -0.07114805648855617 0.11258392942286272
0.1088570414622618 -0.07094373559570946 0.11269803478850304
0.10800635390125111 -0.07093062287573901 0.11217135151574194
0.10832151647320369 -0.0697083609705077 0.1122648103655233
0.1089487181200673 -0.07041271705550158 0.11275497601631246
0.10878096544556745 -0.06963765524837874 0.11263644494892543
0.10933532831466933 -0.06997984698535624 0.11314208241367502
0.10913104077004708 -0.06925431232750118 0.11291033760966496
0.1094512736228631 -0.06889857920087314 0.11324621532909432
0.10946220014802169 -0.06797694125867523 0.11319314472076039
0.10949393151791796 -0.06735465173603451 0.11313318242724171
0.10991493197749577 -0.06733847515173594 0.11376644188542567
0.11004648165818337 -0.06610867445694625 0.11384764599876787
0.1099126157901705 -0.06549611501676812 0.11358600032990357
0.11020859148016451 -0.06524836356391285 0.11415371546735811
0.11031695106623723 -0.06441933566729731 0.11452670736607289
0.11021834479921198 -0.06379901421652127 0.11421539427535932
0.11044106252476656 -0.06353273868977764 0.11492589446642736
0.11044185326174277 -0.06256022125144656 0.11540413594965854
0.11014287218418634 -0.06187756520272911 0.11512492025170233
0.11043649462387188 -0.061641700194587916 0.11582880543070494
0.11051038771678547 -0.060769349062504925 0.11613339576864773
0.11033089495855748 -0.060119925414957164 0.11576403298625203
0.11058445992822089 -0.05985247605683132 0.11641248704061498
0.11060674545996009 -0.058983744874574535 0.11650986123434194
0.11056813207932824 -0.05828105593322371 0.11630852140388759
0.11077118735771377 -0.05806893399376879 0.11661590898198712
0.11085455857841722 -0.05763948122107363 0.11653957546683144
0.08043623418411111 -0.10641562575123477 0.11912698778317547
0.08057456853409169 -0.10665770973685641 0.11934983233884858
0.08060180234008754 -0.10566581417182655 0.1188491143106725
0.08079279574277144 -0.1062571084621191 0.11925637081401183
0.08091080279832265 -0.104923041202806 0.11862126290156404
0.08134637097063632 -0.10534708167166808 0.11904900090671913
0.08157666614628226 -0.10448801542693263 0.11868618421720295
0.0811517755177367 -0.10402938609396893 0.11820703530850586
0.08187419248100958 -0.10307421757621874 0.11788626232695305
0.08144733395509048 -0.10178392141199584 0.11665290249311253
0.0820956971480858 -0.10212526693148119 0.11721489135256923
0.08302369874772644 -0.10127033918316075 0.11683559529268135
0.08340643251566543 -0.10061689533347067 0.11631645055222958
0.08432930953647129 -0.10014899128793679 0.11629977580307158
0.08493078875689086 -0.09974424116984114 0.11627766596284526
0.08515345785567376 -0.0993831744367805 0.11610095515550967
0.08543515736493625 -0.09945562756838992 0.11635360763424842
0.08609805777538673 -0.09885277838600734 0.11630039349880214
0.08674419788123786 -0.09811655895158349 0.11620042824403033
0.08676778749625436 -0.09877811390365943 0.1166515967527928
0.08723598616710447 -0.09731755489142853 0.11609119001622319
0.08741963424168059 -0.09787717169455441 0.11652549165304703
0.08756533380266354 -0.09677916542371301 0.11603664805442589
0.08795492002490823 -0.09694263065905905 0.11638113410218849
0.08737934866326424 -0.0953079167025464 0.11519017530967593
0.08764270137660377 -0.09573787608782201 0.11560257439285092
0.0879017283254958 -0.09624538670304456 0.1160130932546188
0.08768063600445983 -0.0948228620878389 0.11510733035353367
0.08809792171948275 -0.09495383076784362 0.11545814989124255
0.08898337686453879 -0.09426055709898185 0.11553786845621397
0.08969425249993518 -0.09337773330791534 0.11522040209723768
0.0897945273529952 -0.0938541163342485 0.11564743646436772
0.08999740073990502 -0.09258419803806336 0.11474303464234249
0.09045585455048921 -0.09353537521223983 0.11562576880356051
0.09084817119043166 -0.09285640574611803 0.11520729448431137
0.09114917774618317 -0.09324682404449505 0.1155701808563424
0.0909696401612428 -0.09202833039250408 0.11463932300466653
0.09182250143959454 -0.0929308595334525 0.11548570713008813
0.09185412643573895 -0.09230690391420385 0.11504755549880863
0.09255160437010419 -0.09245545411952052 0.11531381860555351
0.09143628880637128 -0.0913191801204411 0.11429471864594747
0.09205773281987564 -0.09165856806390009 0.11465785856163464
0.09275027639712813 -0.09190707514143126 0.11499205653562862
0.09222527020834177 -0.09110376125787992 0.11438393549136269
0.09303409510548376 -0.09120475193721732 0.11464614062665646
0.09397705745269476 -0.09052389513699048 0.11452856811716232
0.0943684999398395 -0.08968491371018418 0.11426267602485553
0.09485399889502587 -0.08997947259221106 0.1145369133732423
0.09471909405147409 -0.0889475845968068 0.11405709433273585
0.09523759734361573 -0.0893699514022507 0.114374128063736
0.09515466318874921 -0.08817086616461857 0.11383556385018165
0.0957200767779466 -0.08865052134767727 0.11414620306743758
0.09568958495306819 -0.08732332319778718 0.11354787293149426
0.09620092848757503 -0.08793125009894609 0.11388191258477559
0.09568940800793839 -0.0866487900402968 0.11324513804605378
0.0967062820100535 -0.08738701973630217 0.11361640147310725
0.09688815336630684 -0.08668817444985275 0.11324266754717176
0.0975812928577323 -0.08724617610776952 0.1135489239998763
0.09819504009079852 -0.08672431617230776 0.11320727502619883
0.09840210737311858 -0.08716810686221722 0.11346377213018839
0.0980478628721826 -0.08606252378785213 0.11283608945939747
0.0989223711779039 -0.0868616223089983 0.11322469769570312
0.09921301857072451 -0.08635185818059236 0.11292454069519563
0.0995134223180502 -0.08678820114013269 0.11319992739996883
0.09916728270276716 -0.08561549545201876 0.11244110822275186
0.10022992405959412 -0.08649561878165395 0.11308903529920218
0.10010490021171567 -0.08586202568630835 0.11262914403156829
0.10083326431183462 -0.08600334062529316 0.11280047868101815
0.10002432592891171 -0.08532822204211164 0.11223009927243124
0.1008760750620171 -0.08540093575449113 0.11236101872179861
0.10127206008649745 -0.08480301574004194 0.11193813830886082
0.10150333836324651 -0.0843316672184183 0.11159343368509224
0.10212967749306653 -0.08463932182787293 0.11219890881547538
0.10277115374602383 -0.084069777534529 0.11217950399560726
0.10336293301353687 -0.08365402253217591 0.11226360239623617
0.10321180655655575 -0.08299669392148262 0.1119361830133064
0.10383128101921121 -0.08324001077350529 0.11231386589727907
0.10318447695787655 -0.0825957321988796 0.11181351002850826
0.1037128020079016 -0.08264876914231696 0.11209573250460074
0.10379015802223472 -0.08206402585077706 0.11199737114118107
0.10389804945986778 -0.08156814266075424 0.1119197494184459
0.10428373117393752 -0.08194331960590956 0.11214956729730652
0.10388527679126067 -0.081108322694524 0.11174275816249457
0.10445470396113801 -0.08167295691413656 0.11210493789244058
0.10431884210950283 -0.08133414778760574 0.11194361183172341
0.10488119376282257 -0.08147018982913837 0.11209575458669899
0.10558778778805081 -0.08115210340538642 0.11203828670951307
0.10561191403860064 -0.0807054196061438 0.11190997120043512
0.10604215605343614 -0.08074121172033744 0.11191938551348161
0.10612969739854387 -0.08031828318300843 0.1118381772723282
0.10615291826644797 -0.08002221114658306 0.11178144463809911
0.1064711769702128 -0.08006490371410965 0.11181949066179633
0.10660116301478793 -0.07963216619602953 0.11176453940584834
0.1066244025902146 -0.07929510761801074 0.1117433773305575
0.1069461894237203 -0.07938768009612736 0.11182187973452123
0.1072799698883443 -0.07878961516381507 0.11197003108810018
0.10709244826811627 -0.07784003372360801 0.11200055795568707
0.10751992643259581 -0.07822078350852418 0.11213135701964638
0.10672297065037971 -0.0770854939323566 0.11195670203742111
0.10748579910589712 -0.07776400050715321 0.11220029315917972
0.10721510610654823 -0.07721978426145186 0.11220846310099898
0.10762770048665496 -0.07749741030704739 0.11240994729020874
0.10688051974769663 -0.07659007142988211 0.11209005620663462
0.10738246598519295 -0.0765539970455534 0.11246824659952956
0.1072168986439391 -0.07549310386096425 0.11235364604531327
0.10717583009657232 -0.07477892577860382 0.11223143900825024
0.10764879776206145 -0.07506442041532992 0.11269428116123054
0.10791179711677613 -0.07438597664784981 0.11283499040826997
0.10782705896517258 -0.07367991698813604 0.11257413919504726
0.10819742672593824 -0.07301659600188215 0.11266050188551069
0.10839089117505255 -0.07212364085106476 0.11255728984567591
0.10886118183574431 -0.07261108577485402 0.11295960869020635
0.10892734324838377 -0.0716230289406571 0.11280309362856147
0.1094040963917897 -0.07216268107609095 0.11320951167699767
0.10942122275369079 -0.07139049896251586 0.11315281883948611
0.10971230876215264 -0.07169672608831834 0.11343394391723345
0.1083917429985985 -0.07144629347919512 0.11247817935881158
0.10917613084718245 -0.0708696469434946 0.1129430983928832
0.10967485731571695 -0.0711388374779046 0.11343978515602986
0.10945907447828486 -0.07077857812118163 0.1132474289148339
0.1097686525494101 -0.07053227416483616 0.1136121225753129
0.10997732037574177 -0.06942710337194269 0.1139880074761776
0.1097983244014719 -0.06833201794637922 0.11369206246309002
0.1101910344014137 -0.06819164511376971 0.11432894276853182
0.11038475189288746 -0.06743822556560061 0.11457319947450371
0.11043429067147288 -0.06666674725050482 0.1146489620714752
0.11050501162632384 -0.06560144084021848 0.11498578301042735
0.1104264369025821 -0.06499873395707763 0.11477955457740194
0.11056954734663403 -0.06477839204476377 0.11546387927572364
0.11070234229687438 -0.0639324902676258 0.11593555039727481
0.11066085789528372 -0.0632899210682404 0.1156479095940671
0.1108493215887203 -0.06297577447013568 0.1164261127690139
0.11090435844129781 -0.06201310265671822 0.11688888140319408
0.11073714940001159 -0.061384308526782186 0.11653704763135946
0.11093813728115119 -0.0611318810293861 0.11723068428010572
0.11093090436243938 -0.06035950682976307 0.11727552487328215
0.11082158951514726 -0.05963899060983925 0.11696574129696155
0.1108827771154969 -0.059581976346246984 0.11711833789373688
0.11094420792687389 -0.057840553326166035 0.11684458895286404
0.08112053303237317 -0.10647922950321606 0.1195605324725515
0.08155095256475778 -0.10595463222043768 0.11948774316617677
0.082038852089559 -0.10529105228580851 0.11930902878407189
0.08247504185594935 -0.10444629053560159 0.11893000018487415
0.08271941805128288 -0.1049580714171106 0.11927941339728815
0.08235830160709849 -0.10355864848301703 0.11837045025561879
0.08320013325151075 -0.10353620952982605 0.1185823217791841
0.08327363457134335 -0.10445786494979649 0.11908669266853071
0.08361253310553418 -0.10383070314101026 0.11881208395629833
0.08401771085791927 -0.10412655748548622 0.11900584042018322
0.08287568541927862 -0.10252813764566834 0.11782049369065739
0.08352647336752918 -0.10281542132979278 0.11819139178918099
0.08412763632312771 -0.10305723227146343 0.11845674173319917
0.08463273604786715 -0.10342179156820165 0.11869693764867634
0.08342876575931853 -0.10164572824006872 0.11730586578318049
0.0840409649682561 -0.10196278834939934 0.1177128405329068
0.08465689864966673 -0.10223556184130901 0.11802670275294341
0.08523243188219581 -0.10254496639583334 0.11830765413367497
0.08398958669148648 -0.1008449396027101 0.11680136466163878
0.08456869978468015 -0.10110306142355512 0.11722422828186382
0.08516755390362966 -0.10137150314800293 0.11759434295103553
0.08575654261114911 -0.10164235906801829 0.11792447479100555
0.0849935940120478 -0.1002096156780103 0.11670914157610719
0.0856363315025617 -0.10045835516428558 0.11716013047394229
0.0862291152812125 -0.10072192299570754 0.11754630283682986
0.08594653490110563 -0.09958005919771969 0.11673575607470044
0.08675439115050786 -0.09965198728964185 0.11716540501782169
0.08758842727531979 -0.09853977147462223 0.11698674407988686
0.08816801314992627 -0.09758417032704855 0.11683458704134328
0.08865782351320894 -0.0968064906125411 0.116725784201917
0.08836530757625288 -0.0954561370218239 0.115909279119345
0.08876829892128153 -0.09601637348549558 0.11639699874825321
0.08866813477618653 -0.09489677112208762 0.11576528918511712
0.08926133670815131 -0.0949585633181347 0.11608499142769074
0.08979151097781142 -0.09422453743909691 0.1159205712116376
0.09011261059472253 -0.09388825190279763 0.11581594250403787
0.09050148568148969 -0.09394727045816577 0.11596234645851056
0.09113314224878537 -0.09356171779460738 0.11581529864215244
0.09148835466488572 -0.09328525930486677 0.11568124781780215
0.09184557224870497 -0.09336735304944241 0.11583950874244896
0.09292410229588766 -0.09290270768432993 0.11571330656604446
0.09332455415955529 -0.0921930948686988 0.1152945758267573
0.09385002019092754 -0.09238257529338934 0.11552753708644331
0.09359977285096985 -0.09157439579043088 0.1149827708312491
0.09416883071755365 -0.09182827373431288 0.11526831111878222
0.09376570130141385 -0.09111529658477244 0.11477793275943451
0.09441064180682406 -0.0911325147852341 0.11496275053365827
0.09501541191315689 -0.09046641490368171 0.11479841062441119
0.09563064448582204 -0.0898255684314602 0.11468306724275276
0.09587968927560903 -0.09036781840602144 0.11501193557221225
0.09619769290573016 -0.08913095756633478 0.11447917495104801
0.09659668943586529 -0.08967017574088165 0.11485534472670009
0.09688501619036402 -0.08836503921793122 0.11416879591235653
0.0971425629554902 -0.08894473782603059 0.11457573253581563
0.09709886297222024 -0.0877459361270841 0.11382450289666927
0.09771453575224456 -0.08844131165102373 0.11435450337950684
0.09808571896926102 -0.08779154375210411 0.11389873067549182
0.09860965965707581 -0.0884112002795926 0.11443232261509294
0.09916252025874919 -0.0877558790825955 0.11396555928481084
0.09939077873415723 -0.08804317811217437 0.11424571933260533
0.0991433837799316 -0.08723256303366031 0.11353021087669438
0.09970708628013242 -0.0877278209555381 0.11406238278544184
0.09981896233951976 -0.08735758646142522 0.11378010105462465
0.10020405208222409 -0.08759526619299257 0.11409080465314589
0.09989148601805528 -0.08696542474850466 0.11342607600052378
0.10064429028884944 -0.08702173123277462 0.11366881367338368
0.1011486576494412 -0.08639117156338492 0.11323481990229248
0.1015517859431841 -0.08579221703565898 0.11289371146375193
0.10192659170721331 -0.08624333435080132 0.11353218331930416
0.10171554823118287 -0.08521748374745841 0.11248018010155098
0.10256088917732503 -0.08546577286689785 0.11315226895913685
0.10300740798478283 -0.08469372448558607 0.11274946147639009
0.10325904575687533 -0.08430361376022506 0.11259381454018826
0.10325313656368212 -0.08405191285473455 0.11241808005879834
0.1036671230050347 -0.08412025652455714 0.11266211614286116
0.10438761128948738 -0.08377390329026278 0.11272011365448269
0.10456787112786707 -0.08304437620585481 0.11250259810436761
0.1051451724392678 -0.08345653638466109 0.11275607738579925
0.10440399236319858 -0.08239860238800832 0.112294287092352
0.10535938298483273 -0.08310590708428317 0.11266477419066614
0.10524704606670275 -0.08261123319185304 0.11251242345486423
0.10583160234303428 -0.08292717803342381 0.11264811050761016
0.10491409156718579 -0.08201216357534338 0.11230406458332223
0.10594889108942213 -0.0826035781171315 0.11254453182231398
0.10570991586830701 -0.08221085012797072 0.11240868363736219
0.1063500778432815 -0.08239540394147135 0.11242994105822325
0.10547910138108539 -0.08174880237092076 0.11226916411651015
0.10629061843613477 -0.081858161585243 0.11225038237020733
0.10654081378264874 -0.08123691918241512 0.11203792245908992
0.10671306735759974 -0.08063344563003173 0.11190998954897151
0.10724809210595154 -0.08119318416053829 0.1120034889140387
0.10737735491979357 -0.08066635330465524 0.11195015815628973
0.10772618289377457 -0.08108910847491135 0.11199211376123447
0.10704031517168063 -0.08005105262959243 0.11187170806336943
0.10782437672624498 -0.08068403999559454 0.11201582465453243
0.10762840026975558 -0.08016515328607808 0.1119993133327138
0.10804466664849188 -0.08031914921771108 0.112100267887463
0.10741095442917026 -0.07960178485997944 0.1119328613470407
0.10788330375787174 -0.07951333213307663 0.11213047502670215
0.10779910858586496 -0.07860570548275918 0.11225468037200995
0.10772914539181877 -0.07803690020581691 0.11229531295182531
0.10795208324958985 -0.07808881897743665 0.11250808315835653
0.1078805404512628 -0.07736772391246875 0.1127537076045271
0.1079705418112851 -0.0766505629398145 0.11305505569444828
0.10764575245403546 -0.07590282206430944 0.1127771138975685
0.10805165951331223 -0.0757400574355774 0.11316051037433253
0.10815071758213189 -0.07500715880345127 0.11317835123093944
0.10830092104991046 -0.07449478212918781 0.1131963048271242
0.10826996354118344 -0.0739054994522459 0.11299700098132107
0.10868663609336014 -0.07426491129623985 0.1133671711242943
0.10877720926622458 -0.07349320034339495 0.11317004511588279
0.10925224807487921 -0.0739445237762109 0.11356305281929194
0.10935909017280976 -0.0730428877864301 0.11339348350053362
0.10984919796988361 -0.07347179428285891 0.11381672225800686
0.10991428810435093 -0.07240257428917427 0.11368352388487218
0.1104237912071087 -0.07296371558289759 0.11425021279644378
0.1103869775114679 -0.07201099413076928 0.11413565165249445
0.11065983408476936 -0.07228116537286648 0.11444748502558773
0.1100341057745842 -0.07134514888630031 0.11380273359826983
0.1106554225460347 -0.07177921770973499 0.11450507312731281
0.11046883050823572 -0.0711937877993407 0.11439029028564457
0.11074676052513255 -0.07136398136921052 0.11499526414791157
0.11018241306195121 -0.07051573672741979 0.11413505834399011
0.11055250247256095 -0.07013830191588809 0.11504029682426045
0.11046610719977569 -0.0688313722742402 0.11495354358584631
0.1105543732458877 -0.06783815785183654 0.11509180069595144
0.11067391199248677 -0.06820638368377024 0.1157968444736792
0.11063648684325372 -0.06710453131358798 0.11516696403606781
0.11074713265645847 -0.0672596101246356 0.11591249722669947
0.11074557506614686 -0.06630341037854766 0.11578563825291023
0.11076664282696279 -0.06508098307185649 0.1163569304942333
0.11072081113702197 -0.06453181563182112 0.11618604953783389
0.11085454780065017 -0.06416752016989404 0.1169774391480772
0.11103325787754183 -0.06324124835592768 0.11751801937601719
0.11103552458505805 -0.06262777240807864 0.11723222539609253
0.11120764827612123 -0.06231639942409983 0.11798928149822789
0.11129058872660187 -0.06152157953059383 0.1182911586608193
0.1111169100557672 -0.06094433007878439 0.11788550655011278
0.11130478303015144 -0.060974720115738436 0.11831094409143098
0.08267194774176025 -0.10749715278611599 0.12068880140156209
0.08286019470287923 -0.10774134609612751 0.12088036449337491
0.08211284135949912 -0.10621950764272271 0.11984991955374566
0.0828755651581766 -0.10674867377608878 0.12035356532530725
0.08303409249280032 -0.10737034298984101 0.12076241107497707
0.08243482502061084 -0.10557196780521871 0.11958712806111158
0.08313934797574152 -0.10583798633334349 0.11988587309997464
0.08343227003941991 -0.10681721774832169 0.1205344170813643
0.0837513326433298 -0.10617903471330362 0.12020166851329483
0.08405385929323762 -0.10648782393285063 0.12048769340125541
0.08356766282199012 -0.10489597084149305 0.1193811283611027
0.0845095448909013 -0.10517300328860192 0.1197406636929858
0.08465735540952887 -0.10587259398651855 0.1202299653005416
0.08497984654108028 -0.10402734746546416 0.11908227312722801
0.08557036242512438 -0.10518936525373744 0.12002442022028356
0.08579607307903592 -0.10430299594718068 0.11945425096666264
0.08635745912603741 -0.10444479599905163 0.11977778479899363
0.0857490439161516 -0.1029440494782948 0.11862040688178617
0.08628327542591077 -0.1033523974902198 0.11899058868739036
0.08677143297544918 -0.10370606873327382 0.11941668992693552
0.08632672818351553 -0.10197745519371999 0.11824876847651035
0.08684689674057854 -0.10236983394335167 0.11863162273026524
0.08726137887756581 -0.10280050105296544 0.11908659010305137
0.08680329418771376 -0.10101461879692261 0.1179202819054254
0.08738054061649925 -0.10134694130953267 0.11834486381965979
0.08778621500743596 -0.1018222080415274 0.11883827824474574
0.08712608092024263 -0.10017812324703003 0.11761087775520132
0.08787170298410192 -0.10024263297800551 0.11801223169200112
0.0884604087651547 -0.10071063044471511 0.1186921736382894
0.08791811722369655 -0.0992412267446622 0.11750990256321213
0.08859788309775798 -0.099385476253438 0.1179253884190396
0.08872976390966246 -0.09984608139085377 0.11829849922592663
0.08846653675569971 -0.09813232914469243 0.11727424921003114
0.08893240665573655 -0.09857780914813445 0.11771248064581857
0.088971377753321 -0.09721279160500754 0.11709212092669163
0.08935715501913648 -0.09766409188871014 0.11749021587848554
0.089386547716035 -0.0963536825737169 0.11689628989362963
0.08980075359212188 -0.096803632363024 0.11728493063045707
0.08996532621957835 -0.0954295608139726 0.11664357063239375
0.09025445692978569 -0.09601037683000947 0.1170827675491741
0.09032360575026585 -0.09453461803528997 0.11627193908490777
0.09074156389853416 -0.0954212349986902 0.11694723195725068
0.09118070905705387 -0.09477593359276036 0.11668862440128203
0.09134546249688495 -0.09521588758579726 0.11707331613819862
0.09136986166615559 -0.0939615757761563 0.1161869424875335
0.09221887419291502 -0.09483336191896133 0.11710047721050067
0.09228751646858954 -0.09410817934083007 0.11655991261855124
0.09318312915965325 -0.09418281453102414 0.11687790204976738
0.09236857213005584 -0.09355555420935131 0.11612382786443795
0.09344717025044032 -0.09346443637831599 0.1163287838510302
0.09410280201638162 -0.09272825213115064 0.1158757031218728
0.09462009825119266 -0.09213333099745301 0.11558131608392594
0.09499455165983216 -0.09243476527974025 0.11589309455366331
0.09501399494343882 -0.09148847232422579 0.11532319880513642
0.09552367655076016 -0.09184279463519095 0.1156648715818333
0.0952754367896093 -0.09090795099190985 0.11509361978770587
0.09598854365156075 -0.091034712362324 0.11537498035762805
0.09667253297868293 -0.09028734254073074 0.1152068642455215
0.09716403484808371 -0.08981124927813172 0.11507261071193312
0.09752040502616517 -0.08932641891494628 0.11487302462383057
0.09763860210281938 -0.08966761135651959 0.11512469916755834
0.0978377219720107 -0.08881003309172864 0.11462651269703432
0.09805661263069457 -0.08936785821136245 0.11503444752586466
