# .PCD v.7 - Point Cloud Data file format
VERSION .7
FIELDS x y z
SIZE 4 4 4
TYPE f f f
COUNT 1 1 1
WIDTH 789
HEIGHT 1
VIEWPOINT 0 0 0 1 0 0 0
POINTS 789
DATA ascii
0.09790956081319838 -0.08447037552933989 0.11118146493699242
0.09807095321007635 -0.0841967434906093 0.11094292041683455
0.09874812031708947 -0.08441416010947836 0.11104409889286192
0.09957153807005407 -0.08427071732774934 0.11073368762181937
0.10030582925477709 -0.08409810977322946 0.11036219369522135
0.1009397132174976 -0.08462723738805988 0.11077960543688556
0.10124559867898483 -0.08426627822191314 0.11028985980332154
0.10186741909609875 -0.08454660758427586 0.11044532754742074
0.10212266476979596 -0.08425384719396412 0.1100040775167286
0.10275194097005365 -0.08407884066844096 0.10957523548388755
0.10295616415805116 -0.08387220014406611 0.10927437001443566
0.10338548280680916 -0.08403056501244517 0.1095034116848369
0.10382717001973957 -0.08370447153474438 0.10937818414175801
0.10398099161991206 -0.08332258969917246 0.10927594845265107
0.10384707649557041 -0.08296033432093619 0.10915700364472827
0.10446085248232996 -0.08321143023689662 0.10949093510635971
0.10472835247219883 -0.08266929441444071 0.10961537055203607
0.10491721452987937 -0.0820507414945083 0.1096758318074958
0.10523974015104282 -0.08155173915913119 0.10975994216092315
0.10515402859828872 -0.08079883761021778 0.10954190603100596
0.1054295697335811 -0.08019341837885775 0.10950174939457438
0.10580234338181789 -0.07993643780850834 0.10959522977181636
0.10551946416952197 -0.07951324492515142 0.10941321875065856
0.10591173643460139 -0.07952994986566324 0.10959879623141044
0.10608866685970224 -0.0790366749994929 0.10958821564137347
0.10577881903187668 -0.0783396231092972 0.10932077686576042
0.10630831514262024 -0.07848498656001353 0.10961976447712425
0.10644362064805987 -0.07796720657481149 0.10967070920037016
0.10657834271673582 -0.07761746616845715 0.10975717699665721
0.10663355361064658 -0.077144082508814 0.10972330725276694
0.1068706609071283 -0.07669507316965356 0.10982046007628689
0.10687624383930946 -0.07623977838465186 0.10964583882700557
0.10729424991475559 -0.07595226467248001 0.10969461291271042
0.10744683518691886 -0.07528833896250268 0.10948255441921174
0.10814297591640976 -0.07600258255069307 0.11007340159988682
0.10797418900519064 -0.07523112770464022 0.10969641000952123
0.10846263606386021 -0.07552236791996199 0.1100631705105946
0.10835752799927849 -0.07484634859142825 0.10974834211985918
0.10849790413059295 -0.07415595701495298 0.10957404100686578
0.10842853223251477 -0.07350756167836948 0.10932306898320446
0.10882910112180286 -0.0737652399669549 0.10987379545414354
0.1089685279439194 -0.07303837196418742 0.11013715513327763
0.10908282679606295 -0.07227397417700622 0.11037653559825257
0.108627852532154 -0.07133520432828228 0.11005118049399214
0.10899142843920447 -0.07125367754994243 0.11046108059857027
0.10891168703128246 -0.0702944426416267 0.11045966642985239
0.10893180396371253 -0.06959570341456932 0.11050435571964458
0.10879167772609773 -0.06885864090950498 0.11046871254760957
0.10933889276031379 -0.06942359711204081 0.11070131848307084
0.10930036960217152 -0.068574578673233 0.11067366172483936
0.10982422681201834 -0.06916224207959928 0.11098176551273473
0.10978293595856681 -0.06826210305963615 0.11096044595785473
0.1103888336492173 -0.06876440987841669 0.11139810807169669
0.11010818426539111 -0.06805850458071724 0.11120773672046878
0.11051023752741454 -0.06784728270575056 0.11148752008075508
0.11063607574202607 -0.06694496655541031 0.11160756903012026
0.11041953698095312 -0.06624773717741872 0.11132434412118278
0.11073838363948939 -0.06605845324391776 0.1117535874191101
0.11080801915666873 -0.0651417352125752 0.11200707143673183
0.11049826796499918 -0.06441181244862909 0.11176165456003079
0.11075110530564489 -0.06414256830361317 0.11236292966521907
0.1106148538224988 -0.06314496944918227 0.11277805543626597
0.11037201388913162 -0.062499672163037825 0.11244881814103531
0.11055731855836881 -0.06216195008374154 0.11316368338548802
0.11049587722858373 -0.061136638217436756 0.11360212728860565
0.11028818660043013 -0.06041040135459143 0.11332062941183368
0.1104424183401758 -0.060111515279538195 0.11407821789682955
0.11065846570901089 -0.05925107033618791 0.11446164624774005
0.11073980667063675 -0.0585308060401204 0.11418864352653016
0.11095510556574674 -0.058520515773433576 0.114858048485668
0.11101118268584105 -0.057891898685966364 0.11456423691748237
0.1111492705108122 -0.057398396313766115 0.11458865536985659
0.07938143973660305 -0.10394936773891238 0.11683109691407628
0.07961340785021136 -0.10341971776371431 0.11663782760195787
0.0801025226877012 -0.10382326310333476 0.11724059019033149
0.07966966926087486 -0.10250268016349416 0.11601554582633945
0.0803569829228915 -0.10260073072765413 0.11655961554387373
0.0805679454802691 -0.1031122641222703 0.11707871465061678
0.08016729866822954 -0.10171930417204476 0.11571989783563007
0.08070165717820306 -0.10181864192603636 0.11616123473871541
0.08132982360368674 -0.1020889060909755 0.11679530140603017
0.08069413563727452 -0.10132752944082522 0.11569988963783831
0.08126872606740561 -0.10117644036859925 0.11590106297881482
0.08142039776281892 -0.10145987755343372 0.11629179207461937
0.08194924265263206 -0.1006966741196134 0.11571436919142852
0.08225505736989178 -0.10026621798830034 0.1152320391634136
0.08271354345449614 -0.10023383227441998 0.11548573468340773
0.0835225988402145 -0.09979866696783357 0.11526212407141637
0.08380690330779401 -0.09938876605948965 0.11471615674079301
0.08428793332892934 -0.0993175756677509 0.11492375573360483
0.0848057409020749 -0.09886794115385757 0.11458145229042163
0.08523761179325336 -0.09844000203785028 0.11431549221895258
0.08564203595440588 -0.09864538933385812 0.11493703524679516
0.08668817677866635 -0.09787624291717244 0.11495478136847749
0.08740524338367647 -0.09687977495907268 0.11465679737549658
0.08796305721178346 -0.09600470236814337 0.1145371115929932
0.08734240080281426 -0.0948999832772588 0.11353114100173545
0.08771375186827701 -0.09540535189578435 0.11403969833522933
0.08771055486763102 -0.09417083706415542 0.113418735403226
0.08834538581567516 -0.09441349043489419 0.11394638611857108
0.08937244792551349 -0.0934630108085691 0.11400573328844352
0.09003213279481709 -0.0925829323613946 0.11377149612190272
0.09089350668192009 -0.09205802229103262 0.11374533272610533
0.09099570548297665 -0.09143914382908568 0.11327722106480742
0.09147709873645321 -0.09157397617491968 0.11361853873838788
0.0911855299539604 -0.0910365247367726 0.11305306094404019
0.0917058724438075 -0.0910934354782929 0.11330740683559296
0.09252286749822812 -0.09052981189246294 0.11319274459217259
0.0928679595462184 -0.08978239720113959 0.11286232187209022
0.0933836768580022 -0.09006245916957856 0.11318141880475151
0.09306481218096037 -0.0893489969199465 0.11271586869110142
0.09365152972729109 -0.08942532314878478 0.11295807069182627
0.09405410533796595 -0.08876738060040187 0.11285753941342788
0.09443212898459633 -0.08820905611263831 0.11277799225766807
0.09477743406103734 -0.08860739291996281 0.11297439413306336
0.09482485312689733 -0.08763234274369974 0.11267156356405854
0.0952665515581994 -0.08811791231964165 0.11290208594869953
0.09512864028357045 -0.0870179876867692 0.11253539088669245
0.09565770517793276 -0.08746155055310895 0.11279086350132164
0.09532555408470397 -0.08660292695413116 0.11238910431400284
0.09597557108956434 -0.08677912953274576 0.11259059905744691
0.09682155223215888 -0.08624073666608555 0.11244185914531847
0.09689947051771539 -0.08571965685376504 0.11214745582144767
0.09760696661620316 -0.08579497809092067 0.1122217688108117
0.09820523854031542 -0.08538091451240744 0.1119150112527054
0.09886803408226442 -0.08495977455471769 0.11149044266596578
0.09953563337347049 -0.08561963911096335 0.11198930978507726
0.10010065577520726 -0.085210803842656 0.11155488352379749
0.10045681650292432 -0.08552752551402654 0.11180741284328675
0.09983519798229717 -0.08474848276139975 0.11115744164807335
0.10101140410631389 -0.08538992932475835 0.11156102215349664
0.10070832592546504 -0.08502097446384424 0.11125246584966615
0.10152675273076163 -0.08512174009533732 0.11116206959643259
0.10232691115891988 -0.08496979752808201 0.1107902094230075
0.10259819963312161 -0.08463257059617459 0.11034955179358374
0.1031100324071945 -0.0848496804783687 0.11050822895043726
0.1033647609568446 -0.08452030104200449 0.11008230628271932
0.10402575274544486 -0.08421322705766245 0.10975828555237807
0.10437697792377316 -0.08395485691671306 0.10965332766242976
0.10434508409383346 -0.08362050760044483 0.10949414669573798
0.10488838502574621 -0.08388960325943319 0.10990133744538987
0.10525530048619852 -0.08338346042321602 0.11001419514845281
0.10558068251283091 -0.08278918078248775 0.11013083106068841
0.10562977597096215 -0.08216582385568981 0.11009866260967176
0.10594535613110179 -0.08181505572425211 0.11018657618576182
0.10557925525805595 -0.08137223091554315 0.10988198488938515
0.10602266768650305 -0.08128954073205326 0.11004203000315625
0.10596941206046419 -0.08070445081468194 0.10982053007676124
0.10590932520848922 -0.0803229885332563 0.10969000987518805
0.10637836098886343 -0.08044487240086515 0.10989540328612893
0.10640965548002877 -0.07996452873838047 0.10984837978908155
0.10630677894911644 -0.07956680827190418 0.10977556835381115
0.10678746373068411 -0.07969665021060279 0.10991941540960322
0.10685670699234254 -0.07912340203228346 0.1099074347540569
0.1068571681441187 -0.07852020238478791 0.10994485702712889
0.1073687012177573 -0.07904701117396443 0.11014594532538285
0.10685921546388881 -0.07799295983243021 0.10996025183694888
0.10734445378499707 -0.07846790907482688 0.11019251498164843
0.10679108388189326 -0.07763026982082392 0.10992104394380442
0.10715134489259369 -0.07776875649937488 0.11012509818062353
0.10720834711906477 -0.07718028804703651 0.11008451761814383
0.1073017879140123 -0.07663747782534666 0.10998804384917572
0.10777383027591982 -0.07720545181341108 0.11030184345324523
0.1078893717875406 -0.07661256620999105 0.11019037010697684
0.10852315269803024 -0.07732885688358648 0.11053812455939205
0.1083284418888925 -0.07664710360938191 0.11034988796594304
0.10872825675645614 -0.07669467283462682 0.11052461633236206
0.1089235820757423 -0.07609151679851912 0.110505213180222
0.10881948300316603 -0.07540763553042122 0.11026001724736643
0.1091409345886317 -0.07562421034681067 0.11057279884626495
0.1091492893258954 -0.07490926550661949 0.11038529279322165
0.1093441570616915 -0.07399450661689032 0.11047157321283878
0.10940159617087633 -0.07344206606374463 0.11058620169238259
0.10926314033706792 -0.07299459510357838 0.11052565155333992
0.10970322230358283 -0.0731300427251829 0.11086994851275965
0.10960452130049193 -0.07207386846792217 0.11082814361567153
0.10953985229439012 -0.07101219369140895 0.1108283336962414
0.11008945110177823 -0.07181383914725173 0.11112584544840237
0.1093205859277852 -0.0701342141160903 0.1106893913149066
0.1100210686425302 -0.07105584277791183 0.11112817772144447
0.10979825720299827 -0.07019735257182647 0.11099703579350692
0.11030241797440825 -0.07070639124508776 0.1113742323773886
0.11028119766074755 -0.06979686719940781 0.11131928656439875
0.11079997741614812 -0.07026322537925116 0.11176280557840956
0.11059796817783443 -0.0695373945572698 0.11155658790086179
0.11089832603026958 -0.06924705367821644 0.1118478616469089
0.11107025958001883 -0.0683079191395604 0.1120581492038685
0.11088650868001558 -0.06760548497674249 0.1118129373626293
0.11116261834885514 -0.06735749878871308 0.11225862198014822
0.11119524559093233 -0.0664974340530019 0.11253410099658359
0.11104050612673748 -0.06588623979195524 0.11222289850625308
0.1112931113561131 -0.06560867552600877 0.112821267939621
0.11124822101179623 -0.06456695259113389 0.11326225606510827
0.11094605966652925 -0.06382398769630332 0.11302827922123367
0.11105377852033556 -0.0635264737919818 0.11376505626009836
0.11093701742098361 -0.06257836823513313 0.11419950907586587
0.11071885882426863 -0.06186021318317213 0.11388672980860658
0.11092898086799562 -0.06162610222991642 0.11458180548503011
0.11089483721824892 -0.060590630299479545 0.11500047800018919
0.1106618790948304 -0.05985349859906278 0.11478370168636416
0.11095560151784466 -0.05963072127715458 0.11537883460303915
0.11114928171028302 -0.058845582913832406 0.11558748847584757
0.11112750598728462 -0.05830106190409364 0.11523697277241345
0.1112427381483323 -0.058305106837971694 0.115559877824837
0.0806709519960446 -0.10404220563568324 0.1177582727890882
0.08088256008756056 -0.10361078646668571 0.11764799789868347
0.08146736900765837 -0.10398452703841812 0.11821157992942131
0.0814115105482748 -0.10278840460818155 0.11739658903065053
0.08161906475969873 -0.10325155073617528 0.11787124656408053
0.08184447113730592 -0.10219736768732074 0.11723080747069628
0.08232009553554136 -0.10240138038161788 0.11756809567429793
0.08169090396219544 -0.1011111481430616 0.1160974560016226
0.08205819736176924 -0.10121878054520587 0.11639583115672934
0.08230942213897094 -0.10167916687654191 0.11700936855754752
0.08275832260635174 -0.10061782613214644 0.1160692965088197
0.08319856085334376 -0.10024696653943722 0.1157888889295648
0.08374662398198596 -0.1003850135500186 0.11621101096286322
0.08450555983585462 -0.09963700655771199 0.11558738225164684
0.08495859092231423 -0.09915957431293469 0.11514229802483611
0.08544243637194202 -0.09927217552720102 0.11561583019590596
0.08638023377007852 -0.09877518333427901 0.11562004145886308
0.08724762107309093 -0.0982237297076611 0.1156619096553491
0.0877081678601775 -0.09736915187868211 0.11523964393188
0.08800936222112293 -0.09767924187078551 0.11566536566562811
0.08822552531664775 -0.09651196126323816 0.11504063451712629
0.08849287843207897 -0.0969861954536754 0.11549891586675491
0.08862020202545016 -0.09580949892580219 0.11491811065237859
0.08911442915226694 -0.09606125959576439 0.11537678783119062
0.08910511488722174 -0.0953836163655777 0.11503052482854881
0.08864737906049575 -0.09513784141431449 0.11457091272748855
0.08930436669398911 -0.09430336586758885 0.11450335988572426
0.09018029018081503 -0.09377314972904732 0.11467969857625804
0.09039225871519276 -0.09301207875574909 0.11427663919261503
0.09099216461380842 -0.09319829443904266 0.11468665927113829
0.09063289656099688 -0.09254937879737513 0.11404715001732335
0.09128564647318575 -0.09254737379719867 0.11430166665125764
0.09176093327552125 -0.09190469561807665 0.11398565410093338
0.09208172579860205 -0.09140470676662968 0.11370883575716888
0.09250503020277343 -0.09167352165304138 0.1140101884250846
0.09229396215867068 -0.09105554264817864 0.11349228508856675
0.09289727468470277 -0.0911443957204383 0.11371970275670941
0.09357766332713678 -0.09055615063934762 0.11350250178783991
0.09432075094813577 -0.089948989069422 0.11337192642700897
0.0943925147811706 -0.09054104048515232 0.11369339783816702
0.0946201243942072 -0.08917604170337254 0.1131276791319573
0.09534457757281017 -0.09030442810035948 0.11372125701787876
0.09544394537115625 -0.08955645324918025 0.11337416083321461
0.09623667760455473 -0.08983042009085698 0.11360009784046936
0.09568461487768949 -0.08874593008351944 0.11313624398451598
0.09649687273356444 -0.08919306270367795 0.11341499642999027
0.09623704721181389 -0.08796711489604335 0.11299098091786408
0.09688502074313349 -0.08844699864389018 0.1132324952889791
0.09658164796908668 -0.08727421843126298 0.11283526965829535
0.0973307483066908 -0.08769450084885543 0.11302138037702929
0.0967311724895732 -0.08679771793600152 0.1127025284933044
0.0975438554487745 -0.08691332577758938 0.11277723294862763
0.09806800729863464 -0.0863183298106258 0.11253033061242262
0.09864119901555501 -0.08589135355059069 0.11229851673941152
0.09908269805503489 -0.08631825738998526 0.11249415612654502
0.09930561561768546 -0.08599198851052169 0.11231069467655394
0.09993905296660786 -0.0861567237986684 0.11227323422877111
0.100575702775824 -0.085837946608106 0.11198918912518158
0.10087495929337927 -0.08562241242995387 0.11181633803956229
0.10133241495473692 -0.08578044337886857 0.1117606040288165
0.10186575639428391 -0.08550462682444297 0.11139341957919614
0.1021331562655445 -0.08526789325696187 0.11111147177043981
0.10260975220398207 -0.08545362708065145 0.11117799743199155
0.10347592173079893 -0.08527081452809755 0.1108815385210156
0.10354493141432944 -0.08490493996955008 0.11048701165315118
0.10404588683842979 -0.08496991250929045 0.11050859257915252
0.10436697498456253 -0.08461682539080775 0.11018667045488
0.10459903890850952 -0.08427674877133687 0.10995200322797671
0.1051438503419982 -0.08458390236963445 0.11046355101510555
0.10578348301655202 -0.08409702642897814 0.11057236889982824
0.1059925588008901 -0.08350047000379492 0.1105109001442632
0.10640069942342506 -0.08313261173491299 0.11068117664240351
0.106128945564007 -0.0825666675156865 0.1104501793370817
0.10663287134748162 -0.08275486675891362 0.11076969196779465
0.10604947174609367 -0.08220928059716393 0.1103456202572533
0.10652118813307965 -0.0822941587497639 0.11059485904225706
0.10669302812952522 -0.08182382704071162 0.11046446439415987
0.10685916026568992 -0.08118035491213416 0.11026374100948409
0.10771230016954347 -0.08202227178583726 0.11075031532923342
0.10790144438517278 -0.08139645683634225 0.11055141587874177
0.10842856158577995 -0.08191225667978887 0.11077271835384461
0.107235454563747 -0.08052107437444385 0.1101721328978746
0.10873167828140075 -0.08169627179607418 0.11068181515387995
0.10839075211542014 -0.08095227190359573 0.11045502763361449
0.10899473739307368 -0.0814567034186393 0.11061806351481576
0.1076828025410757 -0.07986985971195534 0.11019978934398791
0.10920492327165042 -0.0811416335170337 0.11057204539305364
0.10880953336473001 -0.08032167315918061 0.1104680172363132
0.10940166059506523 -0.08082404589776179 0.1105541769799696
0.10811461467862934 -0.07921153677137815 0.11037562873748667
0.10956714570312921 -0.08046082854464943 0.11059612061270253
0.10904908137094847 -0.07965662437080644 0.11056607183968462
0.10967146525648479 -0.0798808848100699 0.11068454300497137
0.10780833618369408 -0.0782906839036616 0.11039233974906582
0.1086208103903132 -0.07872228717002151 0.11058860525770642
0.10932214354527424 -0.07920969315623788 0.11072688753059917
0.10760275197014671 -0.07766112525109617 0.11032474547677365
0.10816094930395655 -0.0778841055477282 0.1104980340016672
0.10907146623088375 -0.07859596712784678 0.11073309658234533
0.10870988965440695 -0.07812220830003874 0.1106488674180267
0.10914674391678358 -0.07809951454684852 0.11078443006404903
0.10930464152323734 -0.07742585984690094 0.11089047936410906
0.10910833521018418 -0.07672565397916928 0.11070411727335115
0.10939523315767403 -0.07668770033131377 0.11090746993459877
0.10941020825710324 -0.07607259977667272 0.11085472503967368
0.1093920706237011 -0.075615218525123 0.11075775684387287
0.10980448334696657 -0.07581126775738072 0.11114371332402807
0.1098677095908998 -0.07472529988899648 0.1110196766127164
0.1097124700550826 -0.07389162176749905 0.11083816440881541
0.11014014061171014 -0.07400314642199264 0.11117919274903472
0.11025979292620175 -0.0734211379833678 0.11125544041993747
0.11060756975333601 -0.07229632017020422 0.1114793987370762
0.11053517056652433 -0.07282262626222134 0.1114596126908978
0.1107808306191146 -0.07293058982600222 0.11157400040690628
0.11098235302505426 -0.07272049301818707 0.11166723016261278
0.11018687243078613 -0.07271297102275118 0.11122353272127182
0.11036516792606763 -0.07147328493460284 0.1113482077360574
0.11100239955344962 -0.07217910537436008 0.11173491453022283
0.11076538903288234 -0.07139217569675943 0.11167429124141179
0.11128260299910238 -0.07172452840872766 0.11208908086404733
0.11103972496591635 -0.070991441230297 0.11192100299193676
0.11128764106545387 -0.07061365130893979 0.11223705777014685
0.11122525474919433 -0.06966831739637129 0.11223784998603183
0.11121195685610347 -0.06902880487344572 0.11221202536229112
0.11156729632960202 -0.06899190196828353 0.11280553048973774
0.11159361294816741 -0.06771688423685529 0.11295907386288881
0.1114201275180455 -0.06709047834610271 0.11275364722240679
0.1116465276173003 -0.06681185918829996 0.11330855526473979
0.11163472736597094 -0.06593293443071109 0.11372943963111219
0.11151497331753644 -0.06529616664390221 0.11346687287717372
0.11164743736600082 -0.06498863529957716 0.1141787539426603
0.1115189466146635 -0.06394611077076559 0.11472912953159034
0.11116814287484231 -0.06324303330567621 0.11451685929107752
0.11139060155553963 -0.06296556479357346 0.11522622859140677
0.11136601567338539 -0.06203639167474752 0.11559002758396525
0.11116188626269559 -0.06137195555674761 0.11526709877334548
0.11134331526473958 -0.06105628375486881 0.11593016300011867
0.11128432128571521 -0.060132391218856655 0.11608696449770667
0.11120530992837009 -0.05939954176131308 0.11593185924595913
0.11136712274966619 -0.05916494524660069 0.11624899161461257
0.11142769896598424 -0.058714649670962134 0.11619915650472204
0.08152283302623738 -0.1056374473023624 0.11915455811223223
0.08164534084232193 -0.10587762740360401 0.1193727489784584
0.08174168722338451 -0.10489075773098833 0.11887063932781566
0.08189616431677701 -0.10548130527668496 0.11927049458045309
0.08210886715163698 -0.10415098496669237 0.11862845107112806
0.08252478860191251 -0.10457689061242889 0.11904020481850405
0.08281895380451525 -0.1037214542838254 0.11866394853525312
0.08241826888733159 -0.10325939717686133 0.11819904270478303
0.08322814653598665 -0.10231412757034114 0.1178384280111529
0.0828848906931059 -0.10102814273326134 0.1166046006806934
0.08352648439984448 -0.10137811857012778 0.11714478914406273
0.08454417321781023 -0.10055121267728409 0.11671801777535852
0.08498759047025327 -0.09991728208032438 0.11617972294800322
0.08597260593647321 -0.09947715594384335 0.11612009052978939
0.08661744463839437 -0.09909175024884055 0.11607175648456025
0.08687110821964018 -0.09874168906096897 0.11588868203412932
0.08715579414022605 -0.09881571260991288 0.11612472189708557
0.08788462994159404 -0.0982322324951125 0.11604387072742593
0.08861096638369709 -0.09751810418194158 0.11591825692310237
0.08858327666344536 -0.09816361589210593 0.11636031741645629
0.0891757071429882 -0.09673968623540088 0.11579245872192974
0.08932438862702545 -0.09728635375438296 0.11621112315744425
0.0895564219592573 -0.09621545086967931 0.11572885480065269
0.08994567576277235 -0.09637632402261358 0.11604937068237525
0.0894591991022625 -0.09478379042291588 0.11491409453932327
0.08970296574873472 -0.09519920828995493 0.11530456105964755
0.08993910948460376 -0.0956946466198419 0.11569520180196614
0.08980896248076878 -0.09431738202741613 0.11482126616002951
0.09023192173517562 -0.09444405504480984 0.11514621178422775
0.09119521664896209 -0.09378198421635618 0.11518880471096554
0.09199910015672808 -0.09294755663970812 0.11485295958312464
0.09206691632395984 -0.09340328836897001 0.11525938120838161
0.09236607806743434 -0.09219698978766395 0.11437923053264368
0.09277873619864845 -0.09311386119075608 0.11520504231057323
0.09323592389480025 -0.09247589248845782 0.11478323456863539
0.09352351749483694 -0.09285873170546712 0.11511195497485044
0.09341462095055345 -0.09169124640416923 0.1142322237149635
0.09424831789054416 -0.09257499217817783 0.11499427439542828
0.09432339894685728 -0.09197913087872085 0.11457475330172763
0.09504138821047894 -0.09214249090024043 0.11479092751503712
0.09394070130168176 -0.09103463884326496 0.11387762797075837
0.09457501032604326 -0.09137285516605463 0.11418873812889793
0.09528446462025164 -0.09162810690253753 0.1144717954701286
0.09477893001715282 -0.09085248340510232 0.11392084170687719
0.09562331439086988 -0.09097156446349641 0.11412537789697093
0.09665243646612336 -0.09036093885603105 0.11395628109746503
0.09711171175981065 -0.08958006418251271 0.1136913179553001
0.09760258150673871 -0.0898701470801159 0.11392061670925173
0.09751519850864387 -0.08889388221527504 0.11348516208332633
0.09803480767720102 -0.08930538636669728 0.11374805697737292
0.09801099095707755 -0.08817128687136101 0.11326341275028586
0.09857667224025658 -0.08864186828714393 0.11350728862832452
0.09861023543233947 -0.08738564535425004 0.11297110954133041
0.09911638582461774 -0.08797975916832261 0.11323463114400574
0.09863752447625222 -0.08675106239416641 0.11269752648723734
0.09967380719429345 -0.0874907844987322 0.1129474964068072
0.09989239297251556 -0.0868425095643886 0.11258895270573793
0.10059337858958836 -0.08739839094657303 0.11280687523137575
0.1012543634417262 -0.08694466814124481 0.11243059326373675
0.10145091348443282 -0.08736713872527795 0.1126417626759889
0.10112676330823774 -0.08631920306058276 0.11211284271893472
0.10200752110705497 -0.08711475142194057 0.11236339949501782
0.10233135699422205 -0.08665881980579829 0.1120679947946724
0.10262536574400685 -0.08707795366825936 0.11228569311368544
0.10230606207957198 -0.08596808004885931 0.11163187970723198
0.10338259346241659 -0.08684843471464833 0.11212121935634092
0.10327369252376167 -0.0862547826754402 0.11171419330526498
0.10402797126131963 -0.08643171338785802 0.1117994178212325
0.10320004475377162 -0.08575511838391879 0.11135269930005948
0.10408293986603771 -0.0858819187531393 0.11138965867862662
0.10449712690213857 -0.08537905317722921 0.11095677955415056
0.1047327185650688 -0.0849860925108963 0.11061190170109031
0.10538544774165996 -0.08527919141290896 0.1111449049817562
0.10604996227756562 -0.08481790343520927 0.11110657243150764
0.10666668432341894 -0.0844835775877957 0.11117027075560035
0.10649243820049753 -0.08390854933127512 0.11089889428029646
0.10715187820049281 -0.08414310420973518 0.11121407321638772
0.1064529638750493 -0.08356038462573645 0.11080610035070446
0.10701084278282824 -0.08362142901883415 0.11104758418524502
0.10707332146945472 -0.0831022574453807 0.11098211629050518
0.10716258040909099 -0.08266606197481366 0.11092778212009002
0.10758400286271325 -0.08301551752432672 0.11110705906185091
0.10712076806716932 -0.08226043940323814 0.11077640293116295
0.10774668037400442 -0.0827911367552901 0.11106430612239201
0.10758474221301523 -0.08248770740429343 0.11093077633499195
0.10816819447171748 -0.08264651804979449 0.11103249587164139
0.10885402352544477 -0.08242848716917021 0.11092192534890301
0.10883728784997311 -0.08204338509104164 0.1108099230700586
0.10926120030602876 -0.08212994185153162 0.11076475573809724
0.1092943458961421 -0.08178122964426496 0.11069564661009894
0.10929023286210789 -0.08151628129322899 0.11065368524800569
0.1096012245329644 -0.08158561180558627 0.1106465960813345
0.10968006117038806 -0.08120582807961263 0.11058772323227548
0.10966736199042053 -0.08089721210654609 0.11057604190888516
0.10998667827988208 -0.0810079971891787 0.11061042379344009
0.11024269998513617 -0.08046389644847413 0.11074327048177168
0.1099648080688077 -0.07954308938096154 0.11084129836064383
0.11040832168599214 -0.07993702070790468 0.11090233270992331
0.1095305798984034 -0.07879371135391208 0.11087295140538235
0.11032691225482116 -0.07949270866590684 0.11099547163289337
0.11000338640864438 -0.07895122230139848 0.11106030129562153
0.11041061899525227 -0.07924612535691906 0.1111844778059144
0.10962430191874024 -0.07831885965520244 0.11100333438656124
0.11007081245487485 -0.07831258688134245 0.11130982297133683
0.10982589546828991 -0.07725546618490059 0.11125669558425504
0.10973348581031599 -0.07654207104371823 0.11117175293608912
0.11018715867850655 -0.0768451278457751 0.11156482603110393
0.11037669268851616 -0.07617354836775132 0.11170865869007919
0.11024784785792285 -0.07546322327294408 0.11149316895764672
0.11054301488644923 -0.07480272530290584 0.11157374107814194
0.11066024418525898 -0.07390945570817213 0.11150280804016667
0.11112917553466592 -0.07439669757499957 0.11182816288391667
0.11111081805566275 -0.07340373585827459 0.11172280889753397
0.11158236390903115 -0.0739395795459932 0.11204095065536314
0.11151790195865342 -0.07315950530918777 0.11202001220649688
0.11179922275105168 -0.07346061909636366 0.11224936868353971
0.11060037332562127 -0.07323175707703634 0.1114686046059878
0.1112488549567937 -0.07263737800453254 0.11186799720488616
0.11169567937930361 -0.07289503698193675 0.11228683480703015
0.11146741114613257 -0.07253571677916798 0.11213817645860481
0.11170575093554412 -0.07227210257734759 0.11248096269517566
0.11177551264581327 -0.07112794105315043 0.11289139539122435
0.11153636117095475 -0.07001581405332948 0.1126773421240789
0.11185592058895825 -0.06985117037423309 0.11328635100000739
0.11197539259302348 -0.06906954453712863 0.11356058315137929
0.11195763650660821 -0.06826805957733051 0.11368221565269451
0.11189541649753357 -0.06714664979524805 0.11408761161758559
0.11177539698993273 -0.06652765694379636 0.11392982543530637
0.11181873451001825 -0.06627089693853373 0.11462304296923365
0.11183397621760781 -0.0653656135499535 0.11515041655540237
0.11177663132117224 -0.06470530422549618 0.11490533833597316
0.11187455356246362 -0.06433731020506477 0.11570342366392465
0.11181376911241182 -0.0633019193990262 0.11624421492718465
0.11162040131402087 -0.06266180967781287 0.11594175842628161
0.11173654259971984 -0.0623606225247249 0.1166570156722039
0.11165724571158277 -0.061547530957123994 0.11675751931081617
0.11152006702624782 -0.060803596681780654 0.11649380092601588
0.11156256538172385 -0.06073561010487525 0.1166507094075297
0.11150617426951409 -0.05891736111458328 0.1164897500529302
0.08221227824949531 -0.1057016904721352 0.11956379806724043
0.08268775844867762 -0.10518208448510617 0.11947279681888084
0.08323338937584394 -0.10452523568996192 0.11927127006024751
0.08374384437848019 -0.10368697016325751 0.11886738741461694
0.08395601634251364 -0.1042000567611375 0.11920752874926821
0.08368941995340805 -0.10280197637816618 0.11830700816240086
0.08455391849070698 -0.10278729843733171 0.1184788772808551
0.08456406071418077 -0.10370603588152617 0.11898589250376547
0.08495626964079264 -0.1030840120931599 0.11869165882551341
0.08535057322126335 -0.10338439941089936 0.1188649501984424
0.08429813649594885 -0.10178797164434995 0.11772168214921307
0.08494380254852239 -0.10207985626524065 0.11806419925071286
0.08554064507118685 -0.10232411218281051 0.11830291416195278
0.08603291667504001 -0.10269265558464855 0.11851853388013842
0.08493492240409652 -0.10092824652346406 0.11717160266080896
0.08554122606437628 -0.10124970125830668 0.11755112547317088
0.08615056322299881 -0.10152314697460357 0.11783672740550852
0.08671482216818845 -0.1018338662056866 0.11809175148763952
0.08557484434757487 -0.10015178062401071 0.1166362801079184
0.08615251572546108 -0.10041548404837017 0.11703167222177548
0.08674459617140787 -0.1006846848636035 0.11737266164001935
0.08732203058168918 -0.1009525004788049 0.11767552729762529
0.08665195437886648 -0.09954660116503831 0.1164963538699387
0.08729626948758758 -0.09979724323278998 0.11691475555560406
0.08787955174977122 -0.10005688109978986 0.11727076745095376
0.08767522431264749 -0.09894086588742061 0.11647951992783216
0.08850162851057368 -0.0990165657391492 0.11686712314398943
0.08944429131308722 -0.09793279977158895 0.11665412363693464
0.09011570480026705 -0.09700334952016343 0.1164823964637482
0.0906814499200291 -0.09624478372366 0.1163570887538954
0.09047203820012456 -0.0949298807693195 0.11557434298812587
0.09085043102164865 -0.09547760905755003 0.11603125455453371
0.09082703486370684 -0.09439084199771078 0.11542119780346041
0.09143545451047394 -0.09445557086907642 0.11570589148032508
0.09203132680320975 -0.09375399463573954 0.11552289046194168
0.09239190613419107 -0.09344054976639396 0.11540652776301231
0.09278955551039876 -0.0935028651848632 0.11552458977243972
0.09348017553208443 -0.09315271373299235 0.11534579594930743
0.09387256639266926 -0.09290181138404086 0.11519788249664124
0.09423410576495585 -0.09298314692882673 0.11532804454051443
0.09539458754158127 -0.0925743760805457 0.11514076492177255
0.09586670827422979 -0.09191882985237355 0.11472285044390412
0.09640134510804554 -0.09211248224943258 0.11490498008827149
0.09619466205048917 -0.09133823920785396 0.11441105967203678
0.09677362038073396 -0.09159479497049722 0.1146452591320077
0.0963946674476214 -0.09090826126033982 0.11420662491377104
0.09706819519720282 -0.09094246241431307 0.1143421635165592
0.09774334974104404 -0.09033419720839418 0.11415252606603572
0.09842172347823028 -0.08974449504803579 0.11401055395805033
0.0986522578239448 -0.09026464776819795 0.11430370938538952
0.09905177497704108 -0.08910796806247888 0.11378434180405991
0.09943967127633262 -0.08963083037410532 0.11410686027626905
0.09981043311111243 -0.08841179814776642 0.11344217246918717
0.10005163850201895 -0.08896407915157133 0.11380964030427908
0.100066405001135 -0.08784516230664764 0.11310345078815186
0.10067190833968921 -0.0885121748343501 0.11355338550061249
0.1010921117374235 -0.08792954679962937 0.11308235590661365
0.10160813017126867 -0.08852785935942631 0.11354337829942966
0.10221712848126627 -0.08794247922415184 0.11305020182190362
0.10244025800599449 -0.08822017507847257 0.113295980910475
0.10221939103258493 -0.0874598280704748 0.11263261031018518
0.10278225644527351 -0.08793721547760001 0.1130986465442508
0.1029140760170255 -0.08759792611652624 0.11281898293936966
0.10330300414521369 -0.08783630029339125 0.1130791160225188
0.10300714698109388 -0.08724987324242683 0.11246846585521239
0.10378906367122288 -0.08733711169505999 0.11263255438254964
0.10434195267861897 -0.08679371823782192 0.11217885072549787
0.10477720908444027 -0.08626728101819353 0.11183187799064326
0.1051504300266447 -0.08667467134507273 0.11240603041492925
0.10495532733545453 -0.08575998302769955 0.1114331803874084
0.10582939442580155 -0.0860058484777542 0.11200892401136753
0.10630254213275077 -0.08535610793199276 0.11161726874267287
0.1065673206720742 -0.08503490332572092 0.1114658451397242
0.10655938219910349 -0.08482406774356763 0.11130630615622009
0.10699508771348165 -0.08489298728825219 0.11151265176320653
0.10774614593874905 -0.08461818963772227 0.1115344939267899
0.10791949753433935 -0.08399596671506471 0.11136301461313043
0.10853303981910704 -0.0843759998514745 0.11153590345155735
0.10772624273398237 -0.083425558925985 0.1112155070047351
0.10874913130745628 -0.08408357450830885 0.11145714329114687
0.10861063655096549 -0.08364437520098511 0.1113504123149905
0.10922697403355533 -0.08395173912281194 0.11141043207897461
0.10823497379630058 -0.08311360807231459 0.11121039498934439
0.10932831380051805 -0.08368383371130189 0.1113159676846584
0.10905869422393709 -0.08334168933758562 0.1112265725571852
0.10971487580126091 -0.08355978585292705 0.11116542515494961
0.10879177327825086 -0.08293254902214442 0.11114106036381605
0.10961231178473743 -0.08311376395968942 0.11102190942164424
0.10980573933374173 -0.08260980623766385 0.11080250052289928
0.10989645151716615 -0.08211734219948552 0.11067182732133031
0.11047967152920851 -0.08265994866290262 0.1106664774949763
0.11052764346397967 -0.08222779539773747 0.11061211419801602
0.11090937938784402 -0.08263641645373183 0.11057732789583267
0.1101421229408626 -0.08163367174237746 0.11061625420185375
0.11094864774858286 -0.08229054578039346 0.11061034274374436
0.11071126979999577 -0.0817924018180973 0.11065686185217391
0.11111470655969939 -0.08196914683877812 0.1106792195188612
0.11045475433176732 -0.08124279162492579 0.1106495671264371
0.11088042165798019 -0.08119539803568136 0.11077524891226871
0.11070148946169216 -0.0803248184691438 0.1109624785646511
0.1105803967429725 -0.07977144309918982 0.1110426728819376
0.11076807494202973 -0.0798397558207345 0.11120070283484645
0.11059633925290098 -0.07913929919855982 0.11147957199879835
0.11059088059125086 -0.07843720931715362 0.11179974940751236
0.11024350879206699 -0.07768207813101215 0.11160847481034393
0.11059545000529472 -0.07753215200787976 0.11194437766148105
0.11063699273778567 -0.07680076752656533 0.11199007444927198
0.11074287039879693 -0.07628870659175534 0.11202096838866547
0.11067260965193855 -0.07569618583883211 0.1118558633846362
0.11108437543841918 -0.07605828738600433 0.11216097633146521
0.11111568986658164 -0.07528278868563164 0.11199924601405793
0.1115857894181571 -0.07573197772397697 0.1123124197380204
0.11161164433955244 -0.07482508499749761 0.11218185082273062
0.11208501858294624 -0.07524523280104199 0.11251803097433045
0.1120444979597227 -0.07416670772165475 0.11243455453049667
0.11253166261636893 -0.07471265052181457 0.11289955310967786
0.1124070402285756 -0.07375205540964799 0.11284920701076713
0.1126691249039381 -0.07401243635566741 0.11310905691720068
0.11203196377888663 -0.07308973839194292 0.1125932982595109
0.11260768269866053 -0.07350084693825963 0.11319699529134288
0.11238275599536864 -0.0729118494943245 0.11313818054101626
0.11260354127496967 -0.07305696942863954 0.11369346562838023
0.1120618821498868 -0.07223339300812946 0.11295340916867103
0.11229870930200218 -0.0718098127297233 0.11383554499893347
0.11211464436185745 -0.07048238066906982 0.11383775167823432
0.11211912184052653 -0.06945963142413233 0.11402868994186194
0.11217856417487286 -0.06980458079948532 0.11469147904278008
0.11214603824295165 -0.06870146124920218 0.11414460161158423
0.11217309927906217 -0.06882748604768911 0.11486023692746043
0.1121217996117895 -0.06784166990807854 0.11480887543557583
0.11197004053862065 -0.0665411649938334 0.11548046830778523
0.11187406405507709 -0.06598250842050223 0.11535858728872243
0.11191498939640197 -0.06555494309443466 0.11617122159943934
0.11198278733530673 -0.06455442406110136 0.1167785731650657
0.11196962809261128 -0.0639288159033982 0.11653564889910756
0.1120541622995922 -0.06355948965337374 0.11732305601100972
0.11203814138654235 -0.06271182294066865 0.11769642979584852
0.11183408996697998 -0.06213120068650478 0.11733322631771773
0.11199637337451365 -0.06214119434382688 0.11775989503666359
0.08371905832998719 -0.10672720342082938 0.12063416906204408
0.08389315146720602 -0.10697185828727548 0.12081994440864578
0.08323959531312952 -0.1054475679649099 0.11981443723278856
0.08397746065027258 -0.10598223649895229 0.12028603644110829
0.0840920788542922 -0.10660196981801694 0.12069276954803775
0.08361477072944937 -0.10480748309127427 0.11953279805933156
0.08431552585600116 -0.10507792588495274 0.11980034400884293
0.0845374325962443 -0.10605557191235887 0.12044038670513565
0.08491376687824223 -0.10542292289481495 0.1200871004569337
0.08519410496065728 -0.10573171967525004 0.12036056748777209
0.08482940128562456 -0.10414615676948269 0.11926644268552383
0.08576645787847445 -0.10442794294358171 0.11958151060656579
0.08585804644659963 -0.10512327466032606 0.12006755267972848
0.08634151966959587 -0.10329780575941297 0.11888842945221473
0.08684099132914291 -0.10445257444717472 0.11980748867140628
0.08714554330635303 -0.10357743910435624 0.11921772870391813
0.08769866994300078 -0.10372078663349284 0.11951210402620244
0.0872102967718173 -0.10223405746305382 0.11837877175496969
0.08771991256600496 -0.10264241584449246 0.11872057038026537
0.08818290291295681 -0.10299311651770507 0.11912146412841015
0.08787596800783605 -0.10128713737418785 0.11797019165253261
0.08837284767265567 -0.10167716237788771 0.11832673443725827
0.08875376388228647 -0.10210056704368732 0.1187585106896039
0.08843867770826654 -0.10034575032128956 0.11761551079583578
0.08899499511998742 -0.10067220776832786 0.11800816444037295
0.08936222015172485 -0.10113591506212613 0.11847787394869784
0.08883738003442829 -0.09953126597521614 0.11728986959747754
0.08958787432944147 -0.09959469422728146 0.11765083394413717
0.09013274278216643 -0.10004332042073968 0.11829601472971045
0.08972416512580404 -0.09861876980440422 0.11715257605598146
0.090404890373302 -0.09875997256710246 0.11752801738811591
0.09049163919190624 -0.09920737197641899 0.117891835534902
0.09037445638609988 -0.0975386151807604 0.1168971076595591
0.09081421851422022 -0.09797257870184882 0.11730141457064731
0.09097130588841205 -0.0966441632397347 0.11669924004958385
0.09132809565556062 -0.09708773830787866 0.11706393487853646
0.09146308883954654 -0.09580763569584928 0.11649043169423699
0.09185774298543381 -0.09625339876881629 0.11684374237713344
0.09212888446306815 -0.0949197267239756 0.11621040973005953
0.0923868169061471 -0.09548395760524682 0.11662113679797524
0.09256222158783432 -0.09405945954001663 0.11583274577342652
0.09293234982371838 -0.09491776147934032 0.11645864132428832
0.09343443068008285 -0.09430243820510277 0.11618536220749108
0.09356705224955258 -0.09472244802158944 0.1165491263194467
0.0936903141860228 -0.09352789014076013 0.11568951038534478
0.09449798053098021 -0.0943655515953381 0.11652423834024404
0.09462845268050395 -0.0936787525532045 0.11599544455468082
0.09554966518802374 -0.0937605180560846 0.11624311376950941
0.09475916573405038 -0.09316510951772515 0.11556748687157344
0.0958867008126265 -0.09309658650117943 0.11569403300550046
0.09663064936051087 -0.09243252664852622 0.11521537844427622
0.0972187509033813 -0.0918929999925329 0.11490714781810077
0.09758188667618567 -0.09217897645470124 0.11517081093692612
0.09767582071887905 -0.09129554008132855 0.11464510531104048
0.09817964578072692 -0.09163857368367041 0.11492508367171846
0.09798777753469311 -0.09075715462762197 0.11441497953265387
0.09872117998873194 -0.09089515209909223 0.11463133799203352
0.09948084226489401 -0.09021111062384621 0.11443045574372486
0.10002232954813862 -0.08978208847360607 0.1142621917176495
0.1004242058252371 -0.08934187603265889 0.11405040920672599
0.10052347780998205 -0.08966271268186993 0.11427445500122112
0.10078284490195345 -0.08886508369132838 0.11380059743386317
0.10097795892823688 -0.08939907421904474 0.11415729140318528
0.10112911082746771 -0.08906074299287228 0.11393366832371532
0.10184357550912125 -0.08918076639342809 0.11411711095926297
0.10255073119981518 -0.08851595579499548 0.11363819170827362
0.10289488330293213 -0.08814645591365493 0.11330619168885771
0.10331374740422468 -0.0882354643657529 0.11351090925780992
0.10401418276021905 -0.08780286359381903 0.11321576817609469
0.10447099134404798 -0.08741365120418973 0.11290091771839886
0.10461605229297972 -0.08709914886302313 0.11258841826099575
0.10512854193659511 -0.08720339774752188 0.11306390789249841
0.10600917158513294 -0.0866853394410345 0.1129218726099638
0.10680941840682623 -0.08626436127259089 0.11273751489038507
0.10700018823211374 -0.08574177331425835 0.11219871346580364
0.10743767808904363 -0.08603476703516406 0.11265713458283838
0.10700265116855759 -0.0852544516830789 0.11177834426776524
0.10792135361393929 -0.0858210984856976 0.11252313889841212
0.10768973230690519 -0.08542311482599656 0.11210350158580602
0.1083968411497575 -0.08555583561572787 0.11231850096255397
0.10754169226943036 -0.0850624725802825 0.11178033096729272
0.10836914379651158 -0.08515414805236605 0.11195326181647375
0.10887462074620943 -0.08477831797694269 0.11171151441502637
0.10940205756193454 -0.08438933092627886 0.11149549826192941
0.11000813483052473 -0.08499600406607502 0.11164887576782152
0.11039352499624916 -0.08458198256854295 0.11126402532352213
0.11079024608894239 -0.08496903000795769 0.11127742922767238
0.10996193652742565 -0.08401343979710894 0.1112368126070797
0.11107997207582926 -0.08477166498830185 0.11104481181745712
0.11101779464121424 -0.08434526468487288 0.11091374560915956
0.11164688616491746 -0.08478234862732253 0.11079993067729754
0.11183335557615544 -0.084454698364214 0.11057685852165244
0.11214675440658059 -0.08479630421342006 0.11050785094400477
0.11049629253256917 -0.08362503873663484 0.11091974706522978
0.11144803188190354 -0.08389952621977616 0.1106108410359255
0.11229374639148103 -0.08459093561729869 0.11033146345477311
0.11215313247138392 -0.08415568311686258 0.11033774718014908
0.11252811251706073 -0.08451162210586174 0.11021819998492
0.11035032446858672 -0.08306636439310605 0.11082985483664523
0.11103067271606257 -0.08317759102506428 0.11063828520257904
0.11177543044055867 -0.08345557587408041 0.11048750317218439
0.11256743163490608 -0.08421018233718504 0.11022329147734355
0.11235444589279497 -0.08371569851247558 0.11035623897397709
0.11273722277446141 -0.08397752397934843 0.11031382631166377
0.11138030233862546 -0.0826413835296692 0.11057639229226304
0.11204107662665137 -0.08287651408511676 0.11064321310915518
0.11259634356641439 -0.08346043424851811 0.11051718807828727
0.11146029518120851 -0.08180119577174567 0.11082549165011973
0.11244060713437641 -0.08284894360859307 0.11092361491005955
0.11193570734054736 -0.08203871714931639 0.11109407828968267
0.11223860664845342 -0.08212820853904648 0.1113483928149065
0.11111114331971178 -0.08068200315550714 0.11106014446007785
0.11150941050117288 -0.08102566131989651 0.11128204642384466
0.11191143698699801 -0.0813527610048937 0.11157172178659353
0.11105224547200022 -0.0798988939654285 0.11149870460309604
0.11152500641553413 -0.08031331234840558 0.11183092945109604
0.11080433798868276 -0.07914691353710732 0.11172663939843279
0.11112392273852759 -0.07914416781715251 0.11202294453094586
0.11097258737312769 -0.07811727573613432 0.11222869633039038
0.1110219156896145 -0.07726709006228594 0.11230611381612332
0.11126110430179634 -0.07780459418822847 0.11250180370833976
0.11098023350971341 -0.07662449387038202 0.11220769895008184
0.11143418217618191 -0.07731505886724692 0.11256284866391461
0.11142620819142364 -0.07661308647829795 0.11243314382296692
0.11184782823508507 -0.07701599820093429 0.11272611918730885
0.11198527317307277 -0.07616862898261047 0.11262458389083599
0.11231739561340455 -0.07656129068195217 0.11295933050040467
0.11242090153101414 -0.07568920083894007 0.11285956333871484
0.11273840294016925 -0.07598111782644333 0.11330720639784629
0.11267333937962018 -0.07537656187408558 0.11305650841402666
0.11281435354587128 -0.07508574686373203 0.11332460441451506
0.11282363361970124 -0.07434365195395663 0.11338511784263806
0.11275743464392654 -0.07374283037576483 0.11344536288731516
0.1128396035658206 -0.07380981379106043 0.11409115603335282
0.11262755762137922 -0.07256007659847138 0.11472618118696201
0.1124107965884971 -0.07130313243379578 0.11519000484660623
0.11227200966852796 -0.07072693301485215 0.11456855937441966
0.11224708750618095 -0.07010920264682577 0.11549019844744944
0.11217429574184573 -0.06919053308832443 0.11555468858214119
0.11218011062174536 -0.06855821337853983 0.11561032392597052
0.11217895432317294 -0.06811430743636203 0.1154688139724364
0.11215411244915628 -0.06797642407271358 0.11608485219532347
0.11208082779639271 -0.0671643898293024 0.11620636836683419
0.11196066595671895 -0.0658134779497315 0.11703639185671141
0.11192227415647524 -0.06514623067734865 0.11699763275294316
0.11202214460951015 -0.06487638420942558 0.11773502200953934
0.11221764018284747 -0.06389835304377976 0.11826101952825636
0.11215681615462333 -0.06322616863961603 0.11808336759077262
0.11230457205119412 -0.06300778915660148 0.11868340087017065
0.11236174820703895 -0.06255791093329158 0.11868695056166605
0.08452691620084518 -0.10685362205302085 0.12098114769521963
0.08508936759423669 -0.1070617460201789 0.12140075999220999
0.0854161360624432 -0.10720192297251996 0.12175969598471596
0.08487458758458417 -0.10629917284763304 0.12069318252175197
0.08532777266495105 -0.1065416481013647 0.12105932095203552
0.08565159593405888 -0.10682031151912855 0.1215778358784442
0.08584082633868668 -0.10569667726629992 0.12054342234360998
0.08622747188933329 -0.10601079114565302 0.12109877614488346
0.08640306402115142 -0.10508231387937188 0.1201772512651891
0.08687662387887332 -0.10507297060089968 0.1204622911711534
0.08769003724701066 -0.10418962961167792 0.12002513967396396
0.08838471377350875 -0.10338121239960331 0.1196527840932805
0.08833903430680587 -0.1038663231872169 0.12036747290048996
0.08898220741256341 -0.10251467102071289 0.11929953611085284
0.08904304517175543 -0.10295746089039234 0.11997587121713645
0.08956036290735592 -0.10161133920430337 0.11901489006470184
